ncols 403
nrows 30
xllcorner    385060
yllcorner    477186
cellsize     2
NODATA_value -9999
-9999 -9999 -9999 -9999 -9999 -9999 -9999 -9999 -9999 -9999 -9999 -9999 -9999 -9999 -9999 -9999 -9999 -9999 -9999 -9999 -9999 -9999 -9999 -9999 -9999 -9999 -9999 -9999 -9999 -9999 -9999 -9999 -9999 -9999 -9999 -9999 -9999 -9999 -9999 -9999 -9999 -9999 -9999 -9999 -9999 -9999 -9999 -9999 -9999 -9999 -9999 -9999 -9999 -9999 -9999 -9999 -9999 -9999 -9999 -9999 507.949 507.859 507.791 507.814 507.849 507.749 507.671 507.849 508.019 508.346 508.509 508.564 508.614 508.789 508.849 508.759 508.664 508.399 507.869 507.344 507.311 507.381 507.411 507.476 507.831 507.934 507.774 507.996 507.851 507.926 508.286 508.614 508.914 508.891 508.866 508.861 508.846 508.794 508.824 508.644 508.536 508.451 508.559 508.396 508.351 508.359 508.394 508.526 508.794 508.846 508.694 508.614 508.519 508.476 508.319 508.214 508.209 508.169 508.031 507.994 508.061 508.066 508.064 508.059 508.001 507.879 507.906 508.529 508.639 507.906 507.874 507.906 507.936 507.801 507.766 507.774 507.569 507.356 507.271 507.144 507.114 507.009 506.876 506.671 506.639 506.629 506.571 506.436 506.434 506.354 506.374 506.644 507.011 507.186 507.036 506.761 506.664 506.516 506.619 506.621 506.614 506.544 506.484 506.471 506.494 506.524 506.614 506.579 506.591 506.659 506.711 506.749 506.751 506.769 506.774 506.704 506.614 506.571 506.514 506.476 506.451 506.386 506.366 506.319 506.136 505.874 505.686 505.591 505.504 505.366 505.311 505.169 505.141 505.126 505.074 505.091 504.901 504.816 504.864 504.911 504.951 505.054 505.106 505.154 505.099 504.954 504.839 504.914 504.959 505.004 505.144 505.149 505.001 504.739 504.599 504.549 504.524 504.591 504.649 504.649 504.622 504.672 504.737 504.657 504.627 504.782 504.852 504.877 504.907 504.844 504.674 504.484 504.389 504.334 504.277 504.139 504.029 503.924 503.817 503.652 503.404 503.262 503.074 502.992 502.922 502.917 502.967 502.999 503.069 503.027 502.777 502.434 502.192 502.249 502.404 502.159 501.959 501.907 501.849 501.859 501.779 501.727 501.662 501.614 501.562 501.419 501.304 501.239 501.307 501.424 501.287 501.304 501.244 501.087 501.012 501.047 501.012 500.999 500.892 500.769 500.569 500.304 500.209 500.094 499.999 499.929 499.852 499.669 499.457 499.187 499.017 498.942 499.062 499.042 499.017 498.852 498.764 498.377 498.094 497.877 497.599 497.372 497.164 497.032 497.022 496.944 496.687 496.514 496.404 496.477 496.407 496.372 496.534 496.554 496.634 496.687 496.717 496.772 496.847 496.877 496.974 496.992 497.039 497.159 497.207 497.289 497.759 497.322 497.392 497.569 497.627 497.552 497.677 497.762 497.757 497.709 497.779 497.764 497.849 497.879 497.862 497.844 497.869 497.904 497.919 497.882 497.942 497.834 497.737 497.719 497.684 497.632 497.647 497.627 497.587 497.502 497.317 497.154 497.059 496.994 496.867 496.769 496.617 496.434 496.267 496.187 496.107 495.954 495.744 495.564 495.472 495.392 495.164 494.909 494.959 494.869 494.727 494.497 494.132 493.807 493.602 493.474 493.244 493.107 492.917 492.699 492.417 492.157 491.959 491.794 491.609 491.384 491.214 491.037 490.894 490.764 490.609 490.429 490.254 490.102 489.992 489.847 489.807
-9999 -9999 -9999 -9999 -9999 -9999 -9999 -9999 -9999 -9999 -9999 -9999 -9999 -9999 -9999 -9999 -9999 -9999 -9999 -9999 -9999 -9999 -9999 -9999 -9999 -9999 -9999 -9999 -9999 -9999 -9999 -9999 -9999 -9999 -9999 -9999 -9999 -9999 -9999 -9999 -9999 -9999 -9999 -9999 -9999 -9999 -9999 -9999 -9999 -9999 -9999 -9999 -9999 -9999 -9999 -9999 -9999 -9999 -9999 -9999 507.892 507.804 507.756 507.776 507.721 507.524 507.124 507.341 507.714 508.216 508.426 508.521 508.394 508.609 508.736 508.711 508.731 508.509 507.969 507.394 507.264 507.314 507.909 507.711 507.596 507.676 508.329 508.411 508.381 508.369 508.589 508.606 508.669 508.744 508.814 508.786 508.739 508.794 508.714 508.549 508.499 508.449 508.436 508.279 508.246 508.199 508.196 508.316 508.334 508.491 508.426 508.361 508.339 508.424 508.336 508.174 508.086 507.981 507.936 507.981 507.986 508.001 508.041 507.891 507.764 507.736 508.479 508.204 507.776 507.796 507.806 507.794 507.666 507.549 507.491 507.486 507.454 507.154 506.996 506.904 506.839 506.869 506.741 506.584 506.536 506.559 506.599 506.404 506.311 506.316 506.376 506.631 506.941 507.064 507.071 506.876 506.589 506.546 506.529 506.481 506.439 506.394 506.334 506.354 506.349 506.356 506.454 506.549 506.546 506.509 506.544 506.556 506.546 506.576 506.599 506.606 506.541 506.589 506.461 506.541 506.439 506.384 506.296 506.241 506.031 505.779 505.601 505.541 505.424 505.261 505.249 505.131 505.051 505.061 504.979 504.969 504.814 504.804 504.836 504.846 504.901 505.024 505.064 505.074 505.146 504.919 504.834 504.836 504.859 504.869 504.944 504.949 504.831 504.631 504.501 504.434 504.421 504.544 504.581 504.481 504.512 504.597 504.527 504.517 504.534 504.654 504.664 504.672 504.704 504.669 504.552 504.314 504.154 504.087 504.034 503.827 503.687 503.507 503.389 503.232 503.099 502.847 502.609 502.652 502.729 502.662 502.597 502.507 502.537 502.492 502.377 502.107 501.844 501.914 501.929 502.017 501.782 501.694 501.702 501.577 501.557 501.459 501.397 501.339 501.244 501.219 501.119 501.172 501.119 501.027 501.002 501.034 501.022 500.867 500.674 500.674 500.697 500.577 500.404 500.259 500.142 499.929 499.829 499.577 499.469 499.384 499.249 499.107 498.989 498.752 498.724 498.752 498.749 498.634 498.519 498.287 498.144 497.824 497.517 497.287 497.122 496.979 496.812 496.767 496.674 496.582 496.412 496.237 496.139 496.112 496.149 496.254 496.332 496.339 496.357 496.442 496.484 496.632 496.729 496.802 496.849 496.897 496.989 497.139 497.194 497.247 497.764 497.324 497.329 497.477 497.517 497.507 497.624 497.694 497.687 497.697 497.732 497.769 497.864 497.877 497.862 497.842 497.857 497.892 497.894 497.892 497.897 497.922 497.804 497.724 497.662 497.642 497.642 497.614 497.524 497.367 497.262 497.089 496.994 496.897 496.789 496.667 496.559 496.479 496.292 496.164 496.042 495.874 495.674 495.472 495.327 495.219 495.117 494.829 494.769 494.712 494.602 494.357 494.017 493.742 493.594 493.387 493.137 492.959 492.787 492.597 492.319 492.034 491.842 491.654 491.522 491.357 491.197 491.039 490.832 490.644 490.507 490.327 490.174 490.094 489.912 489.767 489.697
-9999 -9999 -9999 -9999 -9999 -9999 -9999 -9999 -9999 -9999 -9999 -9999 -9999 -9999 -9999 -9999 -9999 -9999 -9999 -9999 -9999 -9999 -9999 -9999 -9999 -9999 -9999 -9999 -9999 -9999 -9999 -9999 -9999 -9999 -9999 -9999 -9999 -9999 -9999 -9999 -9999 -9999 -9999 -9999 -9999 -9999 -9999 -9999 -9999 -9999 -9999 -9999 -9999 -9999 -9999 -9999 -9999 -9999 -9999 507.784 507.981 507.801 507.731 507.646 507.316 506.826 506.724 506.771 507.649 508.236 508.376 508.196 508.011 508.469 508.484 508.479 508.609 508.429 507.831 507.251 507.201 507.296 507.896 508.136 507.989 508.114 508.376 508.469 508.446 508.391 508.466 508.619 508.641 508.699 508.741 508.849 508.831 508.854 508.636 508.454 508.421 508.294 508.144 508.049 508.019 508.011 508.024 508.101 508.066 508.159 508.131 508.074 508.044 508.124 508.121 508.056 507.954 507.824 507.841 507.946 507.994 507.964 507.796 507.664 507.616 507.794 508.121 507.681 507.671 507.781 507.696 507.614 507.474 507.296 507.229 507.209 507.154 506.999 506.814 506.879 506.836 506.761 506.564 506.406 506.326 506.326 506.361 506.286 506.259 506.261 506.384 506.699 506.919 506.894 506.906 506.869 506.594 506.396 506.276 506.266 506.239 506.234 506.186 506.139 506.176 506.294 506.269 506.316 506.351 506.336 506.286 506.299 506.336 506.329 506.366 506.391 506.376 506.401 506.396 506.394 506.394 506.334 506.156 506.054 505.894 505.754 505.581 505.429 505.254 505.086 505.001 504.989 504.976 505.001 504.991 504.851 504.771 504.821 504.819 504.769 504.731 504.806 504.824 504.954 505.021 504.904 504.904 504.779 504.681 504.661 504.559 504.504 504.571 504.439 504.344 504.331 504.344 504.464 504.441 504.494 504.579 504.544 504.377 504.324 504.467 504.469 504.457 504.379 504.287 504.237 504.179 504.034 503.812 503.702 503.504 503.309 503.157 502.939 502.852 502.802 502.569 502.354 502.219 502.279 502.349 502.357 502.214 502.057 502.029 501.947 501.897 501.677 501.544 501.684 501.674 501.647 501.594 501.437 501.357 501.257 501.214 501.234 501.117 501.097 501.072 501.039 500.982 500.952 500.859 500.864 500.842 500.812 500.802 500.619 500.347 500.374 500.269 500.164 500.027 499.849 499.759 499.534 499.279 498.957 498.794 498.712 498.609 498.602 498.607 498.519 498.504 498.402 498.289 498.119 497.977 497.719 497.547 497.304 497.142 496.934 496.847 496.739 496.599 496.454 496.354 496.224 496.084 495.967 495.917 495.997 496.022 496.094 496.147 496.077 496.089 496.192 496.344 496.562 496.669 496.712 496.779 496.819 496.932 497.024 497.122 497.224 497.832 497.304 497.319 497.362 497.424 497.469 497.589 497.634 497.594 497.662 497.704 497.757 497.802 497.829 497.842 497.864 497.867 497.914 497.884 497.922 497.909 497.894 497.874 497.779 497.684 497.647 497.657 497.577 497.487 497.339 497.134 497.024 496.964 496.879 496.759 496.672 496.524 496.459 496.289 496.172 495.994 495.817 495.612 495.429 495.229 495.099 494.917 494.819 494.579 494.502 494.422 494.179 493.904 493.694 493.552 493.337 493.139 492.962 492.774 492.487 492.229 491.937 491.684 491.587 491.417 491.234 491.034 490.859 490.739 490.532 490.389 490.262 490.132 490.014 489.807 489.637 489.529
-9999 -9999 -9999 -9999 -9999 -9999 -9999 -9999 -9999 -9999 -9999 -9999 -9999 -9999 -9999 -9999 -9999 -9999 -9999 -9999 -9999 -9999 -9999 -9999 -9999 -9999 -9999 -9999 -9999 -9999 -9999 -9999 -9999 -9999 -9999 -9999 -9999 -9999 -9999 -9999 -9999 -9999 -9999 -9999 -9999 -9999 -9999 -9999 -9999 -9999 -9999 -9999 -9999 -9999 -9999 -9999 -9999 -9999 -9999 507.604 507.769 507.619 507.374 506.951 506.706 506.676 506.886 506.929 507.289 507.956 508.174 507.924 507.526 508.186 508.181 508.374 508.426 507.949 507.384 507.119 507.154 507.251 507.819 508.219 508.276 508.144 508.149 508.214 508.136 507.971 507.901 508.341 508.601 508.636 508.651 508.666 508.529 508.411 508.369 508.369 508.354 508.104 507.839 507.716 507.731 507.761 507.801 507.864 507.829 507.884 507.869 507.886 507.866 507.859 507.906 507.876 507.884 507.836 507.851 507.929 508.001 507.949 507.679 507.596 507.714 507.544 507.509 507.579 507.591 507.521 507.456 507.414 507.254 507.004 506.969 506.899 506.871 506.751 506.659 506.554 506.494 506.456 506.389 506.241 506.149 506.119 506.171 506.174 506.214 506.201 506.346 506.629 506.734 506.711 506.719 506.706 506.476 506.331 506.196 506.086 506.099 506.181 506.124 506.101 506.074 506.044 506.076 506.141 506.141 506.141 506.071 506.054 506.109 506.066 506.106 506.144 506.199 506.179 506.186 506.176 506.151 506.134 506.064 505.944 505.829 505.686 505.556 505.429 505.174 504.939 504.871 504.894 504.936 504.956 504.946 504.896 504.809 504.761 504.734 504.674 504.546 504.611 504.716 504.724 504.739 504.756 504.861 504.774 504.616 504.491 504.249 504.241 504.311 504.229 504.186 504.124 504.156 504.231 504.306 504.194 504.267 504.267 504.174 504.094 504.179 504.152 504.224 504.182 503.989 503.839 503.679 503.612 503.432 503.299 503.109 502.954 502.792 502.529 502.322 502.187 502.082 501.992 501.899 501.877 501.979 502.087 502.032 501.907 501.762 501.672 501.532 501.387 501.329 501.479 501.492 501.359 501.154 501.139 501.169 501.102 500.954 501.034 501.132 500.997 500.964 500.849 500.817 500.792 500.774 500.712 500.707 500.694 500.509 500.384 500.132 499.937 499.874 499.799 499.632 499.439 499.299 499.009 498.769 498.484 498.324 498.182 498.159 498.184 498.252 498.209 498.214 497.969 497.757 497.652 497.492 497.272 497.182 497.009 496.874 496.747 496.664 496.529 496.319 496.192 496.072 495.842 495.742 495.809 495.932 495.932 495.954 495.967 495.959 495.987 496.034 496.084 496.249 496.409 496.584 496.629 496.694 496.777 496.874 497.002 497.109 497.252 497.744 497.354 497.287 497.339 497.364 497.419 497.469 497.489 497.534 497.647 497.747 497.757 497.749 497.782 497.862 497.869 497.879 497.927 497.927 497.902 497.887 497.879 497.877 497.869 497.814 497.714 497.689 497.617 497.412 497.279 497.154 496.977 496.894 496.832 496.714 496.612 496.497 496.437 496.272 496.117 495.984 495.844 495.569 495.372 495.194 494.977 494.734 494.589 494.477 494.299 494.204 494.017 493.867 493.704 493.512 493.279 493.114 492.912 492.712 492.487 492.154 491.852 491.609 491.429 491.244 491.049 490.849 490.674 490.552 490.404 490.254 490.169 490.044 489.807 489.597 489.502 489.437
-9999 -9999 -9999 -9999 -9999 -9999 -9999 -9999 -9999 -9999 -9999 -9999 -9999 -9999 -9999 -9999 -9999 -9999 -9999 -9999 -9999 -9999 -9999 -9999 -9999 -9999 -9999 -9999 -9999 -9999 -9999 -9999 -9999 -9999 -9999 -9999 -9999 -9999 -9999 -9999 -9999 -9999 -9999 -9999 -9999 -9999 -9999 -9999 -9999 -9999 -9999 -9999 -9999 -9999 -9999 -9999 -9999 -9999 -9999 507.342 507.521 507.414 507.001 506.694 506.759 506.819 507.209 507.409 507.441 507.779 507.911 507.779 507.319 507.374 507.891 507.954 507.739 507.346 507.079 506.991 507.156 507.156 507.691 508.141 508.201 507.921 507.964 507.936 507.639 507.411 507.581 508.161 508.446 508.414 508.421 508.301 508.199 508.166 508.216 508.211 508.174 507.846 507.539 507.459 507.536 507.534 507.554 507.611 507.666 507.709 507.664 507.714 507.761 507.779 507.789 507.839 507.881 507.874 507.804 507.879 507.914 507.784 507.789 507.754 507.576 507.394 507.394 507.354 507.309 507.279 507.214 507.121 506.849 506.776 506.799 506.661 506.611 506.569 506.509 506.441 506.331 506.246 506.121 506.021 506.004 506.031 506.086 506.164 506.211 506.326 506.456 506.661 506.616 506.549 506.511 506.596 506.471 506.151 506.089 506.004 505.999 506.019 506.101 506.064 506.059 505.929 505.849 505.931 505.916 505.864 505.876 505.861 505.916 505.931 505.936 505.949 506.036 505.961 505.984 505.989 505.936 505.934 505.836 505.839 505.724 505.631 505.494 505.324 505.091 504.906 504.866 504.891 504.906 504.906 504.959 504.966 504.759 504.696 504.649 504.539 504.426 504.431 504.544 504.599 504.599 504.619 504.794 504.766 504.544 504.336 504.191 504.111 504.011 503.949 503.976 503.979 503.914 503.916 503.921 503.884 503.909 504.029 503.904 503.894 503.889 503.934 503.959 503.929 503.714 503.482 503.319 503.204 503.109 502.922 502.792 502.587 502.397 502.167 502.007 501.854 501.802 501.737 501.609 501.557 501.687 501.839 501.774 501.629 501.584 501.524 501.377 501.237 501.209 501.207 501.167 500.977 500.869 500.894 500.899 500.887 500.864 500.824 500.934 500.857 500.807 500.714 500.627 500.669 500.649 500.534 500.514 500.417 500.259 500.044 499.799 499.559 499.384 499.277 499.159 498.939 498.672 498.417 498.204 498.027 497.979 497.892 497.867 497.824 497.812 497.774 497.734 497.537 497.352 497.207 497.074 496.927 496.774 496.687 496.572 496.449 496.352 496.189 496.009 495.844 495.629 495.497 495.479 495.602 495.794 495.794 495.822 495.872 495.882 495.914 495.974 496.012 496.137 496.382 496.547 496.597 496.669 496.702 496.834 496.927 497.064 497.169 497.682 497.394 497.282 497.319 497.292 497.319 497.399 497.422 497.532 497.739 497.754 497.717 497.744 497.757 497.782 497.824 497.884 497.924 497.904 497.887 497.909 497.839 497.809 497.762 497.724 497.759 497.734 497.544 497.432 497.264 497.129 496.937 496.879 496.782 496.662 496.529 496.444 496.364 496.232 496.047 496.002 495.759 495.444 495.384 495.169 494.854 494.657 494.489 494.357 494.337 494.029 493.857 493.737 493.602 493.477 493.262 493.019 492.852 492.704 492.484 492.217 491.944 491.577 491.289 491.129 490.919 490.719 490.562 490.429 490.264 490.152 490.102 489.902 489.674 489.467 489.307 489.202
-9999 -9999 -9999 -9999 -9999 -9999 -9999 -9999 -9999 -9999 -9999 -9999 -9999 -9999 -9999 -9999 -9999 -9999 -9999 -9999 -9999 -9999 -9999 -9999 -9999 -9999 -9999 -9999 -9999 -9999 -9999 -9999 -9999 -9999 -9999 -9999 -9999 -9999 -9999 -9999 -9999 -9999 -9999 -9999 -9999 -9999 -9999 -9999 -9999 -9999 -9999 -9999 -9999 -9999 -9999 -9999 -9999 -9999 -9999 507.291 507.286 507.054 506.654 506.769 507.219 507.306 507.541 507.839 507.831 507.806 507.944 507.639 507.154 506.999 506.946 506.931 506.924 506.851 506.799 506.876 506.984 507.241 507.906 507.949 507.881 507.794 507.711 507.719 507.624 507.339 507.409 508.014 508.164 508.104 508.089 508.034 508.004 508.071 508.036 508.049 507.801 507.439 507.221 507.189 507.334 507.344 507.314 507.451 507.554 507.554 507.504 507.521 507.544 507.624 507.676 507.726 507.826 507.841 507.714 507.664 507.624 507.571 508.034 507.991 507.354 507.281 507.156 507.096 507.029 507.071 506.916 506.876 506.691 506.579 506.499 506.429 506.351 506.281 506.294 506.249 506.146 506.024 505.931 505.889 505.954 505.974 506.059 506.231 506.229 506.259 506.469 506.676 506.526 506.466 506.409 506.464 506.394 506.061 505.969 505.899 505.949 506.081 506.034 505.961 505.889 505.751 505.694 505.716 505.726 505.709 505.714 505.716 505.739 505.801 505.824 505.876 505.914 505.861 505.786 505.739 505.669 505.686 505.639 505.669 505.474 505.439 505.339 505.194 504.991 504.846 504.886 504.899 504.879 504.861 504.926 504.824 504.601 504.444 504.381 504.319 504.324 504.236 504.224 504.296 504.334 504.336 504.441 504.424 504.349 504.211 504.056 504.044 503.901 503.824 503.836 503.806 503.729 503.696 503.614 503.626 503.697 503.672 503.612 503.634 503.697 503.689 503.692 503.574 503.357 503.137 502.994 502.884 502.772 502.564 502.442 502.284 502.069 501.892 501.779 501.629 501.439 501.402 501.344 501.364 501.422 501.489 501.382 501.292 501.302 501.237 501.172 501.087 501.082 500.934 500.794 500.752 500.682 500.709 500.774 500.799 500.764 500.694 500.709 500.662 500.597 500.529 500.494 500.364 500.252 500.282 500.154 500.077 499.932 499.714 499.444 499.232 498.974 498.787 498.674 498.442 498.239 498.002 497.827 497.652 497.584 497.562 497.479 497.407 497.379 497.357 497.334 497.157 496.927 496.837 496.712 496.597 496.387 496.342 496.247 496.034 495.919 495.809 495.682 495.432 495.262 495.222 495.297 495.394 495.604 495.619 495.697 495.824 495.782 495.822 495.884 495.937 496.037 496.222 496.417 496.544 496.594 496.674 496.767 496.857 497.077 497.172 497.512 497.352 497.294 497.294 497.249 497.287 497.359 497.417 497.529 497.702 497.704 497.682 497.727 497.764 497.809 497.799 497.832 497.842 497.834 497.884 497.972 497.852 497.777 497.722 497.642 497.642 497.682 497.489 497.329 497.214 497.062 496.917 496.839 496.722 496.599 496.452 496.332 496.324 496.214 495.982 495.837 495.592 495.299 495.197 495.009 494.692 494.532 494.337 494.199 494.069 493.959 493.742 493.594 493.464 493.332 493.182 492.979 492.807 492.634 492.364 492.137 491.907 491.657 491.349 490.937 490.829 490.682 490.557 490.357 490.174 490.074 489.974 489.777 489.602 489.387 489.142 488.999
-9999 -9999 -9999 -9999 -9999 -9999 -9999 -9999 -9999 -9999 -9999 -9999 -9999 -9999 -9999 -9999 -9999 -9999 -9999 -9999 -9999 -9999 -9999 -9999 -9999 -9999 -9999 -9999 -9999 -9999 -9999 -9999 -9999 -9999 -9999 -9999 -9999 -9999 -9999 -9999 -9999 -9999 -9999 -9999 -9999 -9999 -9999 -9999 -9999 -9999 -9999 -9999 -9999 -9999 -9999 -9999 -9999 -9999 -9999 507.221 507.046 506.499 506.309 507.056 507.541 507.564 507.684 507.789 507.799 507.831 507.789 507.476 506.889 506.646 506.479 506.476 506.549 506.506 506.521 506.801 507.211 507.561 507.794 507.754 507.739 507.739 507.686 507.646 507.544 507.281 507.399 507.726 507.889 507.941 507.886 507.871 507.864 507.866 507.814 507.561 507.301 507.014 506.926 506.969 507.304 507.171 507.196 507.321 507.276 507.301 507.296 507.299 507.399 507.439 507.451 507.486 507.526 507.584 507.484 507.446 507.421 507.321 507.339 507.194 507.054 507.016 506.834 506.746 506.679 506.866 506.774 506.639 506.611 506.544 506.429 506.239 506.151 506.141 506.099 506.059 505.994 505.854 505.839 505.764 505.861 505.901 506.006 506.039 506.086 506.146 506.329 506.489 506.369 506.326 506.371 506.354 506.251 506.021 505.919 505.961 505.936 505.979 505.891 505.836 505.749 505.716 505.684 505.646 505.626 505.626 505.616 505.604 505.634 505.669 505.656 505.741 505.706 505.606 505.596 505.571 505.516 505.461 505.429 505.409 505.299 505.259 505.249 505.014 504.824 504.761 504.836 504.821 504.806 504.801 504.784 504.556 504.286 504.209 504.244 504.131 504.116 504.084 503.979 503.976 504.041 504.174 504.184 504.121 504.051 503.966 503.881 503.854 503.699 503.739 503.666 503.609 503.584 503.524 503.414 503.381 503.349 503.259 503.264 503.249 503.274 503.152 503.187 503.099 502.882 502.667 502.582 502.677 502.464 502.227 502.162 502.054 501.867 501.649 501.464 501.309 501.149 501.097 501.094 501.157 501.189 501.202 501.104 501.014 500.959 500.914 500.899 500.857 500.947 500.792 500.647 500.512 500.539 500.537 500.612 500.712 500.602 500.487 500.489 500.417 500.382 500.317 500.322 500.109 499.932 499.934 499.827 499.669 499.539 499.344 499.012 498.769 498.514 498.317 498.174 497.992 497.759 497.537 497.417 497.374 497.287 497.212 497.192 497.087 496.972 496.887 496.869 496.727 496.607 496.479 496.357 496.284 496.092 496.047 495.889 495.734 495.582 495.479 495.389 495.157 495.012 495.029 495.062 495.117 495.339 495.539 495.484 495.574 495.589 495.699 495.772 495.847 496.007 496.167 496.294 496.429 496.514 496.599 496.729 496.804 497.052 497.227 497.264 497.377 497.269 497.264 497.269 497.284 497.307 497.357 497.477 497.582 497.624 497.652 497.742 497.744 497.754 497.807 497.789 497.784 497.802 497.877 497.892 497.767 497.709 497.717 497.587 497.574 497.597 497.422 497.294 497.174 496.997 496.889 496.784 496.687 496.592 496.407 496.374 496.329 496.164 495.917 495.629 495.432 495.214 495.057 494.829 494.492 494.372 494.262 494.127 493.992 493.827 493.602 493.372 493.279 493.207 493.042 492.859 492.684 492.522 492.324 492.042 491.797 491.554 491.274 490.879 490.424 490.562 490.419 490.204 490.044 489.967 489.832 489.662 489.502 489.307 489.044 488.842
-9999 -9999 -9999 -9999 -9999 -9999 -9999 -9999 -9999 -9999 -9999 -9999 -9999 -9999 -9999 -9999 -9999 -9999 -9999 -9999 -9999 -9999 -9999 -9999 -9999 -9999 -9999 -9999 -9999 -9999 -9999 -9999 -9999 -9999 -9999 -9999 -9999 -9999 -9999 -9999 -9999 -9999 -9999 -9999 -9999 -9999 -9999 -9999 -9999 -9999 -9999 -9999 -9999 -9999 -9999 -9999 -9999 -9999 -9999 506.969 506.634 506.159 506.414 507.111 507.549 507.614 507.599 507.589 507.624 507.676 507.684 507.336 506.754 506.426 506.341 506.379 506.326 506.279 506.329 507.051 507.541 507.621 507.676 507.664 507.599 507.636 507.746 507.661 507.566 507.279 507.289 507.604 507.791 507.811 507.861 507.914 507.849 507.724 507.516 507.026 506.929 506.819 506.801 507.246 507.406 507.229 507.114 507.096 507.034 506.984 507.099 507.181 507.184 507.099 507.089 507.114 507.239 507.229 507.266 507.629 507.651 507.016 507.064 506.926 506.669 506.554 506.456 506.419 506.494 506.521 506.494 506.286 506.396 506.526 506.424 506.089 505.964 505.961 505.981 505.894 505.816 505.769 505.706 505.706 505.724 505.821 505.884 505.929 505.991 505.966 506.059 506.294 506.274 506.281 506.281 506.199 506.064 505.859 505.869 505.859 505.899 505.839 505.781 505.791 505.761 505.669 505.631 505.629 505.644 505.561 505.526 505.519 505.554 505.496 505.476 505.456 505.424 505.416 505.444 505.444 505.381 505.274 505.194 505.136 505.059 505.024 504.931 504.784 504.671 504.639 504.604 504.639 504.699 504.659 504.571 504.291 504.104 504.046 504.081 503.959 503.911 503.911 503.914 503.799 503.786 503.861 503.941 503.936 503.856 503.706 503.596 503.546 503.449 503.616 503.466 503.354 503.301 503.289 503.194 503.151 503.067 502.904 502.794 502.724 502.762 502.744 502.697 502.527 502.417 502.374 502.317 502.212 502.114 501.927 501.817 501.694 501.512 501.249 501.079 500.937 500.589 500.594 500.787 500.854 500.877 500.929 500.942 500.802 500.687 500.619 500.657 500.697 500.667 500.487 500.389 500.287 500.299 500.319 500.389 500.404 500.354 500.252 500.279 500.252 500.144 499.967 499.924 499.854 499.612 499.472 499.432 499.239 499.087 498.907 498.577 498.337 498.067 497.777 497.567 497.467 497.267 497.159 497.162 497.124 497.052 496.899 496.792 496.727 496.567 496.502 496.534 496.387 496.269 496.137 495.962 495.799 495.779 495.699 495.634 495.437 495.262 495.204 495.029 494.824 494.787 494.829 494.777 494.829 494.992 495.222 495.364 495.437 495.494 495.579 495.674 495.734 495.952 496.109 496.314 496.377 496.384 496.537 496.677 496.737 496.962 497.074 497.097 497.394 497.182 497.199 497.242 497.259 497.327 497.379 497.454 497.509 497.527 497.642 497.747 497.782 497.757 497.724 497.752 497.777 497.787 497.784 497.722 497.682 497.687 497.694 497.589 497.487 497.404 497.297 497.247 497.174 496.997 496.812 496.707 496.622 496.572 496.392 496.249 496.242 496.029 495.809 495.612 495.372 495.122 494.869 494.634 494.384 494.272 494.172 494.007 493.854 493.812 493.672 493.354 492.987 492.929 492.874 492.729 492.534 492.334 492.134 491.937 491.714 491.459 491.149 490.882 490.532 490.387 490.292 490.132 489.927 489.827 489.657 489.494 489.347 489.117 488.874 488.679
-9999 -9999 -9999 -9999 -9999 -9999 -9999 -9999 -9999 -9999 -9999 -9999 -9999 -9999 -9999 -9999 -9999 -9999 -9999 -9999 -9999 -9999 -9999 -9999 -9999 -9999 -9999 -9999 -9999 -9999 -9999 -9999 -9999 -9999 -9999 -9999 -9999 -9999 -9999 -9999 -9999 -9999 -9999 -9999 -9999 -9999 -9999 -9999 -9999 -9999 -9999 -9999 -9999 -9999 -9999 -9999 -9999 -9999 507.024 507.096 506.899 506.219 506.576 506.961 507.334 507.481 507.469 507.484 507.461 507.501 507.419 507.104 506.561 506.201 506.156 506.184 506.216 506.291 506.946 507.479 507.531 507.581 507.599 507.596 507.566 507.594 507.571 507.686 507.504 507.221 507.131 507.146 507.416 507.691 507.701 507.759 507.814 507.684 507.356 506.816 506.749 506.776 507.031 507.224 507.321 507.194 506.921 506.784 506.684 506.721 506.916 507.029 506.976 506.774 506.796 506.794 506.936 507.021 506.884 507.001 506.901 506.814 506.834 506.649 506.466 506.134 505.954 505.984 506.154 506.221 506.129 505.964 505.969 506.256 506.321 505.909 505.759 505.824 505.819 505.776 505.744 505.766 505.691 505.709 505.729 505.839 505.914 505.826 505.899 505.901 505.899 505.924 506.011 506.164 506.169 506.096 505.884 505.756 505.779 505.709 505.691 505.651 505.614 505.679 505.596 505.621 505.551 505.551 505.499 505.474 505.476 505.409 505.421 505.369 505.341 505.309 505.246 505.266 505.264 505.211 505.139 505.094 505.024 504.986 504.994 504.929 504.769 504.659 504.544 504.481 504.329 504.364 504.419 504.346 504.131 503.886 503.851 503.911 503.896 503.716 503.734 503.679 503.654 503.546 503.501 503.554 503.584 503.691 503.679 503.589 503.381 503.281 503.249 503.339 503.284 503.081 503.059 503.024 502.906 502.926 502.932 502.824 502.604 502.539 502.527 502.474 502.242 501.927 501.949 502.037 502.004 501.874 501.724 501.519 501.182 501.162 501.042 500.789 500.697 500.487 500.067 500.029 500.312 500.564 500.579 500.672 500.662 500.564 500.447 500.397 500.442 500.434 500.372 500.182 500.144 500.177 500.139 500.149 500.192 500.207 500.234 500.064 500.037 500.012 499.747 499.599 499.584 499.492 499.262 499.039 498.899 498.759 498.614 498.474 498.249 497.917 497.577 497.272 497.117 497.074 497.084 497.004 496.954 496.839 496.604 496.464 496.339 496.222 496.029 495.959 496.022 495.962 495.834 495.659 495.437 495.324 495.384 495.362 495.294 495.134 494.937 494.747 494.627 494.504 494.439 494.499 494.547 494.614 494.762 495.172 495.229 495.379 495.524 495.487 495.549 495.682 496.072 496.202 496.227 496.182 496.217 496.297 496.439 496.507 496.684 496.794 496.974 497.539 497.137 497.169 497.222 497.262 497.342 497.424 497.489 497.489 497.537 497.589 497.669 497.769 497.727 497.759 497.757 497.744 497.757 497.757 497.739 497.697 497.667 497.609 497.579 497.469 497.317 497.254 497.162 497.104 497.027 496.804 496.637 496.524 496.369 496.232 496.129 496.107 495.812 495.582 495.459 495.252 494.999 494.712 494.487 494.307 494.122 494.019 493.824 493.717 493.654 493.467 493.209 493.014 492.702 492.502 492.532 492.327 492.089 491.914 491.797 491.604 491.419 491.187 490.812 490.534 490.347 490.094 489.997 489.752 489.632 489.474 489.349 489.069 488.802 488.627 488.409
-9999 -9999 -9999 -9999 -9999 -9999 -9999 -9999 -9999 -9999 -9999 -9999 -9999 -9999 -9999 -9999 -9999 -9999 -9999 -9999 -9999 -9999 -9999 -9999 -9999 -9999 -9999 -9999 -9999 -9999 -9999 -9999 -9999 -9999 -9999 -9999 -9999 -9999 -9999 -9999 -9999 -9999 -9999 -9999 -9999 -9999 -9999 -9999 -9999 -9999 -9999 -9999 -9999 -9999 -9999 -9999 -9999 -9999 506.794 506.976 506.856 506.171 506.856 507.094 507.204 507.311 507.291 507.246 507.321 507.309 507.184 506.806 506.434 506.136 506.019 506.126 506.164 506.359 507.219 507.409 507.426 507.501 507.479 507.506 507.609 507.539 507.534 507.534 507.551 507.344 507.281 507.081 506.961 507.284 507.109 507.446 507.744 507.539 506.956 506.736 506.731 506.919 507.104 506.934 506.864 506.939 506.826 506.711 506.624 506.544 506.591 506.691 506.701 506.701 506.551 506.419 506.651 506.991 506.454 506.404 506.569 506.649 506.379 506.426 506.384 506.026 505.796 505.774 505.879 505.976 505.779 505.641 505.644 505.744 505.874 505.736 505.606 505.609 505.676 505.814 505.736 505.689 505.686 505.564 505.631 505.739 505.794 505.741 505.736 505.716 505.746 505.689 505.606 505.774 506.051 506.031 505.771 505.569 505.524 505.484 505.449 505.436 505.471 505.431 505.391 505.446 505.391 505.414 505.276 505.286 505.271 505.186 505.134 505.161 505.199 505.144 505.101 505.104 505.116 505.014 504.966 504.889 504.789 504.789 504.801 504.716 504.611 504.489 504.346 504.231 504.159 504.059 504.081 503.946 503.786 503.569 503.566 503.539 503.501 503.424 503.376 503.401 503.371 503.306 503.301 503.366 503.346 503.286 503.221 503.179 503.044 503.006 503.044 502.974 502.916 502.846 502.861 502.796 502.649 502.679 502.784 502.767 502.524 502.389 502.462 502.312 501.844 501.394 501.472 501.787 501.722 501.557 501.412 501.282 500.957 500.817 500.797 500.612 500.487 500.052 499.752 499.797 499.962 500.234 500.272 500.407 500.402 500.262 500.179 500.127 500.142 500.124 500.059 499.957 499.969 499.977 499.919 499.894 499.919 499.962 499.927 499.739 499.639 499.577 499.414 499.219 499.142 499.122 498.907 498.692 498.509 498.392 498.189 497.964 497.667 497.412 497.124 496.857 496.754 496.764 496.749 496.647 496.514 496.324 496.042 495.944 495.934 495.762 495.532 495.507 495.562 495.489 495.357 495.217 495.034 494.939 494.979 494.987 494.924 494.822 494.624 494.359 494.182 494.009 493.872 494.212 494.379 494.477 494.647 495.014 495.224 495.324 495.369 495.382 495.452 495.724 495.992 496.117 496.199 496.157 496.222 496.254 496.317 496.484 496.557 496.677 496.852 497.249 497.064 497.089 497.139 497.262 497.284 497.457 497.549 497.537 497.577 497.562 497.624 497.757 497.762 497.744 497.779 497.857 497.797 497.762 497.789 497.722 497.569 497.487 497.539 497.454 497.269 497.197 497.097 497.034 496.944 496.734 496.597 496.449 496.302 496.187 496.017 495.894 495.664 495.417 495.279 495.122 494.834 494.592 494.437 494.307 494.074 493.892 493.709 493.627 493.492 493.264 493.119 492.817 492.709 492.519 492.204 491.967 491.759 491.664 491.604 491.409 491.114 490.757 490.502 490.367 490.207 489.947 489.699 489.607 489.434 489.294 489.129 488.827 488.622 488.464 488.149
-9999 -9999 -9999 -9999 -9999 -9999 -9999 -9999 -9999 -9999 -9999 -9999 -9999 -9999 -9999 -9999 -9999 -9999 -9999 -9999 -9999 -9999 -9999 -9999 -9999 -9999 -9999 -9999 -9999 -9999 -9999 -9999 -9999 -9999 -9999 -9999 -9999 -9999 -9999 -9999 -9999 -9999 -9999 -9999 -9999 -9999 -9999 -9999 -9999 -9999 -9999 -9999 -9999 -9999 -9999 -9999 -9999 -9999 506.669 506.764 506.316 505.946 506.849 507.094 507.081 507.076 507.129 507.084 507.179 507.154 507.121 506.876 506.421 506.091 505.944 506.026 506.044 506.336 507.129 507.251 507.144 507.104 507.339 507.459 507.491 507.484 507.484 507.449 507.484 507.481 507.429 507.184 506.764 506.576 506.724 507.151 507.531 507.126 506.646 506.596 506.676 506.911 506.811 506.596 506.674 506.714 506.679 506.581 506.474 506.359 506.389 506.531 506.519 506.449 506.436 506.324 506.109 506.051 506.061 506.151 506.416 506.336 506.031 506.029 506.106 505.779 505.649 505.596 505.561 505.554 505.599 505.494 505.439 505.476 505.566 505.474 505.394 505.409 505.536 505.679 505.641 505.594 505.609 505.654 505.521 505.681 505.724 505.706 505.661 505.614 505.464 505.406 505.306 505.374 505.646 505.896 505.566 505.309 505.254 505.324 505.359 505.369 505.386 505.211 505.226 505.291 505.284 505.271 505.164 505.119 505.039 504.986 504.971 504.944 504.981 505.041 505.004 504.964 504.929 504.879 504.786 504.704 504.676 504.591 504.669 504.524 504.456 504.399 504.179 503.964 503.939 503.794 503.646 503.604 503.491 503.299 503.206 503.094 503.031 503.041 502.954 502.996 503.004 503.029 503.004 503.094 503.066 502.959 502.761 502.614 502.671 502.711 502.679 502.616 502.586 502.501 502.474 502.454 502.444 502.459 502.562 502.507 502.329 502.194 502.232 502.117 501.824 501.432 501.504 501.539 501.482 501.319 501.222 500.884 500.702 500.502 500.412 500.284 500.144 499.844 499.684 499.722 499.697 499.712 499.669 500.057 500.087 500.029 499.877 499.849 499.884 499.837 499.742 499.762 499.814 499.782 499.719 499.727 499.657 499.624 499.567 499.427 499.329 499.274 499.112 498.902 498.724 498.669 498.539 498.274 498.174 498.054 497.764 497.442 497.162 496.962 496.739 496.559 496.512 496.504 496.427 496.217 496.052 496.059 495.804 495.592 495.489 495.394 495.179 495.094 495.079 495.099 494.979 494.729 494.474 494.392 494.542 494.549 494.509 494.457 494.197 493.902 493.597 493.322 493.322 493.912 494.144 494.367 494.674 494.974 495.227 495.259 495.304 495.337 495.402 495.597 495.762 495.892 495.994 496.024 496.227 496.214 496.419 496.514 496.584 496.702 496.804 497.267 497.024 497.042 497.092 497.234 497.272 497.449 497.584 497.587 497.649 497.587 497.589 497.662 497.707 497.727 497.749 497.767 497.734 497.672 497.707 497.684 497.519 497.412 497.412 497.304 497.172 497.122 497.052 496.872 496.789 496.694 496.514 496.382 496.217 496.047 495.874 495.689 495.564 495.354 495.132 494.962 494.739 494.527 494.384 494.282 494.124 493.847 493.642 493.522 493.332 493.232 492.912 492.662 492.507 492.319 492.122 491.862 491.667 491.429 491.227 490.802 490.454 490.377 490.289 490.154 489.997 489.777 489.589 489.282 489.124 489.009 488.862 488.629 488.449 488.212 487.929
-9999 -9999 -9999 -9999 -9999 -9999 -9999 -9999 -9999 -9999 -9999 -9999 -9999 -9999 -9999 -9999 -9999 -9999 -9999 -9999 -9999 -9999 -9999 -9999 -9999 -9999 -9999 -9999 -9999 -9999 -9999 -9999 -9999 -9999 -9999 -9999 -9999 -9999 -9999 -9999 -9999 -9999 -9999 -9999 -9999 -9999 -9999 -9999 -9999 -9999 -9999 -9999 -9999 -9999 -9999 -9999 -9999 -9999 506.369 506.254 505.719 505.639 506.471 506.761 506.819 506.784 506.744 506.869 506.791 506.676 506.836 506.939 506.429 506.049 505.934 505.994 506.001 506.094 506.686 506.909 506.776 506.759 507.204 507.459 507.289 507.321 507.341 507.221 507.329 507.419 507.471 507.246 506.631 506.369 506.554 507.201 507.231 506.836 506.506 506.444 506.586 506.611 506.469 506.329 506.466 506.556 506.479 506.201 506.319 506.231 506.269 506.301 506.129 506.379 506.574 506.179 506.034 505.914 505.906 505.971 506.136 506.121 505.906 505.771 505.719 505.641 505.541 505.451 505.421 505.406 505.394 505.319 505.254 505.254 505.234 505.221 505.194 505.231 505.449 505.554 505.461 505.506 505.549 505.441 505.426 505.549 505.641 505.596 505.529 505.421 505.299 505.271 505.116 505.171 505.404 505.659 505.466 505.116 505.084 505.194 505.249 505.299 505.196 505.036 505.041 505.131 505.156 505.089 505.019 504.966 505.004 504.956 504.854 504.859 504.829 504.924 504.894 504.849 504.814 504.721 504.621 504.514 504.391 504.351 504.376 504.261 504.164 504.054 503.914 503.721 503.651 503.434 503.259 503.269 503.186 502.991 502.881 502.766 502.804 502.824 502.754 502.804 502.816 502.789 502.696 502.624 502.686 502.681 502.569 502.496 502.459 502.434 502.351 502.299 502.271 502.176 502.174 502.209 502.206 502.279 502.319 502.282 502.177 502.062 502.092 502.012 501.764 501.632 501.449 501.217 501.157 501.102 500.974 500.604 500.549 500.304 500.197 500.047 499.939 499.777 499.652 499.637 499.564 499.389 499.427 499.719 499.699 499.567 499.549 499.604 499.582 499.507 499.534 499.527 499.582 499.537 499.492 499.507 499.449 499.414 499.299 499.154 499.014 498.899 498.792 498.639 498.412 498.287 498.192 497.972 497.812 497.574 497.312 496.982 496.682 496.547 496.407 496.292 496.289 496.232 496.069 495.877 495.789 495.667 495.587 495.342 495.107 494.997 494.844 494.857 494.897 494.794 494.654 494.257 493.879 493.769 493.844 493.867 493.974 493.924 493.732 493.479 492.939 492.714 492.737 493.274 493.842 494.297 494.557 494.837 495.134 495.212 495.254 495.314 495.352 495.474 495.672 495.804 495.929 496.017 496.052 496.127 496.432 496.639 496.659 496.707 496.787 497.442 496.972 496.949 497.109 497.184 497.234 497.412 497.492 497.552 497.572 497.547 497.569 497.589 497.644 497.724 497.702 497.614 497.577 497.562 497.582 497.557 497.472 497.372 497.289 497.194 497.099 497.089 496.994 496.747 496.619 496.537 496.402 496.372 496.144 495.899 495.814 495.627 495.447 495.292 495.054 494.837 494.612 494.434 494.242 494.082 493.962 493.862 493.622 493.292 493.169 493.139 492.944 492.589 492.329 492.139 491.977 491.752 491.602 491.439 491.252 491.052 490.867 490.559 490.422 490.167 489.824 489.599 489.324 489.049 488.899 488.759 488.594 488.524 488.244 487.929 487.704
-9999 -9999 -9999 -9999 -9999 -9999 -9999 -9999 -9999 -9999 -9999 -9999 -9999 -9999 -9999 -9999 -9999 -9999 -9999 -9999 -9999 -9999 -9999 -9999 -9999 -9999 -9999 -9999 -9999 -9999 -9999 -9999 -9999 -9999 -9999 -9999 -9999 -9999 -9999 -9999 -9999 -9999 -9999 -9999 -9999 -9999 -9999 -9999 -9999 -9999 -9999 -9999 -9999 -9999 -9999 -9999 -9999 -9999 505.784 505.826 505.421 504.974 505.619 506.299 506.449 506.284 506.011 505.799 505.826 505.954 505.986 506.216 506.209 505.936 505.924 505.889 505.961 506.006 506.119 506.439 506.511 506.666 507.014 507.261 507.124 507.029 506.914 506.929 507.184 507.221 507.221 507.144 506.589 506.279 506.394 506.689 506.844 506.521 506.414 506.444 506.481 506.239 506.189 506.124 506.221 506.336 506.319 505.961 505.806 505.981 505.991 505.924 505.954 506.029 505.984 505.816 505.774 505.719 505.814 505.879 505.971 506.021 505.989 505.696 505.636 505.461 505.456 505.406 505.484 505.434 505.349 505.281 505.201 505.176 505.116 505.141 505.151 505.239 505.329 505.461 505.299 505.276 505.376 505.379 505.411 505.419 505.444 505.469 505.336 505.216 505.061 504.991 505.019 505.004 505.164 505.394 505.326 504.926 504.906 504.999 505.081 505.021 504.874 504.874 504.849 504.971 504.919 504.931 504.876 504.916 504.871 504.846 504.761 504.836 504.829 504.781 504.704 504.649 504.624 504.566 504.444 504.261 504.144 504.029 504.014 503.886 503.789 503.664 503.596 503.474 503.411 503.306 503.049 502.961 502.879 502.759 502.714 502.664 502.756 502.711 502.564 502.631 502.524 502.544 502.424 502.344 502.494 502.476 502.476 502.469 502.466 502.296 502.224 502.169 502.081 502.026 501.939 501.914 501.936 502.039 502.109 502.034 501.974 501.934 501.832 501.722 501.699 501.497 501.249 501.014 500.907 500.799 500.607 500.279 500.069 500.119 500.054 499.934 499.854 499.699 499.592 499.472 499.407 499.224 499.174 499.317 499.289 499.202 499.304 499.394 499.399 499.369 499.397 499.334 499.337 499.259 499.149 499.227 499.257 499.239 499.144 498.969 498.817 498.659 498.444 498.309 498.109 498.007 497.874 497.592 497.414 497.147 496.844 496.449 496.357 496.207 496.004 495.919 495.994 495.927 495.779 495.634 495.614 495.487 495.332 495.139 494.844 494.597 494.449 494.494 494.559 494.507 494.284 494.117 494.074 494.062 493.837 493.682 493.679 493.532 493.409 493.244 492.724 492.297 492.354 492.714 493.662 494.114 494.432 494.709 494.954 495.074 495.177 495.257 495.312 495.464 495.704 495.824 495.899 495.892 496.002 496.187 496.457 496.654 496.627 496.644 496.714 497.174 497.087 496.982 497.077 497.194 497.229 497.337 497.437 497.474 497.457 497.507 497.492 497.489 497.589 497.719 497.637 497.479 497.469 497.452 497.417 497.382 497.349 497.299 497.264 497.149 497.009 496.914 496.809 496.609 496.549 496.379 496.277 496.229 496.039 495.737 495.532 495.419 495.334 495.217 494.907 494.647 494.457 494.372 494.192 494.019 493.779 493.699 493.547 493.289 493.067 492.997 492.769 492.432 492.149 492.009 491.872 491.697 491.472 491.299 491.127 490.962 490.822 490.529 490.392 490.149 489.704 489.354 489.072 488.859 488.697 488.539 488.452 488.389 488.237 487.957 487.522
-9999 -9999 -9999 -9999 -9999 -9999 -9999 -9999 -9999 -9999 -9999 -9999 -9999 -9999 -9999 -9999 -9999 -9999 -9999 -9999 -9999 -9999 -9999 -9999 -9999 -9999 -9999 -9999 -9999 -9999 -9999 -9999 -9999 -9999 -9999 -9999 -9999 -9999 -9999 -9999 -9999 -9999 -9999 -9999 -9999 -9999 -9999 -9999 -9999 -9999 -9999 -9999 -9999 -9999 -9999 -9999 -9999 -9999 505.404 505.336 505.036 504.861 504.929 505.209 505.489 505.524 505.534 505.534 505.546 505.569 505.634 505.661 505.781 505.814 505.846 505.849 505.859 505.841 505.959 506.011 506.096 506.281 506.934 506.999 506.846 506.706 506.311 506.314 506.526 506.626 506.626 506.516 506.324 506.139 506.226 506.434 506.514 506.341 506.254 506.199 506.096 505.946 506.061 506.026 505.989 505.979 505.856 505.769 505.596 505.626 505.781 506.256 505.839 505.734 505.659 505.621 505.556 505.586 505.671 505.826 506.011 506.059 505.801 505.464 505.421 505.409 505.414 505.379 505.396 505.364 505.276 505.241 505.166 505.186 505.141 505.164 505.094 505.181 505.109 505.124 505.196 505.174 505.276 505.264 505.314 505.344 505.359 505.376 505.276 505.059 504.944 504.889 504.921 504.841 504.911 505.181 505.241 504.874 504.779 504.879 504.894 504.774 504.719 504.699 504.664 504.659 504.746 504.811 504.744 504.751 504.766 504.709 504.654 504.711 504.686 504.566 504.504 504.386 504.414 504.559 504.204 503.974 503.904 503.794 503.809 503.679 503.641 503.564 503.459 503.384 503.309 503.291 503.021 502.861 502.616 502.524 502.446 502.439 502.499 502.491 502.306 502.156 502.216 502.249 502.274 502.204 502.261 502.249 502.224 502.219 502.179 502.126 502.059 502.066 502.026 501.954 501.779 501.761 501.839 501.836 501.872 501.749 501.697 501.627 501.572 501.539 501.487 501.264 500.977 500.822 500.727 500.577 500.449 500.244 499.989 499.857 499.757 499.639 499.624 499.547 499.474 499.314 499.224 499.087 498.972 499.029 499.084 499.059 499.147 499.217 499.239 499.324 499.329 499.202 499.064 498.954 498.899 498.919 498.999 498.897 498.772 498.634 498.579 498.372 498.224 498.179 497.914 497.679 497.449 497.212 496.979 496.712 496.464 496.222 496.114 495.994 495.749 495.634 495.637 495.612 495.559 495.462 495.392 495.229 495.092 494.902 494.592 494.262 494.012 494.067 494.122 494.099 494.029 494.067 494.087 494.087 493.917 493.797 493.694 493.569 493.444 493.322 493.047 492.594 492.452 492.902 493.737 494.152 494.422 494.709 494.807 494.939 495.047 495.357 495.372 495.342 495.549 495.867 495.969 495.902 496.044 496.232 496.477 496.562 496.574 496.559 496.667 497.044 497.282 496.964 497.067 497.174 497.219 497.294 497.427 497.464 497.424 497.399 497.429 497.449 497.487 497.579 497.457 497.362 497.347 497.342 497.267 497.224 497.282 497.214 497.197 497.119 496.962 496.737 496.604 496.494 496.379 496.302 496.147 495.999 495.837 495.654 495.384 495.224 495.084 494.949 494.742 494.522 494.389 494.214 494.042 493.844 493.647 493.474 493.372 493.259 493.017 492.907 492.657 492.317 492.039 491.922 491.799 491.634 491.367 491.167 491.014 490.789 490.617 490.327 490.167 489.979 489.597 489.104 488.782 488.637 488.434 488.249 488.257 488.207 488.029 487.739 487.377
-9999 -9999 -9999 -9999 -9999 -9999 -9999 -9999 -9999 -9999 -9999 -9999 -9999 -9999 -9999 -9999 -9999 -9999 -9999 -9999 -9999 -9999 -9999 -9999 -9999 -9999 -9999 -9999 -9999 -9999 -9999 -9999 -9999 -9999 -9999 -9999 -9999 -9999 -9999 -9999 -9999 -9999 -9999 -9999 -9999 -9999 -9999 -9999 -9999 -9999 -9999 -9999 -9999 -9999 -9999 -9999 -9999 -9999 504.964 504.816 504.804 504.749 504.814 504.841 504.941 505.121 505.299 505.364 505.409 505.436 505.589 505.566 505.684 505.751 505.714 505.671 505.684 505.691 505.731 505.836 505.871 506.139 506.474 506.564 506.421 506.081 505.894 505.971 505.991 506.086 506.114 506.086 506.041 506.036 506.064 506.301 506.354 506.219 506.099 505.951 505.876 505.774 505.714 505.651 505.596 505.601 505.526 505.426 505.431 505.521 506.001 505.804 505.626 505.551 505.469 505.501 505.409 505.401 505.539 505.814 505.829 505.861 505.584 505.421 505.324 505.361 505.311 505.384 505.389 505.381 505.226 505.141 505.134 505.111 505.019 505.041 505.026 504.991 504.961 504.986 505.041 505.104 505.189 505.191 505.196 505.249 505.334 505.294 505.099 504.944 504.861 504.814 504.749 504.766 504.771 504.881 505.016 504.966 504.711 504.671 504.699 504.604 504.556 504.636 504.624 504.561 504.581 504.601 504.579 504.639 504.669 504.569 504.656 504.574 504.421 504.376 504.311 504.231 504.149 504.094 503.924 503.764 503.684 503.719 503.679 503.671 503.541 503.464 503.429 503.371 503.326 503.221 502.859 502.664 502.371 502.244 502.141 502.116 502.124 502.156 502.084 502.059 502.079 502.106 502.156 502.116 502.074 502.011 501.989 501.914 501.961 501.909 501.859 501.811 501.831 501.709 501.644 501.654 501.681 501.631 501.622 501.529 501.489 501.412 501.267 501.254 501.137 500.977 500.754 500.622 500.517 500.362 500.272 500.054 499.644 499.594 499.454 499.222 499.267 499.279 499.207 499.019 498.959 498.932 498.857 498.837 498.934 498.979 498.977 499.002 499.059 499.114 499.062 498.952 498.822 498.727 498.739 498.682 498.587 498.457 498.289 498.284 498.147 498.037 497.884 497.777 497.567 497.257 497.087 496.857 496.577 496.304 496.099 495.954 495.864 495.702 495.572 495.414 495.277 495.194 495.164 495.169 495.117 495.017 494.834 494.602 494.277 493.999 493.729 493.627 493.594 493.619 493.662 493.804 493.882 493.942 493.909 493.704 493.624 493.594 493.589 493.442 493.259 493.092 493.012 493.492 493.894 494.127 494.392 494.644 494.684 494.804 494.904 495.162 495.234 495.314 495.549 495.814 495.842 495.869 495.979 496.229 496.472 496.517 496.507 496.562 496.624 496.804 497.352 496.907 497.037 497.184 497.154 497.294 497.452 497.439 497.384 497.354 497.354 497.372 497.349 497.322 497.287 497.227 497.217 497.264 497.192 497.104 497.109 497.107 497.072 496.972 496.834 496.652 496.547 496.377 496.284 496.242 496.189 495.942 495.724 495.479 495.292 495.094 494.924 494.782 494.677 494.454 494.324 494.227 493.967 493.719 493.549 493.439 493.277 493.072 492.827 492.672 492.462 492.164 491.939 491.799 491.644 491.404 491.242 491.034 490.864 490.667 490.452 490.174 489.922 489.722 489.402 488.892 488.604 488.352 488.172 487.992 487.972 487.917 487.642 487.347 487.127
-9999 -9999 -9999 -9999 -9999 -9999 -9999 -9999 -9999 -9999 -9999 -9999 -9999 -9999 -9999 -9999 -9999 -9999 -9999 -9999 -9999 -9999 -9999 -9999 -9999 -9999 -9999 -9999 -9999 -9999 -9999 -9999 -9999 -9999 -9999 -9999 -9999 -9999 -9999 -9999 -9999 -9999 -9999 -9999 -9999 -9999 -9999 -9999 -9999 -9999 -9999 -9999 -9999 -9999 -9999 -9999 -9999 -9999 504.669 504.649 504.749 504.769 504.851 504.859 505.091 505.184 505.276 505.334 505.406 505.499 505.544 505.591 505.631 505.686 505.584 505.561 505.594 505.571 505.524 505.604 505.694 505.974 506.049 506.184 505.944 505.791 505.669 505.594 505.614 505.666 505.686 505.774 505.779 505.889 505.979 506.136 506.064 506.026 505.961 505.906 505.821 505.699 505.534 505.409 505.276 505.306 505.259 505.539 505.681 505.196 505.214 505.289 505.339 505.336 505.331 505.281 505.274 505.341 505.429 505.499 505.431 505.541 505.551 505.361 505.309 505.281 505.329 505.284 505.181 505.219 505.144 505.064 505.049 505.089 505.006 504.971 505.039 504.939 504.919 504.994 505.019 505.061 505.091 505.136 505.164 505.201 505.254 505.159 504.989 504.874 504.894 504.734 504.706 504.716 504.651 504.659 504.769 504.864 504.609 504.529 504.464 504.444 504.391 504.396 504.396 504.356 504.376 504.489 504.479 504.521 504.591 504.489 504.486 504.536 504.286 504.259 504.174 504.104 504.009 503.886 503.679 503.616 503.516 503.504 503.501 503.556 503.496 503.426 503.309 503.281 503.246 503.011 502.599 502.416 502.289 502.156 502.049 501.991 502.001 502.034 501.976 502.044 501.954 501.986 501.964 501.881 501.851 501.834 501.859 501.859 501.774 501.664 501.581 501.581 501.606 501.464 501.451 501.571 501.509 501.411 501.417 501.429 501.379 501.212 501.082 500.957 500.839 500.722 500.607 500.464 500.279 500.134 499.992 499.787 499.257 499.162 499.194 499.052 499.039 499.007 498.942 498.769 498.727 498.772 498.754 498.727 498.737 498.757 498.837 498.864 498.837 498.757 498.729 498.584 498.484 498.424 498.427 498.369 498.207 498.067 497.949 497.822 497.687 497.599 497.459 497.344 497.182 497.027 496.802 496.542 496.322 495.974 495.827 495.759 495.549 495.379 495.234 495.132 495.052 494.904 494.784 494.769 494.782 494.689 494.574 494.287 494.092 493.787 493.514 493.137 492.924 493.199 493.329 493.352 493.422 493.452 493.532 493.517 493.534 493.577 493.639 493.647 493.577 493.524 493.579 493.777 494.077 494.192 494.457 494.567 494.604 494.752 494.742 494.929 495.079 495.289 495.557 495.682 495.769 495.829 495.942 496.202 496.319 496.369 496.402 496.427 496.607 496.764 496.964 496.779 496.992 497.069 497.054 497.147 497.254 497.289 497.322 497.262 497.214 497.269 497.217 497.164 497.162 497.144 497.119 497.137 497.069 497.019 496.967 496.914 496.922 496.824 496.737 496.619 496.484 496.272 496.137 496.059 496.022 495.777 495.592 495.394 495.247 495.037 494.802 494.639 494.517 494.377 494.159 494.017 493.784 493.617 493.557 493.339 493.144 492.857 492.624 492.422 492.227 491.994 491.882 491.652 491.509 491.272 491.054 490.867 490.602 490.454 490.252 490.019 489.679 489.444 489.164 488.872 488.507 488.132 487.947 487.819 487.717 487.534 487.272 487.062 486.899
-9999 -9999 -9999 -9999 -9999 -9999 -9999 -9999 -9999 -9999 -9999 -9999 -9999 -9999 -9999 -9999 -9999 -9999 -9999 -9999 -9999 -9999 -9999 -9999 -9999 -9999 -9999 -9999 -9999 -9999 -9999 -9999 -9999 -9999 -9999 -9999 -9999 -9999 -9999 -9999 -9999 -9999 -9999 -9999 -9999 -9999 -9999 -9999 -9999 -9999 -9999 -9999 -9999 -9999 -9999 -9999 -9999 -9999 -9999 504.504 504.784 504.916 505.099 505.206 505.321 505.564 505.744 505.991 506.039 505.966 505.989 505.816 505.734 505.541 505.491 505.459 505.574 505.466 505.406 505.524 505.669 505.836 505.939 505.961 505.724 505.684 505.659 505.529 505.474 505.461 505.476 505.574 505.756 505.909 506.051 506.146 506.131 506.149 506.124 505.971 505.814 505.616 505.376 505.224 505.136 505.341 505.274 505.106 505.229 505.054 505.099 505.146 505.169 505.181 505.139 505.176 505.291 505.249 505.204 505.226 505.151 505.211 505.339 505.299 505.281 505.239 505.286 505.209 505.139 505.141 505.174 505.109 505.079 505.044 504.951 505.084 505.049 504.946 504.941 504.946 504.971 505.004 505.069 505.061 505.139 505.121 505.086 505.019 504.849 504.789 504.794 504.679 504.686 504.669 504.584 504.544 504.541 504.536 504.426 504.359 504.341 504.279 504.276 504.179 504.206 504.231 504.296 504.341 504.384 504.344 504.449 504.374 504.314 504.306 504.151 504.049 504.034 503.999 503.789 503.616 503.511 503.449 503.439 503.386 503.351 503.331 503.299 503.221 503.231 503.109 502.974 502.844 502.571 502.309 502.199 502.114 502.089 501.929 501.861 501.866 501.779 501.869 501.834 501.796 501.701 501.681 501.696 501.704 501.711 501.761 501.681 501.476 501.446 501.419 501.381 501.246 501.246 501.291 501.259 501.259 501.269 501.229 501.189 500.947 500.854 500.772 500.669 500.552 500.467 500.229 500.007 499.859 499.687 499.539 499.149 498.877 498.922 498.799 498.694 498.649 498.579 498.434 498.559 498.652 498.649 498.619 498.619 498.569 498.609 498.624 498.529 498.442 498.412 498.282 498.109 498.107 498.062 497.892 497.692 497.704 497.567 497.399 497.297 497.159 497.077 497.004 496.844 496.654 496.419 496.152 495.954 495.744 495.524 495.442 495.282 495.039 494.872 494.987 495.022 494.817 494.539 494.404 494.382 494.339 494.207 494.062 493.934 493.729 493.502 493.164 492.902 492.919 492.967 492.982 493.092 493.149 493.229 493.237 493.354 493.464 493.534 493.634 493.619 493.642 493.782 493.924 494.017 494.319 494.462 494.459 494.539 494.652 494.732 494.789 494.967 495.199 495.437 495.569 495.709 495.744 495.819 496.122 496.194 496.252 496.347 496.407 496.629 496.627 496.967 496.807 496.872 496.919 496.974 496.987 497.092 497.162 497.257 497.174 497.064 497.082 497.064 497.067 497.104 497.069 497.019 496.979 496.969 497.027 496.849 496.769 496.707 496.599 496.509 496.439 496.342 496.192 495.997 495.897 495.809 495.634 495.487 495.282 495.064 494.882 494.722 494.489 494.379 494.224 493.947 493.849 493.674 493.532 493.452 493.239 492.999 492.754 492.539 492.302 492.099 491.892 491.727 491.562 491.354 491.129 491.012 490.807 490.512 490.282 490.107 489.884 489.529 489.322 489.142 488.777 488.419 488.052 487.814 487.622 487.397 487.099 486.932 486.657 486.262
-9999 -9999 -9999 -9999 -9999 -9999 -9999 -9999 -9999 -9999 -9999 -9999 -9999 -9999 -9999 -9999 -9999 -9999 -9999 -9999 -9999 -9999 -9999 -9999 -9999 -9999 -9999 -9999 -9999 -9999 -9999 -9999 -9999 -9999 -9999 -9999 -9999 -9999 -9999 -9999 -9999 -9999 -9999 -9999 -9999 -9999 -9999 -9999 -9999 -9999 -9999 -9999 -9999 -9999 -9999 -9999 -9999 -9999 -9999 504.471 504.909 505.374 505.701 505.861 506.081 506.091 506.149 506.166 506.176 506.224 506.294 506.109 505.894 505.579 505.364 505.319 505.419 505.479 505.529 505.654 505.814 505.916 505.989 505.869 505.879 505.956 505.886 505.614 505.449 505.409 505.514 505.596 505.804 505.874 506.059 506.361 506.324 506.134 505.921 505.721 505.551 505.416 505.089 505.026 505.359 505.781 505.314 505.011 505.006 504.924 505.044 505.206 505.111 505.056 505.084 505.096 505.196 505.159 505.061 505.066 505.014 505.104 505.189 505.164 505.176 505.144 505.139 505.091 505.109 505.154 505.321 505.136 504.996 504.874 504.886 504.931 504.971 504.851 504.924 504.914 504.931 504.976 505.066 505.046 505.129 505.046 504.994 504.904 504.781 504.686 504.669 504.671 504.576 504.606 504.501 504.476 504.464 504.424 504.289 504.231 504.276 504.226 504.161 504.094 504.069 504.034 504.069 504.104 504.141 504.144 504.199 504.099 504.039 504.094 503.996 503.794 503.756 503.806 503.541 503.356 503.281 503.271 503.256 503.309 503.239 503.081 502.979 502.914 502.856 502.749 502.609 502.581 502.471 502.389 502.249 502.196 502.056 501.894 501.799 501.769 501.689 501.676 501.666 501.776 501.624 501.596 501.626 501.641 501.651 501.794 501.629 501.424 501.396 501.296 501.194 501.141 501.131 501.064 501.024 501.004 500.999 500.992 500.899 500.737 500.614 500.582 500.489 500.354 500.182 499.947 499.797 499.627 499.497 499.419 499.017 498.704 498.637 498.617 498.529 498.429 498.357 498.339 498.377 498.514 498.469 498.362 498.302 498.279 498.309 498.342 498.267 498.229 498.114 497.952 497.814 497.634 497.697 497.489 497.472 497.394 497.204 497.022 496.909 496.762 496.694 496.637 496.474 496.317 496.084 495.767 495.512 495.382 495.297 495.102 494.997 494.754 494.669 494.764 494.884 494.619 494.337 494.157 494.087 493.999 493.954 493.787 493.654 493.552 493.339 493.137 492.809 492.717 492.817 492.787 492.889 492.939 492.974 493.039 493.137 493.329 493.369 493.437 493.482 493.647 493.779 493.944 493.974 494.219 494.314 494.347 494.427 494.539 494.617 494.792 494.902 495.094 495.319 495.392 495.484 495.537 495.709 495.897 496.082 496.157 496.237 496.307 496.437 496.514 496.837 496.654 496.702 496.859 496.902 496.907 496.959 497.082 497.149 497.054 496.972 496.949 496.929 496.934 496.929 496.982 496.962 496.847 496.817 496.892 496.722 496.637 496.532 496.412 496.259 496.259 496.184 496.004 495.749 495.607 495.582 495.459 495.262 495.042 494.919 494.727 494.559 494.397 494.164 493.982 493.794 493.719 493.547 493.337 493.212 493.092 492.874 492.629 492.412 492.147 491.967 491.767 491.592 491.394 491.262 491.119 491.019 490.714 490.417 490.214 490.007 489.734 489.444 489.149 488.842 488.637 488.369 488.094 487.754 487.397 487.197 486.934 486.762 486.274 485.742
-9999 -9999 -9999 -9999 -9999 -9999 -9999 -9999 -9999 -9999 -9999 -9999 -9999 -9999 -9999 -9999 -9999 -9999 -9999 -9999 -9999 -9999 -9999 -9999 -9999 -9999 -9999 -9999 -9999 -9999 -9999 -9999 -9999 -9999 -9999 -9999 -9999 -9999 -9999 -9999 -9999 -9999 -9999 -9999 -9999 -9999 -9999 -9999 -9999 -9999 -9999 -9999 -9999 -9999 -9999 -9999 -9999 -9999 -9999 504.851 505.501 505.791 505.831 506.006 506.056 506.091 506.111 505.989 505.901 505.926 505.984 505.916 505.654 505.429 505.216 505.186 505.206 505.246 505.311 505.386 505.566 505.599 505.571 505.511 505.639 505.671 505.786 505.749 505.496 505.314 505.454 505.561 505.621 505.709 505.869 505.851 505.871 505.639 505.481 505.329 505.084 505.094 505.001 504.954 505.086 505.094 504.954 504.936 504.909 504.941 504.999 505.026 504.979 504.951 504.976 504.949 504.969 505.009 504.989 504.974 505.064 505.284 505.151 505.151 505.096 505.131 505.051 504.984 504.996 504.996 505.046 504.971 504.911 504.854 504.829 504.819 504.904 504.719 504.776 504.801 504.884 504.924 504.939 504.944 504.964 504.956 504.849 504.741 504.636 504.536 504.524 504.471 504.434 504.396 504.414 504.519 504.466 504.279 504.179 504.131 504.044 504.139 504.101 503.999 503.866 503.804 503.734 503.846 503.816 503.919 503.949 503.841 503.849 503.866 503.771 503.586 503.539 503.424 503.256 503.149 503.074 503.059 503.136 503.164 503.074 502.919 502.809 502.719 502.624 502.564 502.391 502.371 502.356 502.496 502.446 502.259 502.159 501.934 501.711 501.691 501.641 501.624 501.581 501.609 501.639 501.646 501.666 501.606 501.661 501.626 501.614 501.379 501.276 501.196 501.141 501.061 501.001 500.896 500.841 500.826 500.757 500.794 500.689 500.464 500.364 500.297 500.257 500.209 499.984 499.824 499.607 499.469 499.304 499.204 498.894 498.564 498.449 498.632 498.632 498.447 498.264 498.174 498.192 498.392 498.284 498.167 498.099 498.007 498.022 498.054 497.999 497.889 497.809 497.739 497.499 497.299 497.224 497.167 497.087 496.927 496.797 496.627 496.562 496.459 496.374 496.292 496.059 495.919 495.639 495.382 495.249 495.074 494.762 494.654 494.597 494.557 494.447 494.527 494.509 494.382 494.124 493.999 493.832 493.712 493.534 493.464 493.302 493.232 493.067 493.022 492.734 492.594 492.554 492.487 492.587 492.634 492.609 492.732 492.784 492.997 493.137 493.272 493.392 493.499 493.642 493.782 493.897 493.992 494.222 494.294 494.382 494.432 494.539 494.652 494.819 494.999 495.187 495.284 495.382 495.504 495.689 495.844 496.004 496.092 496.147 496.179 496.334 496.369 496.647 496.554 496.557 496.727 496.739 496.792 496.829 496.912 496.932 496.892 496.789 496.809 496.827 496.789 496.794 496.829 496.839 496.722 496.629 496.697 496.592 496.474 496.414 496.254 496.044 496.072 495.959 495.774 495.529 495.464 495.397 495.252 495.049 494.797 494.689 494.587 494.414 494.297 494.027 493.794 493.632 493.449 493.347 493.197 493.094 492.909 492.682 492.497 492.237 491.994 491.874 491.717 491.509 491.279 491.152 491.034 490.902 490.529 490.279 490.024 489.754 489.484 489.227 488.947 488.654 488.479 488.249 488.027 487.639 487.217 487.022 486.764 486.402 485.927 485.202
-9999 -9999 -9999 -9999 -9999 -9999 -9999 -9999 -9999 -9999 -9999 -9999 -9999 -9999 -9999 -9999 -9999 -9999 -9999 -9999 -9999 -9999 -9999 -9999 -9999 -9999 -9999 -9999 -9999 -9999 -9999 -9999 -9999 -9999 -9999 -9999 -9999 -9999 -9999 -9999 -9999 -9999 -9999 -9999 -9999 -9999 -9999 -9999 -9999 -9999 -9999 -9999 -9999 -9999 -9999 -9999 -9999 -9999 -9999 505.524 505.516 505.586 505.861 505.981 505.929 505.876 505.784 505.639 505.706 505.771 505.616 505.509 505.191 505.141 505.186 505.056 505.011 504.961 504.936 504.929 505.174 505.251 505.226 505.086 505.021 505.221 505.381 505.429 505.264 505.191 505.169 505.159 505.149 505.291 505.574 505.549 505.336 505.126 504.991 504.814 504.764 505.181 505.216 504.939 504.856 504.949 504.874 504.854 504.849 504.884 504.941 505.006 505.049 504.929 504.854 504.819 504.826 504.821 504.804 504.831 504.879 505.021 505.124 505.104 505.081 505.054 504.894 504.811 504.766 504.789 504.744 504.804 504.806 504.756 504.689 504.621 504.654 504.524 504.664 504.714 504.719 504.821 504.819 504.861 504.846 504.776 504.691 504.556 504.439 504.431 504.454 504.414 504.366 504.391 504.389 504.494 504.271 504.166 503.899 503.959 503.871 503.824 503.879 503.819 503.686 503.529 503.489 503.454 503.481 503.656 503.651 503.604 503.609 503.629 503.516 503.411 503.321 503.204 503.044 502.859 502.781 502.761 502.814 502.801 502.824 502.714 502.526 502.429 502.299 502.304 502.229 502.124 502.356 502.436 502.336 502.084 501.911 501.861 501.709 501.606 501.591 501.596 501.569 501.549 501.586 501.641 501.564 501.574 501.614 501.599 501.594 501.419 501.214 501.111 501.061 500.989 500.916 500.796 500.724 500.641 500.497 500.494 500.429 500.304 500.189 500.017 500.004 499.872 499.812 499.649 499.489 499.284 499.119 498.757 498.427 498.419 498.477 498.579 498.437 498.252 498.109 498.004 497.962 498.037 498.002 497.884 497.807 497.664 497.657 497.692 497.659 497.674 497.597 497.482 497.279 497.127 496.962 496.857 496.744 496.574 496.487 496.332 496.304 496.207 496.134 495.954 495.714 495.467 495.164 494.939 494.849 494.492 494.312 494.259 494.112 493.987 494.032 494.117 494.054 493.997 493.839 493.564 493.327 493.269 493.009 492.877 492.749 492.659 492.552 492.619 492.517 492.294 492.252 492.247 492.269 492.299 492.352 492.254 492.314 492.487 492.787 493.042 493.117 493.349 493.532 493.657 493.747 493.847 494.014 494.069 494.142 494.292 494.319 494.504 494.732 494.907 495.074 495.224 495.347 495.447 495.674 495.807 495.862 495.969 496.059 496.087 496.217 496.259 496.689 496.467 496.467 496.594 496.607 496.622 496.679 496.774 496.724 496.659 496.679 496.737 496.697 496.644 496.627 496.677 496.707 496.597 496.494 496.509 496.399 496.307 496.309 496.117 495.917 495.829 495.669 495.512 495.282 495.207 495.154 495.029 494.854 494.612 494.487 494.359 494.224 494.042 493.807 493.657 493.457 493.314 493.187 493.054 492.834 492.634 492.492 492.312 492.102 491.949 491.829 491.664 491.452 491.199 490.984 490.817 490.652 490.327 490.049 489.794 489.489 489.227 488.949 488.689 488.452 488.259 488.067 487.802 487.509 487.042 486.779 486.562 486.162 485.684 484.882
-9999 -9999 -9999 -9999 -9999 -9999 -9999 -9999 -9999 -9999 -9999 -9999 -9999 -9999 -9999 -9999 -9999 -9999 -9999 -9999 -9999 -9999 -9999 -9999 -9999 -9999 -9999 -9999 -9999 -9999 -9999 -9999 -9999 -9999 -9999 -9999 -9999 -9999 -9999 -9999 -9999 -9999 -9999 -9999 -9999 -9999 -9999 -9999 -9999 -9999 -9999 -9999 -9999 -9999 -9999 -9999 -9999 -9999 -9999 -9999 505.299 505.446 505.619 505.751 505.686 505.694 505.626 505.546 505.551 505.486 505.216 505.021 504.841 504.791 504.949 504.949 504.971 504.769 504.656 504.654 504.841 504.899 504.816 504.786 504.736 504.804 504.946 505.094 505.086 505.016 505.006 504.959 504.854 504.861 505.274 505.359 505.146 504.856 504.661 504.631 504.671 505.196 504.994 504.796 504.759 504.751 504.771 504.799 504.814 504.854 504.874 504.896 504.926 504.836 504.849 504.794 504.824 504.784 504.736 504.696 504.641 504.684 504.691 504.704 504.801 504.871 504.796 504.776 504.744 504.679 504.626 504.649 504.666 504.634 504.596 504.569 504.621 504.464 504.526 504.519 504.581 504.651 504.691 504.761 504.649 504.521 504.504 504.496 504.334 504.281 504.204 504.346 504.279 504.354 504.349 504.369 504.209 504.104 503.836 503.669 503.716 503.479 503.501 503.541 503.444 503.259 503.186 503.091 503.234 503.431 503.369 503.326 503.341 503.341 503.229 503.176 503.106 503.076 502.939 502.624 502.514 502.524 502.531 502.634 502.524 502.324 502.191 502.131 502.044 501.951 502.014 502.066 502.196 502.176 502.146 501.991 501.711 501.621 501.504 501.514 501.579 501.546 501.546 501.559 501.504 501.479 501.469 501.484 501.529 501.564 501.489 501.384 501.159 501.036 500.924 500.866 500.829 500.729 500.501 500.376 500.327 500.359 500.202 500.024 499.969 499.874 499.784 499.747 499.719 499.459 499.314 499.097 498.794 498.442 497.889 498.014 498.314 498.442 498.292 498.099 497.982 497.927 497.797 497.667 497.597 497.242 496.947 497.097 497.329 497.344 497.339 497.287 497.249 497.172 497.017 496.814 496.729 496.589 496.469 496.272 496.149 496.002 495.889 495.784 495.694 495.444 495.169 494.937 494.642 494.442 494.319 494.012 493.819 493.782 493.587 493.427 493.532 493.619 493.604 493.549 493.512 493.137 492.862 492.662 492.492 492.297 492.017 492.037 492.072 491.982 491.782 491.652 491.577 491.962 492.042 491.969 491.892 491.469 491.402 491.809 492.264 492.722 492.994 493.209 493.394 493.507 493.699 493.704 493.899 493.897 493.957 494.134 494.229 494.394 494.589 494.769 494.967 495.114 495.192 495.362 495.544 495.664 495.759 495.909 495.972 496.022 496.082 496.132 496.294 496.342 496.314 496.439 496.464 496.489 496.574 496.682 496.592 496.512 496.549 496.644 496.622 496.512 496.432 496.499 496.627 496.457 496.442 496.274 496.132 496.139 496.112 495.929 495.732 495.527 495.342 495.182 495.062 495.029 494.864 494.674 494.567 494.449 494.307 494.184 494.039 493.879 493.662 493.514 493.332 493.219 493.049 492.847 492.622 492.394 492.242 492.102 491.947 491.819 491.639 491.437 491.267 491.104 490.844 490.597 490.399 490.127 489.822 489.519 489.242 488.889 488.627 488.369 488.162 488.127 487.894 487.557 487.257 486.877 486.637 486.364 486.057 485.549 484.944
-9999 -9999 -9999 -9999 -9999 -9999 -9999 -9999 -9999 -9999 -9999 -9999 -9999 -9999 -9999 -9999 -9999 -9999 -9999 -9999 -9999 -9999 -9999 -9999 -9999 -9999 -9999 -9999 -9999 -9999 -9999 -9999 -9999 -9999 -9999 -9999 -9999 -9999 -9999 -9999 -9999 -9999 -9999 -9999 -9999 -9999 -9999 -9999 -9999 -9999 -9999 -9999 -9999 -9999 -9999 -9999 -9999 -9999 -9999 -9999 504.941 505.161 505.406 505.461 505.484 505.436 505.599 505.536 505.451 505.336 504.961 504.744 504.751 504.736 504.771 504.754 504.789 504.674 504.619 504.584 504.611 504.639 504.576 504.636 504.629 504.606 504.631 504.639 504.781 504.889 504.901 504.816 504.691 504.666 504.884 504.846 504.789 504.681 504.696 505.149 504.724 504.706 504.669 504.674 504.724 504.776 504.789 504.749 504.756 504.779 504.801 504.826 504.806 504.776 504.709 504.769 504.739 504.684 504.751 504.706 504.629 504.601 504.559 504.529 504.524 504.534 504.621 504.631 504.656 504.674 504.584 504.556 504.539 504.534 504.534 504.504 504.416 504.399 504.564 504.511 504.479 504.504 504.529 504.406 504.361 504.256 504.244 504.259 504.224 504.156 504.049 504.046 504.074 504.154 504.264 504.219 504.026 503.914 503.834 503.574 503.461 503.324 503.216 503.209 503.141 502.971 502.739 502.701 502.899 503.144 503.201 503.161 503.161 503.154 503.011 502.806 502.831 502.769 502.584 502.241 502.229 502.349 502.266 502.176 502.121 501.964 501.846 501.866 501.856 501.789 501.834 501.931 501.974 501.984 501.946 501.971 501.629 501.484 501.426 501.456 501.471 501.484 501.479 501.426 501.344 501.349 501.346 501.386 501.406 501.424 501.364 501.236 501.074 500.916 500.794 500.694 500.676 500.536 500.356 500.221 500.132 500.094 499.919 499.807 499.767 499.674 499.539 499.517 499.457 499.294 499.089 498.809 498.604 498.219 497.629 497.752 498.099 498.147 498.099 497.964 497.847 497.694 497.439 497.264 497.089 496.757 496.199 496.479 496.852 496.927 496.892 496.854 496.849 496.779 496.677 496.557 496.379 496.277 496.174 495.989 495.839 495.719 495.572 495.329 495.134 494.887 494.589 494.419 494.159 493.967 493.869 493.627 493.562 493.292 493.034 492.912 493.069 493.169 493.169 493.009 492.659 492.172 491.704 491.424 491.697 491.739 491.439 491.542 491.477 491.109 490.484 490.237 490.419 491.434 491.677 491.582 491.512 490.807 490.207 490.844 491.929 492.569 492.887 492.922 493.162 493.369 493.437 493.544 493.607 493.722 493.869 493.979 494.179 494.444 494.504 494.649 494.859 494.959 495.102 495.322 495.442 495.617 495.709 495.842 496.037 495.962 496.029 496.092 496.184 496.472 496.204 496.297 496.302 496.317 496.359 496.497 496.397 496.387 496.377 496.409 496.417 496.342 496.214 496.247 496.384 496.279 496.234 496.142 495.962 495.884 495.792 495.594 495.484 495.324 495.074 494.907 494.834 494.769 494.634 494.422 494.292 494.274 494.097 493.962 493.872 493.704 493.464 493.344 493.199 493.039 492.899 492.659 492.389 492.174 492.064 491.942 491.869 491.674 491.409 491.199 491.082 490.867 490.627 490.372 490.149 489.844 489.569 489.337 489.007 488.654 488.367 488.209 488.062 487.987 487.689 487.259 487.034 486.779 486.442 486.162 485.824 485.489 484.897
-9999 -9999 -9999 -9999 -9999 -9999 -9999 -9999 -9999 -9999 -9999 -9999 -9999 -9999 -9999 -9999 -9999 -9999 -9999 -9999 -9999 -9999 -9999 -9999 -9999 -9999 -9999 -9999 -9999 -9999 -9999 -9999 -9999 -9999 -9999 -9999 -9999 -9999 -9999 -9999 -9999 -9999 -9999 -9999 -9999 -9999 -9999 -9999 -9999 -9999 -9999 -9999 -9999 -9999 -9999 -9999 -9999 -9999 -9999 -9999 504.579 505.029 505.164 505.256 505.251 505.296 505.496 505.469 505.329 505.159 504.906 504.599 504.504 504.671 504.694 504.639 504.639 504.616 504.594 504.584 504.566 504.529 504.474 504.464 504.506 504.526 504.491 504.551 504.599 504.631 504.609 504.616 504.614 504.589 504.584 504.559 504.576 504.551 504.604 504.644 504.651 504.581 504.609 504.626 504.749 504.711 504.699 504.721 504.711 504.689 504.709 504.774 504.701 504.574 504.611 504.679 504.629 504.566 504.579 504.559 504.559 504.531 504.519 504.499 504.471 504.539 504.549 504.511 504.469 504.531 504.511 504.464 504.459 504.346 504.401 504.376 504.346 504.326 504.359 504.409 504.354 504.341 504.259 504.189 504.114 504.049 504.016 504.046 504.026 504.039 503.954 503.926 503.989 504.036 504.124 504.149 503.894 503.664 503.579 503.339 503.246 503.156 503.051 502.951 502.889 502.656 502.534 502.599 502.664 502.919 503.031 503.009 502.991 502.981 502.706 502.541 502.529 502.486 502.206 501.989 501.876 501.914 501.961 501.816 501.774 501.646 501.606 501.659 501.709 501.694 501.714 501.726 501.719 501.711 501.604 501.691 501.499 501.319 501.311 501.331 501.386 501.426 501.419 501.361 501.249 501.134 501.249 501.254 501.264 501.374 501.264 501.119 500.986 500.841 500.739 500.544 500.481 500.314 500.204 500.106 500.029 499.932 499.839 499.677 499.574 499.517 499.404 499.297 499.124 498.964 498.707 498.474 498.272 497.767 497.822 497.752 497.794 497.887 497.817 497.777 497.574 497.237 496.964 496.767 496.657 496.414 496.132 496.112 496.502 496.692 496.657 496.457 496.364 496.217 496.222 496.172 496.029 495.912 495.802 495.689 495.454 495.322 495.117 494.912 494.672 494.307 494.072 493.984 493.794 493.622 493.457 493.202 493.062 492.862 492.694 492.614 492.697 492.874 492.784 492.424 491.622 491.047 490.624 490.457 490.457 490.764 491.112 491.189 490.954 490.159 489.194 488.994 489.649 490.907 491.382 491.347 491.304 490.899 490.377 491.122 491.997 492.477 492.749 492.859 493.039 493.187 493.239 493.289 493.364 493.497 493.667 493.952 494.217 494.364 494.444 494.564 494.704 494.864 495.024 495.179 495.347 495.639 495.642 495.739 495.869 495.867 495.927 495.994 496.099 496.374 496.047 496.084 496.109 496.157 496.169 496.239 496.177 496.167 496.177 496.139 496.169 496.149 496.024 496.057 496.147 496.062 495.957 495.924 495.752 495.574 495.489 495.324 495.164 495.057 494.904 494.739 494.609 494.569 494.399 494.212 494.112 493.959 493.784 493.682 493.647 493.519 493.304 493.027 492.867 492.734 492.562 492.357 492.192 492.052 491.909 491.797 491.732 491.514 491.282 491.054 490.864 490.599 490.352 490.077 489.842 489.564 489.287 489.057 488.734 488.467 488.202 487.987 487.862 487.647 487.357 486.997 486.784 486.537 486.182 485.867 485.549 485.277 484.722
-9999 -9999 -9999 -9999 -9999 -9999 -9999 -9999 -9999 -9999 -9999 -9999 -9999 -9999 -9999 -9999 -9999 -9999 -9999 -9999 -9999 -9999 -9999 -9999 -9999 -9999 -9999 -9999 -9999 -9999 -9999 -9999 -9999 -9999 -9999 -9999 -9999 -9999 -9999 -9999 -9999 -9999 -9999 -9999 -9999 -9999 -9999 -9999 -9999 -9999 -9999 -9999 -9999 -9999 -9999 -9999 -9999 -9999 -9999 -9999 -9999 504.696 504.946 505.024 505.104 505.116 505.059 505.091 505.074 504.811 504.566 504.396 504.351 504.431 504.509 504.526 504.466 504.419 504.366 504.436 504.454 504.374 504.346 504.319 504.379 504.446 504.394 504.334 504.296 504.366 504.354 504.421 504.519 504.534 504.521 504.536 504.984 504.684 504.464 504.481 504.501 504.564 504.561 504.546 504.601 504.696 504.644 504.641 504.574 504.606 504.629 504.639 504.686 504.554 504.561 504.551 504.556 504.471 504.449 504.459 504.474 504.466 504.431 504.486 504.446 504.464 504.504 504.461 504.459 504.506 504.461 504.481 504.371 504.346 504.336 504.311 504.281 504.211 504.154 504.176 504.249 504.214 504.104 503.986 503.969 503.979 503.911 503.904 503.891 503.831 503.761 503.779 503.836 503.814 503.834 503.954 503.781 503.584 503.394 503.134 502.936 502.859 502.794 502.751 502.724 502.471 502.431 502.336 502.356 502.571 502.856 502.851 502.756 502.634 502.534 502.471 502.276 502.166 502.054 501.926 501.731 501.686 501.766 501.664 501.596 501.524 501.524 501.459 501.464 501.489 501.539 501.411 501.374 501.396 501.416 501.354 501.254 501.144 501.216 501.194 501.241 501.321 501.341 501.276 501.114 500.931 501.129 501.189 501.209 501.206 501.136 500.961 500.841 500.776 500.679 500.414 500.444 500.196 500.071 500.001 499.874 499.809 499.764 499.602 499.484 499.409 499.327 499.064 498.862 498.697 498.522 498.269 497.684 497.239 497.317 497.382 497.547 497.559 497.457 497.347 496.984 496.742 496.522 496.424 496.432 496.282 496.117 496.124 496.282 496.427 496.507 496.384 496.197 496.047 495.974 495.837 495.699 495.659 495.562 495.419 495.247 494.979 494.784 494.562 494.284 494.032 493.862 493.664 493.474 493.252 493.122 493.004 492.794 492.707 492.529 492.309 492.329 492.572 492.507 491.832 490.662 489.784 489.327 488.952 489.197 489.867 490.452 490.767 490.517 489.444 488.299 488.674 489.682 490.619 491.137 491.212 491.374 491.509 491.537 491.857 492.199 492.474 492.609 492.707 492.837 492.982 493.112 493.144 493.194 493.349 493.507 493.754 494.044 494.139 494.259 494.404 494.604 494.774 494.959 495.124 495.262 495.524 495.572 495.637 495.734 495.784 495.897 495.869 495.864 496.262 495.902 495.942 495.959 495.957 496.007 496.022 495.992 495.937 495.939 495.944 495.937 495.862 495.859 495.877 495.867 495.779 495.692 495.667 495.494 495.337 495.217 495.089 494.917 494.797 494.697 494.577 494.472 494.427 494.164 494.022 493.912 493.759 493.549 493.467 493.419 493.209 493.027 492.837 492.654 492.522 492.332 492.129 492.012 491.909 491.784 491.642 491.472 491.289 491.092 490.899 490.609 490.359 490.129 489.864 489.549 489.312 489.019 488.729 488.409 488.154 488.007 487.792 487.542 487.277 486.992 486.754 486.494 486.214 485.842 485.587 485.274 484.902 484.479
-9999 -9999 -9999 -9999 -9999 -9999 -9999 -9999 -9999 -9999 -9999 -9999 -9999 -9999 -9999 -9999 -9999 -9999 -9999 -9999 -9999 -9999 -9999 -9999 -9999 -9999 -9999 -9999 -9999 -9999 -9999 -9999 -9999 -9999 -9999 -9999 -9999 -9999 -9999 -9999 -9999 -9999 -9999 -9999 -9999 -9999 -9999 -9999 -9999 -9999 -9999 -9999 -9999 -9999 -9999 -9999 -9999 -9999 -9999 -9999 -9999 504.392 504.504 504.626 504.646 504.699 504.581 504.564 504.691 504.564 504.284 504.086 504.036 504.144 504.271 504.414 504.369 504.264 504.226 504.229 504.341 504.236 504.116 504.091 504.136 504.261 504.354 504.194 504.069 504.166 504.269 504.344 504.456 504.384 504.889 504.591 504.341 504.334 504.389 504.456 504.469 504.464 504.504 504.451 504.476 504.591 504.584 504.494 504.546 504.476 504.466 504.446 504.439 504.434 504.419 504.416 504.391 504.474 504.419 504.429 504.381 504.391 504.386 504.446 504.421 504.396 504.431 504.376 504.356 504.364 504.291 504.194 504.276 504.231 504.239 504.249 504.246 504.226 504.184 504.184 504.114 504.086 503.991 503.914 503.909 503.831 503.836 503.804 503.749 503.816 503.751 503.679 503.626 503.666 503.541 503.616 503.496 503.326 503.196 502.981 502.764 502.609 502.536 502.514 502.554 502.331 502.206 502.099 502.209 502.521 502.794 502.659 502.539 502.484 502.351 502.229 502.126 501.911 501.799 501.711 501.571 501.554 501.541 501.556 501.444 501.336 501.414 501.319 501.276 501.306 501.279 501.191 501.091 501.039 501.086 501.066 501.031 501.034 500.956 500.926 501.071 501.061 501.129 501.079 501.044 500.911 500.871 501.031 501.034 501.044 501.026 500.884 500.731 500.669 500.476 500.264 500.249 500.104 500.104 499.959 499.777 499.724 499.697 499.497 499.302 499.232 499.077 498.912 498.717 498.564 498.294 497.874 497.104 496.607 496.409 496.914 497.217 497.232 497.102 496.874 496.594 496.457 496.262 496.207 496.174 496.062 496.039 496.057 496.162 496.204 496.112 496.054 495.969 495.907 495.834 495.779 495.569 495.344 495.299 495.257 495.092 494.884 494.474 494.182 493.934 493.737 493.519 493.294 493.057 492.849 492.764 492.632 492.539 492.499 492.292 492.094 491.989 492.112 491.837 490.797 489.502 488.514 487.609 487.427 487.877 488.929 490.092 490.389 490.169 489.932 489.567 489.764 490.399 490.717 491.024 491.072 491.212 491.457 491.679 491.802 491.974 492.212 492.389 492.547 492.672 492.822 492.982 493.017 493.077 493.209 493.367 493.594 493.877 493.934 494.032 494.162 494.389 494.554 494.757 494.957 495.104 495.277 495.409 495.512 495.567 495.632 495.682 495.572 495.597 496.017 495.727 495.774 495.819 495.792 495.787 495.822 495.822 495.739 495.712 495.722 495.802 495.707 495.702 495.674 495.612 495.534 495.444 495.357 495.259 495.139 495.082 494.862 494.674 494.544 494.469 494.409 494.249 494.162 493.957 493.802 493.734 493.519 493.299 493.237 493.182 492.939 492.722 492.599 492.474 492.327 492.144 491.967 491.862 491.709 491.562 491.349 491.237 491.104 490.872 490.622 490.324 490.117 489.892 489.584 489.267 488.994 488.699 488.344 488.082 487.899 487.747 487.532 487.242 486.984 486.707 486.372 486.034 485.674 485.414 485.197 484.894 484.452 484.089
-9999 -9999 -9999 -9999 -9999 -9999 -9999 -9999 -9999 -9999 -9999 -9999 -9999 -9999 -9999 -9999 -9999 -9999 -9999 -9999 -9999 -9999 -9999 -9999 -9999 -9999 -9999 -9999 -9999 -9999 -9999 -9999 -9999 -9999 -9999 -9999 -9999 -9999 -9999 -9999 -9999 -9999 -9999 -9999 -9999 -9999 -9999 -9999 -9999 -9999 -9999 -9999 -9999 -9999 -9999 -9999 -9999 -9999 -9999 -9999 -9999 -9999 504.216 504.221 504.119 504.321 504.199 504.081 504.251 504.376 504.079 503.846 503.859 503.941 504.046 504.214 504.156 504.119 504.066 504.054 504.059 503.994 503.989 504.074 504.119 504.166 504.231 504.141 504.021 504.004 504.316 504.219 504.761 504.291 504.214 504.251 504.256 504.229 504.276 504.321 504.331 504.381 504.399 504.371 504.334 504.361 504.379 504.336 504.356 504.291 504.371 504.384 504.284 504.304 504.281 504.361 504.384 504.316 504.334 504.424 504.421 504.331 504.366 504.389 504.304 504.361 504.264 504.254 504.261 504.256 504.174 504.069 504.061 504.084 504.051 504.091 504.111 504.056 504.076 504.061 504.001 503.909 503.884 503.849 503.771 503.691 503.631 503.604 503.659 503.794 503.751 503.611 503.566 503.429 503.421 503.301 503.119 502.946 502.869 502.786 502.554 502.384 502.376 502.311 502.289 502.166 502.026 501.979 502.069 502.279 502.371 502.294 502.109 502.174 502.149 502.071 501.811 501.559 501.456 501.454 501.346 501.314 501.296 501.264 501.301 501.264 501.354 501.249 501.186 501.156 501.099 501.079 500.979 500.966 500.926 500.804 500.756 500.781 500.739 500.729 500.771 500.796 500.936 500.999 500.916 500.861 500.759 500.721 500.791 500.809 500.751 500.644 500.471 500.399 500.281 500.156 500.089 500.034 499.991 499.826 499.747 499.684 499.607 499.367 499.097 499.027 498.927 498.797 498.614 498.414 498.162 497.672 496.957 495.999 495.509 496.574 496.924 496.769 496.622 496.404 496.137 495.944 495.947 495.924 495.897 495.972 495.979 495.954 495.979 495.939 495.887 495.837 495.764 495.714 495.567 495.482 495.357 495.299 495.034 494.927 494.819 494.609 494.149 493.919 493.754 493.404 493.137 492.962 492.872 492.619 492.477 492.359 492.232 492.154 492.077 491.912 491.752 491.659 491.132 489.852 488.522 487.522 486.757 486.637 487.447 488.774 490.039 490.459 490.467 490.559 490.479 490.489 490.639 490.689 490.719 490.792 490.932 491.057 491.117 491.184 491.537 491.932 492.197 492.362 492.519 492.662 492.769 492.882 492.929 493.069 493.267 493.432 493.607 493.734 493.762 493.917 494.137 494.212 494.367 494.594 494.772 494.969 495.117 495.237 495.259 495.319 495.309 495.214 495.187 495.579 495.517 495.509 495.607 495.554 495.602 495.667 495.632 495.539 495.457 495.474 495.627 495.519 495.489 495.492 495.332 495.212 495.217 495.124 494.989 494.857 494.812 494.604 494.362 494.239 494.162 494.119 493.929 493.904 493.732 493.549 493.442 493.389 493.132 492.922 492.867 492.724 492.477 492.259 492.197 492.024 491.807 491.732 491.674 491.477 491.277 491.124 490.992 490.824 490.622 490.354 490.042 489.762 489.537 489.352 489.019 488.697 488.382 488.097 487.854 487.674 487.432 487.227 486.914 486.677 486.362 485.879 485.507 485.127 484.909 484.682 484.312 483.882 483.549
-9999 -9999 -9999 -9999 -9999 -9999 -9999 -9999 -9999 -9999 -9999 -9999 -9999 -9999 -9999 -9999 -9999 -9999 -9999 -9999 -9999 -9999 -9999 -9999 -9999 -9999 -9999 -9999 -9999 -9999 -9999 -9999 -9999 -9999 -9999 -9999 -9999 -9999 -9999 -9999 -9999 -9999 -9999 -9999 -9999 -9999 -9999 -9999 -9999 -9999 -9999 -9999 -9999 -9999 -9999 -9999 -9999 -9999 -9999 -9999 -9999 -9999 503.819 503.869 503.796 504.031 504.019 503.939 503.939 503.991 503.849 503.669 503.644 503.774 503.831 503.969 504.024 504.001 503.939 503.929 503.871 503.721 503.829 504.024 504.064 504.074 504.144 504.149 504.376 504.096 504.551 504.161 504.039 504.041 504.146 504.176 504.176 504.241 504.239 504.209 504.269 504.199 504.189 504.301 504.336 504.276 504.294 504.286 504.254 504.246 504.179 504.196 504.141 504.154 504.234 504.259 504.316 504.269 504.259 504.344 504.321 504.366 504.316 504.259 504.126 504.096 504.031 504.049 504.131 504.139 504.046 503.999 504.036 503.946 503.906 503.839 503.851 503.879 503.886 503.919 503.934 503.784 503.771 503.739 503.601 503.589 503.451 503.456 503.561 503.726 503.564 503.561 503.434 503.284 503.229 503.081 502.931 502.696 502.601 502.516 502.336 502.239 502.294 502.226 502.109 502.024 502.026 501.951 501.914 501.961 501.911 501.799 501.656 501.639 501.654 501.719 501.609 501.251 501.039 501.046 501.141 501.139 501.089 501.061 501.146 501.194 501.236 501.164 501.084 501.024 500.941 500.949 500.836 500.811 500.871 500.691 500.684 500.664 500.581 500.534 500.524 500.619 500.776 500.854 500.826 500.754 500.666 500.591 500.556 500.546 500.409 500.371 500.199 500.084 500.011 500.011 499.949 499.926 499.744 499.679 499.609 499.479 499.334 499.254 499.069 498.934 498.849 498.724 498.524 498.344 498.072 497.752 497.187 496.337 496.002 496.584 496.672 496.382 496.249 496.084 495.837 495.664 495.714 495.729 495.754 495.779 495.819 495.792 495.697 495.704 495.712 495.574 495.442 495.317 495.337 495.252 495.122 495.074 494.804 494.629 494.432 494.152 493.804 493.542 493.349 493.092 492.862 492.692 492.574 492.442 492.217 492.069 491.922 491.849 491.752 491.684 491.602 491.349 490.757 489.389 488.169 487.594 487.432 487.719 488.622 489.577 490.204 490.457 490.524 490.584 490.522 490.477 490.434 490.442 490.419 490.437 490.514 490.529 490.222 490.329 491.019 491.584 491.949 492.189 492.319 492.449 492.489 492.549 492.667 492.799 492.917 493.074 493.212 493.472 493.487 493.569 493.699 493.772 493.849 494.089 494.349 494.534 494.722 494.854 494.952 495.082 495.087 495.037 495.009 495.474 495.409 495.304 495.344 495.317 495.392 495.469 495.404 495.284 495.207 495.199 495.282 495.164 495.182 495.149 495.082 494.919 494.954 494.899 494.714 494.562 494.527 494.447 494.254 494.007 493.932 493.887 493.662 493.614 493.524 493.322 493.202 493.047 492.907 492.672 492.577 492.437 492.237 492.014 491.992 491.837 491.612 491.512 491.384 491.279 491.064 490.864 490.684 490.512 490.284 490.062 489.769 489.457 489.207 488.964 488.687 488.377 488.052 487.849 487.587 487.339 487.102 486.869 486.589 486.284 485.912 485.342 484.942 484.769 484.589 484.219 483.629 483.184 483.024
-9999 -9999 -9999 -9999 -9999 -9999 -9999 -9999 -9999 -9999 -9999 -9999 -9999 -9999 -9999 -9999 -9999 -9999 -9999 -9999 -9999 -9999 -9999 -9999 -9999 -9999 -9999 -9999 -9999 -9999 -9999 -9999 -9999 -9999 -9999 -9999 -9999 -9999 -9999 -9999 -9999 -9999 -9999 -9999 -9999 -9999 -9999 -9999 -9999 -9999 -9999 -9999 -9999 -9999 -9999 -9999 -9999 -9999 -9999 -9999 -9999 -9999 -9999 503.521 503.589 503.756 503.919 503.901 503.851 503.829 503.731 503.579 503.551 503.614 503.744 503.786 503.844 503.846 503.751 503.771 503.796 503.704 503.771 503.879 503.954 503.971 504.489 504.221 504.124 504.031 503.914 503.914 504.084 504.109 504.041 503.974 503.964 503.979 504.021 504.054 504.051 504.046 504.064 504.051 504.066 504.131 504.129 504.174 504.194 504.141 504.119 504.086 504.074 504.039 504.089 504.166 504.151 504.101 504.129 504.131 504.199 504.346 504.231 504.159 503.964 503.804 503.809 503.864 503.946 504.011 503.991 503.989 503.924 503.829 503.694 503.609 503.644 503.681 503.676 503.709 503.669 503.631 503.629 503.596 503.474 503.391 503.344 503.394 503.431 503.574 503.574 503.474 503.256 503.156 503.009 502.859 502.671 502.574 502.369 502.316 502.209 502.214 502.234 502.124 502.029 501.976 501.919 501.934 501.849 501.749 501.646 501.584 501.429 501.401 501.341 501.334 501.314 501.169 500.936 500.914 500.984 500.986 500.881 500.916 500.934 500.986 500.996 501.011 500.914 500.856 500.834 500.791 500.666 500.581 500.581 500.544 500.491 500.394 500.446 500.479 500.441 500.524 500.581 500.576 500.604 500.646 500.494 500.414 500.321 500.251 500.141 500.016 499.939 499.864 499.711 499.776 499.821 499.651 499.434 499.506 499.454 499.287 499.147 499.027 498.897 498.754 498.712 498.542 498.334 498.149 497.947 497.662 497.102 496.544 496.432 496.552 496.404 496.154 495.962 495.842 495.509 495.442 495.412 495.312 495.454 495.622 495.619 495.619 495.462 495.324 495.337 495.217 495.137 495.084 495.049 494.944 494.839 494.739 494.642 494.459 494.232 493.882 493.597 493.307 493.047 492.799 492.607 492.404 492.337 492.149 491.924 491.844 491.664 491.537 491.539 491.449 491.382 491.267 490.832 489.884 488.899 488.617 488.782 489.217 489.729 490.032 490.262 490.227 490.247 490.379 490.297 490.244 490.202 490.149 490.067 490.057 490.059 489.977 489.092 489.319 490.594 491.254 491.614 491.904 492.012 492.067 492.189 492.282 492.462 492.509 492.594 492.699 492.859 492.999 493.174 493.174 493.212 493.302 493.432 493.649 493.937 494.179 494.387 494.529 494.684 494.819 494.904 494.907 495.009 495.292 495.262 495.192 495.152 495.117 495.139 495.189 495.137 495.024 495.012 494.972 494.959 494.892 494.949 494.942 494.809 494.727 494.722 494.609 494.469 494.294 494.242 494.157 494.029 493.749 493.612 493.632 493.447 493.279 493.224 493.077 492.999 492.797 492.544 492.449 492.284 492.152 491.987 491.852 491.814 491.629 491.449 491.264 491.112 491.022 490.804 490.579 490.379 490.189 490.007 489.742 489.442 489.154 488.927 488.662 488.354 488.052 487.754 487.509 487.224 487.024 486.767 486.504 486.274 485.892 485.454 484.889 484.499 484.389 484.089 483.574 483.014 482.714 482.672
-9999 -9999 -9999 -9999 -9999 -9999 -9999 -9999 -9999 -9999 -9999 -9999 -9999 -9999 -9999 -9999 -9999 -9999 -9999 -9999 -9999 -9999 -9999 -9999 -9999 -9999 -9999 -9999 -9999 -9999 -9999 -9999 -9999 -9999 -9999 -9999 -9999 -9999 -9999 -9999 -9999 -9999 -9999 -9999 -9999 -9999 -9999 -9999 -9999 -9999 -9999 -9999 -9999 -9999 -9999 -9999 -9999 -9999 -9999 -9999 -9999 -9999 -9999 503.414 503.456 503.624 503.879 503.841 503.761 503.744 503.699 503.549 503.499 503.546 503.671 503.696 503.674 503.664 503.591 503.586 503.621 503.606 503.674 503.724 504.336 503.936 503.919 503.859 503.721 503.726 503.766 503.794 503.924 504.006 503.864 503.819 503.841 503.876 503.854 503.824 503.901 503.874 503.929 504.021 504.014 504.051 504.051 504.021 504.106 504.119 504.041 504.044 504.024 504.104 504.131 504.046 504.009 504.039 503.969 503.956 504.059 504.189 504.144 503.959 503.709 503.574 503.509 503.549 503.691 503.851 503.881 503.824 503.796 503.746 503.534 503.461 503.421 503.441 503.506 503.559 503.536 503.496 503.451 503.399 503.349 503.309 503.224 503.194 503.284 503.366 503.406 503.284 503.189 503.074 502.936 502.746 502.506 502.399 502.286 502.191 502.134 502.134 502.094 501.994 501.984 501.999 501.949 501.834 501.799 501.684 501.644 501.579 501.414 501.304 501.211 501.139 501.051 501.026 500.909 500.921 500.824 500.774 500.726 500.846 500.774 500.774 500.881 500.846 500.726 500.726 500.664 500.551 500.479 500.489 500.511 500.436 500.291 500.399 500.386 500.316 500.286 500.351 500.421 500.456 500.334 500.386 500.296 500.251 500.096 499.954 499.814 499.714 499.631 499.549 499.476 499.576 499.516 499.444 499.279 499.226 499.169 499.092 498.867 498.779 498.759 498.647 498.627 498.402 498.159 497.982 497.762 497.437 496.687 496.254 496.287 496.272 496.089 495.884 495.677 495.404 495.239 495.297 495.179 495.124 495.154 495.309 495.257 495.249 495.184 495.089 495.034 494.984 494.887 494.794 494.824 494.714 494.592 494.459 494.404 494.207 493.877 493.657 493.517 493.122 492.782 492.432 492.232 492.202 492.112 491.907 491.669 491.564 491.427 491.192 491.089 491.109 491.057 490.979 490.807 490.462 490.082 489.934 489.922 489.962 490.027 490.102 490.084 490.099 490.152 490.097 490.049 490.069 490.017 489.894 489.744 489.749 489.704 489.652 489.487 489.867 490.457 490.939 491.302 491.544 491.747 491.852 491.892 492.012 492.082 492.202 492.339 492.469 492.587 492.709 492.852 492.894 492.937 492.969 493.084 493.302 493.549 493.797 494.047 494.239 494.434 494.589 494.662 494.714 494.804 494.919 495.082 494.819 494.962 494.969 494.927 494.929 494.884 494.767 494.799 494.772 494.704 494.689 494.727 494.732 494.642 494.509 494.414 494.352 494.264 494.022 493.889 493.797 493.692 493.407 493.312 493.269 493.154 493.072 492.987 492.814 492.694 492.467 492.284 492.244 492.094 491.877 491.749 491.624 491.612 491.409 491.189 491.019 490.832 490.669 490.509 490.337 490.102 489.839 489.632 489.397 489.144 488.877 488.642 488.362 488.034 487.744 487.467 487.164 486.897 486.739 486.489 486.149 485.834 485.354 484.939 484.457 484.047 483.857 483.399 482.942 482.609 482.342 482.214
-9999 -9999 -9999 -9999 -9999 -9999 -9999 -9999 -9999 -9999 -9999 -9999 -9999 -9999 -9999 -9999 -9999 -9999 -9999 -9999 -9999 -9999 -9999 -9999 -9999 -9999 -9999 -9999 -9999 -9999 -9999 -9999 -9999 -9999 -9999 -9999 -9999 -9999 -9999 -9999 -9999 -9999 -9999 -9999 -9999 -9999 -9999 -9999 -9999 -9999 -9999 -9999 -9999 -9999 -9999 -9999 -9999 -9999 -9999 -9999 -9999 -9999 -9999 -9999 503.285 503.236 503.671 503.774 503.609 503.421 503.491 503.491 503.386 503.429 503.494 503.561 503.554 503.461 503.464 503.446 503.726 503.609 504.009 504.019 503.679 503.749 503.706 503.691 503.691 503.666 503.681 503.681 503.796 503.739 503.716 503.744 503.809 503.759 503.751 503.689 503.706 503.736 503.751 503.886 503.889 503.956 503.976 503.999 503.979 503.936 503.909 503.924 503.904 503.866 503.906 503.884 503.866 503.894 503.869 503.854 503.874 503.836 503.741 503.611 503.494 503.444 503.406 503.421 503.559 503.651 503.736 503.699 503.744 503.564 503.414 503.254 503.266 503.354 503.441 503.431 503.336 503.304 503.301 503.264 503.269 503.249 503.196 503.119 503.081 503.066 503.151 503.124 503.099 503.001 502.896 502.696 502.489 502.364 502.269 502.236 502.116 502.114 502.094 501.939 501.896 501.891 501.791 501.726 501.679 501.619 501.574 501.541 501.431 501.221 501.096 500.969 501.044 501.026 500.986 500.876 500.784 500.706 500.676 500.689 500.671 500.704 500.671 500.576 500.574 500.561 500.511 500.471 500.359 500.324 500.394 500.304 500.156 500.226 500.201 500.004 500.036 500.126 500.184 500.304 500.104 500.071 500.121 499.974 499.931 499.726 499.564 499.419 499.354 499.239 499.129 499.131 499.146 499.119 498.991 498.971 498.952 498.834 498.627 498.527 498.489 498.462 498.397 498.254 498.062 497.829 497.464 497.094 496.429 496.204 496.152 496.009 495.764 495.582 495.342 495.134 494.864 494.934 494.864 494.902 494.962 494.967 494.899 494.867 494.874 494.832 494.782 494.714 494.664 494.577 494.547 494.462 494.384 494.297 494.159 493.834 493.652 493.387 493.239 492.979 492.529 492.127 491.899 491.799 491.782 491.704 491.454 491.232 491.084 490.919 490.864 490.797 490.752 490.704 490.549 490.492 490.389 490.337 490.247 490.152 489.977 489.939 489.924 489.922 489.902 489.867 489.789 489.702 489.507 489.304 489.364 489.434 489.364 489.289 489.377 489.804 490.179 490.592 490.904 491.067 491.304 491.457 491.524 491.597 491.692 491.907 491.999 492.104 492.222 492.382 492.509 492.514 492.542 492.637 492.714 492.907 493.172 493.414 493.547 493.744 494.074 494.304 494.372 494.462 494.577 494.602 495.007 494.594 494.684 494.769 494.724 494.664 494.519 494.489 494.542 494.524 494.539 494.484 494.397 494.424 494.329 494.222 494.142 494.019 493.969 493.814 493.607 493.424 493.307 493.204 493.162 492.984 492.884 492.849 492.737 492.524 492.377 492.229 492.077 492.029 491.897 491.669 491.462 491.367 491.237 491.054 490.867 490.724 490.497 490.354 490.187 489.954 489.769 489.469 489.232 488.977 488.687 488.467 488.289 488.002 487.692 487.402 487.149 486.864 486.639 486.419 486.182 485.882 485.497 484.964 484.469 484.112 483.754 483.454 482.897 482.487 482.222 482.022 481.832
