ncols 378
nrows 31
xllcorner    385122
yllcorner    479916
cellsize     2
NODATA_value -9999
360.349 360.476 361.096 360.999 366.669 362.176 359.819 359.471 359.961 360.294 360.021 359.931 359.734 359.554 359.386 359.299 359.086 359.019 362.511 358.769 359.514 358.336 358.986 360.704 361.641 358.241 360.314 360.016 358.364 358.876 359.439 360.949 360.624 363.291 360.879 355.514 355.291 355.034 354.686 354.541 354.401 354.279 355.189 355.936 358.821 359.249 354.249 354.379 359.711 356.434 353.736 354.191 357.134 356.234 354.159 357.441 355.419 353.236 352.974 354.249 354.574 352.889 357.686 358.941 352.521 351.531 352.409 353.124 354.429 355.311 352.691 356.584 348.824 351.636 349.836 347.534 347.064 346.671 350.081 349.941 346.406 345.406 345.206 344.964 346.156 344.754 347.599 345.964 344.431 344.274 344.196 344.149 344.101 344.001 344.064 344.131 344.141 344.209 344.581 344.916 345.001 345.004 345.084 345.144 345.254 345.411 345.536 345.571 345.679 345.711 346.196 351.846 356.169 357.054 355.644 354.411 353.201 354.274 355.109 354.359 354.589 356.014 357.849 357.019 356.684 355.996 352.036 355.404 356.679 355.666 351.341 352.321 355.526 353.719 354.889 357.359 354.656 353.409 356.156 357.939 358.944 359.579 357.269 358.651 358.324 360.931 357.376 353.876 345.904 345.109 351.706 355.456 346.854 355.889 356.799 353.849 351.611 350.986 349.859 346.796 348.339 349.426 348.159 355.489 352.564 351.271 355.409 358.129 355.314 357.096 356.326 357.959 359.034 358.106 357.156 357.369 358.244 358.099 356.696 356.479 355.749 358.694 358.086 358.319 358.056 357.724 357.286 357.909 355.786 355.086 358.486 355.646 360.261 356.924 354.994 357.969 357.096 358.926 357.659 355.104 359.554 359.531 358.081 357.536 358.489 358.709 355.801 357.964 350.976 348.651 347.381 347.404 348.464 352.944 358.711 359.124 359.806 358.056 359.314 356.959 357.764 356.759 358.731 356.504 358.956 357.951 356.421 355.709 353.356 355.919 355.269 351.216 353.236 354.331 351.476 352.689 351.064 356.891 357.031 352.896 354.426 350.516 350.871 352.949 355.761 354.304 351.124 349.151 353.849 354.516 352.719 351.406 350.166 346.761 350.106 351.019 346.196 344.806 345.929 346.811 351.256 350.374 349.406 350.186 347.774 345.456 349.846 348.006 351.016 353.826 353.919 351.234 352.564 354.476 357.636 355.926 356.066 356.489 349.009 343.551 343.151 342.921 342.854 342.656 342.539 343.341 343.904 344.104 344.334 344.516 344.576 344.766 344.881 345.316 345.739 345.534 345.696 345.716 349.774 353.899 353.624 349.309 346.076 346.094 346.261 346.334 346.279 346.264 346.309 346.816 346.324 346.399 346.459 346.411 346.431 346.611 346.586 346.601 346.599 346.689 346.834 346.901 347.116 347.299 347.341 347.399 347.874 348.101 348.266 348.379 349.059 348.739 348.271 348.501 348.959 349.224 349.421 349.706 349.736 349.994 350.821 354.146 358.546 359.221 358.164 362.234 361.334 362.629 360.589 359.886 363.669 364.924 364.741 364.869 365.711 364.226 362.876 365.381 366.689 365.516 362.664 368.336 367.329 367.191 368.636 365.874 367.806 369.769 367.054 367.589 368.749 364.584 368.316 368.389 365.226 367.869 368.686 368.221
360.819 360.861 361.284 361.719 363.029 361.154 360.304 360.306 360.531 360.424 360.334 360.276 360.051 359.914 359.796 359.651 359.419 359.444 362.434 359.059 359.204 360.134 362.106 360.241 359.246 358.226 358.126 358.434 358.704 359.266 358.164 357.551 358.189 359.416 357.009 356.161 355.901 355.684 355.041 355.299 355.274 354.956 356.414 359.856 358.394 356.516 357.419 357.146 355.574 354.419 354.656 354.736 355.986 359.006 354.441 358.991 358.831 355.199 353.494 354.079 356.006 354.999 354.384 352.426 352.816 353.214 352.729 351.666 352.039 361.434 353.039 354.556 349.704 352.939 350.901 347.961 347.546 349.371 351.451 348.299 348.924 347.136 348.581 351.596 347.774 345.029 345.129 345.299 344.849 344.706 344.649 347.629 344.411 344.491 344.439 344.541 344.679 344.814 344.904 345.046 345.089 345.231 345.159 345.116 345.064 345.291 345.601 345.799 345.899 345.846 346.814 355.446 357.409 356.581 357.461 359.019 358.024 355.866 352.044 355.314 357.184 358.344 359.454 351.786 352.604 354.286 357.621 357.039 356.901 356.336 354.459 357.121 354.736 353.414 355.131 358.606 358.566 353.799 356.656 357.894 358.976 357.171 356.289 357.971 358.589 358.729 357.029 349.854 344.174 350.796 356.234 360.086 354.736 359.979 354.396 355.069 354.194 352.011 350.721 346.821 352.886 356.944 353.766 356.194 351.459 351.021 353.966 356.629 358.979 356.691 357.646 358.244 357.946 359.386 356.016 356.144 356.576 356.441 357.124 353.314 352.394 358.419 359.304 358.656 356.946 356.736 356.716 358.216 357.516 353.361 358.521 354.639 359.339 358.944 349.711 357.281 355.791 357.064 358.474 352.979 359.124 358.976 357.846 354.894 357.714 359.571 354.366 352.846 349.671 347.549 347.601 347.556 350.966 356.734 359.774 359.871 359.911 358.396 358.414 358.806 358.321 358.071 358.146 357.671 356.309 357.166 355.556 354.594 354.669 357.404 356.411 355.291 356.359 355.351 356.229 350.686 348.621 354.046 354.419 355.121 353.501 348.586 353.374 354.146 357.226 355.691 356.194 354.156 354.074 355.394 351.566 354.736 351.254 345.866 348.341 348.984 349.179 349.504 349.651 347.676 346.984 345.819 349.931 351.766 346.971 344.529 347.609 348.031 348.946 352.526 353.249 349.739 349.089 351.569 354.956 356.439 358.551 356.966 353.814 345.041 342.889 342.811 342.711 342.849 342.949 343.591 344.019 344.149 344.469 344.499 344.629 344.829 346.141 350.676 352.674 351.026 346.854 345.504 346.369 347.256 347.294 346.429 346.369 346.496 346.519 346.519 346.574 346.541 346.486 346.569 346.524 346.654 346.661 346.699 346.711 346.761 346.781 346.834 348.051 346.861 346.909 347.049 347.336 347.504 347.744 347.696 347.871 348.136 348.339 348.531 349.299 348.874 348.481 348.809 349.119 349.289 349.716 351.404 349.961 351.811 355.164 359.626 364.039 362.999 361.664 362.086 360.514 362.141 363.139 361.371 361.339 363.486 363.104 362.134 365.416 365.119 359.816 364.171 363.926 365.429 363.174 365.129 366.846 366.706 366.716 365.999 366.684 368.156 366.016 368.529 368.874 368.269 363.869 366.309 369.014 368.511 369.104 365.854
360.966 361.081 361.121 361.251 361.264 361.074 360.854 360.879 360.951 360.849 360.736 360.504 360.334 360.276 360.171 359.966 359.771 359.876 359.839 359.634 361.481 359.481 362.674 358.854 358.579 358.341 358.229 361.094 361.154 362.249 357.531 357.346 357.214 359.039 356.949 356.686 356.444 356.316 355.819 355.994 356.151 355.621 357.001 363.426 355.739 355.166 356.524 357.189 354.991 355.451 355.764 355.059 355.689 357.189 355.679 361.484 360.896 359.456 358.479 353.971 357.634 356.366 361.166 356.171 352.611 353.791 354.856 353.556 351.579 355.636 358.379 352.339 350.859 350.099 349.186 348.461 348.034 354.086 349.834 347.081 346.789 348.339 347.084 355.316 350.724 346.511 350.236 345.964 345.129 345.069 344.884 345.079 344.764 344.601 344.671 344.791 344.981 345.066 345.046 345.136 345.196 345.169 345.099 344.939 345.031 345.241 345.741 346.071 350.126 349.439 348.841 356.904 360.869 360.031 358.556 359.766 360.524 358.234 356.976 355.201 357.241 356.139 357.289 352.336 355.631 353.166 357.339 358.161 356.816 357.386 357.474 360.849 359.131 351.556 349.884 352.124 351.829 352.679 354.326 354.436 353.554 354.069 354.789 357.151 357.926 358.481 356.001 351.551 348.314 353.504 358.151 357.879 357.364 360.174 359.196 355.709 353.641 349.954 351.926 347.766 352.161 355.621 355.189 356.726 353.491 354.124 359.204 358.439 354.564 359.271 358.996 358.356 359.106 357.929 355.439 357.571 355.189 356.841 357.121 357.691 349.359 357.704 356.949 359.004 358.814 357.716 358.939 357.879 356.054 356.664 358.229 352.856 359.749 359.214 354.231 355.534 355.764 356.274 359.504 357.434 357.656 360.069 358.616 357.756 359.891 358.474 357.901 355.974 354.584 350.364 347.949 347.749 351.204 355.931 358.329 358.391 358.359 358.106 357.699 359.736 360.271 357.926 358.469 356.466 356.621 357.286 355.754 356.914 356.236 356.596 355.766 357.526 357.621 355.109 352.511 351.476 350.171 353.074 352.336 353.849 352.401 349.021 352.071 351.831 354.759 356.124 354.214 355.771 352.446 349.881 350.929 353.866 350.484 347.634 351.724 352.174 350.906 348.794 350.691 345.331 345.809 344.301 347.139 350.779 350.834 349.464 347.131 347.039 350.799 353.704 352.091 351.546 352.999 350.419 352.736 356.664 355.739 352.116 350.371 344.779 343.364 343.166 343.071 343.071 343.226 343.614 343.981 344.259 344.599 344.616 344.721 344.941 349.691 354.994 356.789 355.596 350.299 345.981 346.014 346.004 346.049 346.139 346.259 346.336 346.486 346.696 346.826 346.876 346.981 346.861 346.696 347.664 347.511 346.926 346.929 347.614 346.951 347.026 352.646 347.171 347.071 347.239 347.439 347.761 347.871 348.014 347.989 348.129 348.539 348.961 348.829 348.931 348.819 348.899 349.166 349.439 350.839 354.464 350.691 356.669 361.056 362.544 363.901 364.136 362.821 361.811 365.059 364.179 365.866 364.024 361.614 363.414 363.324 363.106 364.786 364.266 364.801 365.126 364.084 366.331 366.719 367.099 365.646 367.119 367.826 365.036 364.844 368.276 360.994 367.044 368.624 368.766 368.991 366.901 368.786 366.316 368.441 368.274
361.311 361.409 361.409 361.311 361.256 361.231 361.276 361.346 361.249 361.076 361.029 360.824 360.756 360.609 360.476 360.426 361.729 361.299 361.169 362.339 361.649 359.454 359.579 359.171 358.951 358.821 358.624 359.874 360.484 358.654 358.061 357.949 357.836 358.474 357.276 357.081 356.871 356.566 356.316 356.504 356.444 356.296 356.641 360.969 359.324 356.556 357.416 360.054 355.551 356.424 356.549 356.039 356.349 357.594 356.776 359.686 359.829 356.339 354.684 354.354 360.666 355.026 359.639 360.244 353.606 356.569 354.534 356.991 354.281 352.124 356.279 353.741 354.534 350.079 350.459 349.291 348.576 355.339 350.299 349.279 346.931 346.744 351.561 350.626 347.824 346.871 355.114 349.341 351.346 345.196 346.519 351.174 346.801 344.761 344.844 344.966 345.099 345.086 345.131 345.266 345.339 345.276 345.216 345.161 345.304 345.434 345.876 348.039 350.369 350.684 348.244 354.609 359.986 360.334 356.204 358.706 359.319 360.709 360.799 360.494 357.829 356.886 357.399 357.756 357.479 356.449 355.989 355.521 358.026 356.279 357.524 357.594 357.784 353.474 345.479 350.796 356.239 356.046 350.734 352.061 349.286 348.916 353.431 355.366 357.636 359.861 358.389 358.991 349.171 352.059 357.544 358.429 354.119 358.364 358.151 356.204 354.859 346.256 355.309 356.786 357.186 354.146 358.004 357.621 357.576 358.609 358.121 356.801 355.794 359.756 357.284 357.056 357.776 358.499 358.289 357.224 357.356 356.316 357.119 360.649 357.679 360.341 360.011 359.444 358.894 356.391 358.524 359.331 358.451 360.554 358.866 351.564 356.651 358.266 357.706 355.886 355.836 354.329 360.159 356.444 354.454 360.806 360.324 357.116 357.729 356.019 358.689 358.589 357.871 354.276 350.136 347.906 349.116 351.809 353.926 356.999 357.884 358.751 358.231 360.359 358.844 358.176 358.809 357.726 358.124 357.294 356.854 355.006 356.694 355.706 356.249 354.819 354.531 352.184 352.656 351.806 350.409 354.101 352.584 352.301 354.914 354.554 355.646 356.236 355.074 356.841 355.549 352.971 347.089 350.709 352.339 352.179 350.386 346.279 351.509 353.559 351.891 351.854 350.244 351.361 349.379 350.529 346.674 347.891 352.391 353.064 351.709 345.549 348.584 353.034 352.044 351.269 355.294 354.681 351.919 353.646 352.169 347.359 344.481 345.144 343.739 343.644 343.229 343.121 343.349 343.931 344.286 344.521 344.754 344.846 344.896 345.259 349.384 355.201 358.106 356.326 351.186 346.409 346.409 346.444 346.594 346.641 346.639 346.646 346.689 346.486 346.519 346.661 346.764 346.929 347.346 351.559 347.444 347.146 347.059 349.604 352.134 347.141 347.344 347.364 347.276 347.429 347.564 347.884 348.074 348.211 348.279 348.616 350.164 351.054 348.946 348.931 349.151 348.944 349.364 355.551 355.821 353.804 350.634 355.971 361.529 362.564 364.301 364.104 361.419 365.236 365.566 365.199 365.424 366.881 364.021 361.816 361.359 363.549 364.464 362.454 364.556 367.729 363.751 366.951 366.749 365.109 365.261 369.076 369.136 363.821 366.279 367.054 367.256 369.889 367.844 368.114 367.861 367.506 370.516 365.399 368.966 369.754
361.504 361.544 361.606 361.549 361.511 361.376 361.484 361.526 361.481 361.411 361.389 361.296 361.214 361.031 360.796 360.804 363.511 363.169 360.659 362.021 361.524 359.854 359.649 359.509 359.434 360.526 359.149 359.474 362.196 359.004 360.639 358.526 358.171 358.216 357.709 358.111 357.141 356.561 359.889 363.096 357.054 356.906 356.821 357.694 361.404 361.681 363.029 357.571 356.396 356.426 356.446 356.679 356.376 356.859 356.124 358.829 358.139 356.961 355.159 355.371 356.679 358.514 354.876 355.679 355.371 355.684 354.016 357.324 356.159 357.414 354.236 353.654 354.361 351.191 350.866 349.754 349.366 350.554 350.721 348.854 349.139 347.271 346.936 346.621 346.346 346.341 352.891 351.261 350.636 345.676 345.496 347.904 346.029 344.996 345.006 345.099 345.219 345.259 345.216 345.296 345.419 345.506 345.559 345.581 345.759 345.921 346.151 347.351 348.626 346.774 346.536 352.281 356.576 360.634 359.741 360.446 360.964 359.099 358.934 359.089 358.764 360.939 360.196 356.421 356.321 355.514 352.479 357.591 357.256 355.326 359.286 358.181 358.494 355.449 349.291 353.024 356.721 358.786 352.626 352.171 346.324 346.229 351.521 356.449 356.896 356.876 359.801 357.791 352.716 355.286 358.924 359.986 357.914 355.649 356.379 356.979 356.466 351.951 355.101 358.669 356.386 357.501 359.849 358.091 357.699 357.421 359.576 355.314 358.846 358.121 354.339 353.901 356.759 358.791 358.266 356.754 356.436 358.339 358.374 357.359 358.139 359.644 358.931 357.936 358.524 357.469 357.644 357.956 354.949 360.391 359.491 358.981 357.841 358.879 357.799 358.529 359.154 356.869 360.659 360.069 363.026 361.296 359.521 359.439 357.841 355.934 360.014 356.574 354.774 358.041 353.896 348.709 347.966 348.859 350.646 353.694 356.959 358.676 357.864 360.199 359.984 356.359 358.336 357.151 359.136 358.431 356.901 355.699 357.896 356.486 356.476 356.354 355.281 355.646 351.489 352.974 354.364 355.616 356.071 355.226 357.251 358.256 356.219 354.016 355.354 354.346 354.329 349.826 348.891 353.014 353.564 350.651 348.479 349.904 352.544 353.716 350.089 352.984 351.599 353.506 351.434 351.871 349.214 348.636 350.454 351.466 351.779 348.251 348.589 354.024 354.909 352.834 354.721 353.181 353.354 356.341 355.741 349.644 343.689 343.689 343.619 343.376 343.519 343.244 343.784 344.204 344.429 344.904 344.801 344.946 345.079 345.221 347.261 352.446 355.371 353.686 348.771 346.491 346.559 346.641 346.759 346.841 346.849 346.996 347.031 347.064 347.159 347.076 347.361 346.861 346.876 347.631 347.291 347.319 347.494 348.351 348.864 347.529 347.496 347.596 347.509 347.596 347.711 347.964 348.189 348.329 348.446 348.986 351.096 351.411 349.279 348.956 349.331 348.999 351.829 358.371 361.306 359.304 352.429 355.756 364.191 364.116 363.339 362.726 361.386 362.931 365.574 365.524 365.646 365.366 362.974 363.999 362.169 362.446 364.066 362.341 363.884 362.406 365.149 367.036 367.291 368.319 365.989 368.574 368.091 369.671 366.541 366.839 369.454 371.066 367.514 369.664 364.759 367.909 369.444 367.929 360.906 370.386
361.709 361.769 361.706 361.636 361.621 361.619 361.614 361.604 361.514 361.631 361.656 361.536 361.361 361.116 361.006 362.486 366.509 363.751 360.524 363.214 360.879 360.246 360.159 360.581 360.209 359.879 360.131 360.944 360.306 359.979 359.974 358.994 358.939 359.569 359.381 361.224 357.504 357.034 359.544 359.079 357.526 357.384 357.319 357.204 359.641 360.059 357.101 358.171 358.901 357.411 357.081 356.961 356.909 359.969 356.579 357.399 356.174 355.914 356.091 358.154 356.686 357.319 360.214 359.784 355.306 358.424 356.734 358.349 352.924 355.894 356.751 353.661 354.494 351.821 353.386 350.371 349.871 353.514 348.616 352.831 349.421 348.114 348.899 347.986 346.739 350.409 349.719 356.399 352.381 346.056 345.186 345.516 345.291 345.191 345.184 345.226 345.261 345.276 345.414 345.446 345.516 347.549 347.169 349.239 348.371 346.416 346.449 346.636 346.909 346.596 346.749 349.364 358.744 361.961 360.969 358.851 357.951 356.709 358.914 357.454 356.676 359.989 359.996 360.606 358.709 351.589 353.339 356.449 358.389 359.054 358.741 357.249 358.024 356.229 348.236 352.066 355.489 355.121 355.084 355.254 355.779 349.046 353.821 357.016 358.569 358.884 359.859 356.681 350.666 355.651 357.844 356.494 357.271 356.886 354.564 351.961 357.726 358.344 356.241 357.461 357.491 357.009 356.379 356.226 357.934 354.959 359.009 356.599 360.974 358.586 352.011 358.539 359.859 358.041 360.271 355.239 358.556 358.656 358.666 358.856 359.189 357.644 358.906 358.791 359.236 357.314 357.546 359.989 352.394 359.204 357.376 357.104 358.561 358.321 359.661 355.636 359.796 359.544 359.569 357.876 360.976 358.671 358.779 359.099 359.866 359.816 359.959 355.199 351.919 352.894 350.809 348.261 348.196 348.201 348.344 350.206 354.759 354.889 354.964 355.731 357.841 355.861 358.941 358.684 358.851 358.179 357.396 357.489 357.356 356.996 357.529 356.949 354.356 355.774 353.726 353.116 356.256 355.266 351.189 354.876 357.749 355.266 352.709 354.826 353.681 350.591 351.676 349.161 354.301 354.474 354.389 352.809 351.029 348.039 351.109 347.254 348.569 352.486 351.236 352.709 348.889 351.939 349.014 350.911 350.831 347.189 352.009 351.696 347.509 353.499 354.116 353.634 355.371 355.876 355.694 355.389 357.956 351.634 344.541 343.386 343.626 343.619 343.491 343.534 343.914 344.949 344.476 344.694 344.876 345.036 345.461 345.309 345.804 348.309 350.169 349.164 346.551 346.634 346.789 346.946 347.229 347.259 347.166 347.466 347.276 347.361 347.336 347.361 347.456 347.386 347.404 347.314 347.324 347.116 347.181 347.506 347.614 347.864 347.836 347.846 347.981 347.921 347.939 348.046 348.254 348.419 348.614 348.644 349.071 350.016 349.149 349.206 349.371 349.209 351.024 357.541 359.834 362.819 360.551 361.774 362.674 364.976 361.724 362.686 363.301 359.264 364.321 364.634 364.449 364.361 363.369 360.141 361.284 360.654 362.824 363.071 363.421 359.844 363.001 366.149 367.009 367.774 366.444 367.181 366.261 367.071 369.989 370.059 369.626 370.389 369.919 369.604 369.826 368.989 368.729 369.476 365.849 370.161
361.906 361.911 361.806 361.734 361.771 361.771 361.806 361.824 361.831 361.744 361.649 361.666 361.619 361.369 361.266 361.554 363.946 362.039 360.874 361.211 360.921 360.776 361.304 360.824 360.206 360.074 360.089 359.786 359.734 359.416 359.151 359.086 359.159 359.321 360.559 361.874 364.386 358.909 357.466 357.949 357.906 357.779 357.839 357.886 358.499 358.496 357.654 358.891 358.439 357.744 358.454 357.261 357.361 358.106 357.141 357.211 358.059 356.826 357.226 358.029 361.096 356.571 360.826 358.319 355.046 356.231 355.301 357.919 353.711 354.574 356.589 352.406 352.334 353.301 354.501 351.281 350.089 353.724 354.894 352.931 352.886 347.904 347.694 356.284 347.291 347.521 349.041 350.211 352.121 345.719 345.379 345.524 345.589 345.464 345.404 346.059 345.604 345.599 345.676 345.659 345.956 349.586 348.161 353.531 353.626 346.791 346.844 346.879 346.901 346.966 348.986 352.964 358.211 360.276 360.759 358.909 359.341 358.696 358.436 357.636 351.426 358.046 359.016 359.256 357.699 353.989 353.859 355.044 357.341 358.934 356.539 357.104 355.019 354.104 350.729 350.451 353.459 355.946 355.429 357.619 356.556 355.929 357.971 356.896 357.026 357.656 360.921 358.684 352.501 352.906 357.031 353.264 355.076 358.071 359.084 353.734 355.979 356.064 358.671 358.831 358.816 360.644 358.509 359.154 357.934 357.271 358.636 358.676 361.299 358.721 356.574 361.156 361.061 360.739 358.854 359.779 360.101 360.511 359.654 360.679 361.414 358.624 359.054 359.791 360.844 358.559 354.294 358.026 357.896 358.441 359.124 356.244 355.819 358.744 359.176 352.739 359.491 360.771 360.766 359.069 358.561 362.769 356.611 357.464 359.774 360.746 358.031 353.329 348.904 348.466 348.829 348.554 348.334 348.286 348.366 348.494 350.974 351.439 350.461 353.021 356.684 357.244 358.574 358.849 358.966 359.219 359.766 358.631 358.104 358.606 358.536 357.336 353.716 353.839 351.501 348.381 353.314 356.606 351.691 357.071 355.036 352.846 353.374 355.384 354.239 351.626 352.774 347.146 346.664 351.456 354.789 350.291 346.711 344.014 343.501 343.791 348.981 350.924 350.024 350.726 347.534 348.916 347.361 351.274 353.669 351.856 353.461 351.179 349.066 353.721 352.774 354.564 355.411 356.464 356.951 356.271 356.751 352.401 345.229 343.691 343.701 343.779 343.666 343.696 344.306 345.066 344.444 344.876 345.036 345.166 345.741 345.656 345.569 346.024 346.319 346.426 346.609 346.804 347.019 347.316 347.166 347.316 347.366 347.441 347.539 347.594 347.496 347.579 347.734 347.731 348.244 347.786 347.879 347.809 347.806 347.659 347.589 347.526 347.819 348.159 348.184 348.286 348.351 348.289 348.334 348.571 348.726 348.859 349.081 349.204 349.336 349.306 349.441 349.349 349.541 351.576 355.504 360.131 362.619 363.986 364.164 362.656 362.229 363.116 364.546 360.614 362.321 364.819 363.629 362.741 365.626 357.221 361.784 361.494 361.231 357.654 362.226 364.389 363.864 366.234 366.989 367.916 370.594 367.844 364.461 370.331 370.676 367.856 368.454 368.531 368.454 369.069 365.709 367.549 368.491 367.854 368.176 367.974
361.969 361.981 361.849 361.806 361.894 361.971 361.996 362.004 362.061 361.991 361.916 361.774 361.849 362.129 361.596 361.701 364.834 361.274 361.494 361.064 361.024 360.974 360.871 360.751 360.539 360.639 360.661 360.836 360.511 359.886 359.561 359.384 359.346 359.261 359.464 360.104 358.766 358.376 357.839 358.109 358.371 358.261 359.121 362.709 358.291 358.199 358.169 360.584 358.506 360.374 362.456 357.669 357.596 357.514 357.421 358.184 359.831 357.914 358.061 356.209 356.069 358.604 359.324 356.079 357.086 356.619 355.034 354.264 358.794 359.051 353.926 352.721 353.229 354.826 353.324 351.379 350.541 354.589 355.171 354.884 354.089 348.259 347.944 359.156 348.891 347.414 349.119 348.119 347.161 346.971 345.804 345.914 346.261 347.629 346.604 347.509 347.664 345.939 345.939 346.004 346.104 348.941 346.781 352.646 351.764 346.934 347.041 347.194 347.216 347.131 350.506 355.101 351.456 354.399 358.706 357.361 361.791 363.224 360.556 360.551 354.569 359.364 361.521 359.671 356.724 357.466 359.434 356.096 358.974 360.086 356.619 356.034 355.566 351.959 352.081 348.116 354.026 357.489 360.349 356.879 356.984 357.041 357.011 360.546 357.394 355.846 357.411 357.534 353.874 353.266 356.154 355.054 359.091 359.491 358.409 357.776 351.586 352.959 356.256 359.844 359.961 359.239 356.931 358.536 358.641 359.011 358.374 356.479 360.681 356.929 357.221 360.286 361.366 359.079 358.546 359.894 358.269 359.699 358.204 357.401 359.979 359.506 359.089 360.711 360.356 359.459 355.769 361.079 357.019 355.686 360.609 360.884 361.204 360.649 357.846 358.201 359.919 361.191 360.534 362.354 360.019 355.924 361.864 359.336 359.449 360.521 360.284 353.401 348.614 348.931 349.029 348.579 348.479 348.404 348.379 348.336 348.389 348.476 348.431 348.806 353.581 357.349 358.496 360.179 358.076 358.309 357.811 356.814 357.279 357.859 357.739 356.926 356.556 354.971 357.364 352.556 351.524 357.654 357.494 356.996 352.414 348.344 352.339 352.336 352.816 348.876 344.714 342.934 343.341 349.679 350.564 348.311 343.531 341.954 343.926 344.919 346.811 347.906 348.081 348.084 346.691 352.081 351.504 351.739 351.396 351.384 353.509 348.961 348.956 352.984 357.084 358.224 353.176 353.986 355.434 357.166 356.356 349.601 344.021 343.754 343.574 343.904 343.859 344.314 344.239 344.659 344.756 345.724 345.251 345.549 348.559 347.949 345.644 346.044 346.466 346.671 346.864 347.069 347.129 347.219 347.304 347.441 347.466 347.506 347.624 347.641 347.696 347.909 349.156 348.059 347.879 347.956 348.041 348.114 348.029 348.011 348.089 348.079 347.916 347.956 348.161 348.496 348.786 348.594 348.446 348.594 348.821 349.104 349.254 349.289 349.574 349.644 349.579 349.481 349.534 349.946 350.879 354.381 358.746 360.836 363.199 363.716 361.591 363.289 364.634 364.899 362.444 364.464 364.654 362.154 365.691 361.156 361.999 363.691 362.764 362.491 362.426 363.066 366.111 367.139 366.391 367.361 369.234 368.376 366.774 368.114 366.901 367.334 367.561 368.646 369.496 368.786 366.654 365.136 368.419 368.256 367.726 368.729
363.301 362.046 362.026 361.996 362.074 362.129 362.219 362.636 363.519 362.466 362.111 361.989 362.334 362.974 361.806 361.724 361.659 361.524 361.479 361.326 361.329 361.339 361.551 361.626 361.061 361.176 361.416 360.964 360.431 360.136 360.286 359.911 359.751 359.574 359.479 359.394 359.226 358.851 360.364 360.184 359.766 358.809 359.489 363.241 359.221 358.786 358.981 358.761 358.559 359.381 359.064 358.201 358.051 357.976 357.836 357.491 357.384 357.291 356.919 356.666 358.206 357.109 358.591 356.281 358.651 361.986 358.386 356.974 359.039 363.959 357.724 353.986 352.829 354.164 352.146 351.779 351.096 351.176 354.499 354.481 357.921 349.406 348.524 351.169 348.074 352.606 350.294 349.211 350.331 351.869 346.159 346.204 346.686 354.706 347.844 349.694 349.811 346.461 346.341 353.579 348.096 346.311 346.866 348.614 347.691 346.991 347.096 347.769 347.386 347.366 347.354 348.336 350.484 353.821 358.716 360.516 363.179 362.514 361.574 363.161 355.701 360.279 360.479 358.614 356.361 355.576 359.114 355.434 356.519 357.814 356.419 354.396 348.579 353.831 355.449 352.919 354.964 358.839 359.734 355.764 357.981 357.586 358.264 359.829 358.459 356.979 359.069 358.449 351.066 349.026 352.579 349.724 356.469 356.876 357.296 356.211 355.471 356.216 352.659 352.154 353.366 357.516 358.374 356.816 362.131 361.816 361.574 361.904 360.539 356.149 352.989 356.369 359.789 359.091 361.504 360.394 358.194 360.764 359.789 355.951 361.141 361.196 354.494 357.546 358.031 357.854 355.759 359.214 357.349 355.091 361.954 361.319 362.279 360.661 357.241 356.846 360.071 363.016 358.746 362.221 363.109 359.876 360.454 361.551 358.754 360.161 360.164 352.401 348.921 348.824 348.674 348.651 348.641 348.631 348.516 348.464 348.466 348.441 348.659 348.389 350.401 357.416 360.781 359.456 359.061 359.041 357.296 359.094 356.401 358.916 357.986 357.239 356.971 354.226 356.179 360.466 356.071 355.799 354.974 357.151 351.889 352.674 351.954 349.359 351.921 351.541 345.496 342.461 341.376 350.316 351.441 347.189 342.614 342.211 349.911 349.814 351.791 351.011 346.104 345.736 345.546 352.319 351.486 351.609 352.694 350.399 351.811 349.024 352.171 350.519 354.231 355.851 356.069 355.709 355.524 356.731 355.821 350.319 344.756 343.876 343.579 343.969 344.166 344.616 344.599 344.509 344.889 345.276 345.336 345.536 345.814 346.506 345.639 346.129 346.581 346.871 347.031 347.236 347.326 347.451 347.539 347.664 347.739 347.821 347.811 347.921 347.966 348.204 349.031 348.109 348.071 348.156 348.634 348.266 348.311 348.629 348.474 348.349 348.371 348.309 348.289 348.256 348.546 348.726 348.869 348.864 348.924 349.144 349.401 349.614 349.639 349.724 349.809 349.689 349.759 350.006 350.321 352.756 360.519 363.584 362.436 361.256 362.529 362.671 364.744 365.446 359.314 363.934 362.796 365.001 365.686 363.434 362.546 367.734 364.994 361.239 361.621 362.621 365.159 368.129 367.469 367.954 367.924 366.796 368.564 369.146 367.281 367.179 366.781 369.446 370.931 369.951 370.064 371.549 370.661 368.034 366.394 368.394
362.546 362.151 362.246 362.269 362.229 362.241 362.344 363.569 365.571 362.929 362.399 362.371 362.361 362.346 362.596 363.161 362.384 361.951 361.864 362.026 361.816 361.571 361.656 361.281 361.204 361.169 361.049 361.059 360.794 360.964 360.759 360.786 360.806 360.109 359.984 359.841 359.701 359.336 362.606 365.731 360.966 359.321 359.214 359.591 359.306 359.184 359.404 359.154 359.246 358.844 358.729 358.689 362.501 358.684 358.416 358.179 357.829 358.306 357.821 357.119 357.434 359.319 357.154 357.719 361.799 356.971 359.154 357.709 361.646 360.544 357.591 363.056 353.194 352.699 354.346 352.611 351.686 352.204 358.146 354.326 353.229 352.819 353.671 348.386 348.196 348.839 349.156 347.409 352.734 346.889 347.536 348.174 347.236 349.929 348.149 347.009 346.964 346.691 347.836 357.511 349.046 346.539 346.811 347.044 347.146 347.104 347.074 347.361 347.466 347.441 348.994 347.471 350.836 350.564 357.684 359.444 360.969 360.984 360.866 359.619 359.804 361.706 359.726 359.891 359.359 350.546 359.076 357.989 353.699 355.414 353.994 348.014 346.364 353.109 358.101 356.781 358.956 360.711 360.616 361.069 359.614 358.171 357.446 358.729 359.286 362.354 359.996 360.109 350.559 348.761 354.361 355.284 358.549 360.034 358.519 357.396 354.486 353.756 349.356 348.941 347.609 356.311 356.756 357.299 360.789 362.976 360.786 360.109 362.351 361.029 359.384 355.416 360.471 359.949 362.914 360.536 360.216 361.709 360.776 357.614 362.196 362.436 359.969 359.379 357.571 358.179 362.109 358.976 359.031 363.266 362.774 360.854 361.329 360.699 359.046 360.334 360.916 364.506 361.831 361.524 360.921 360.419 358.911 360.106 360.394 359.709 356.616 349.204 348.966 348.736 348.744 348.746 348.751 348.654 348.636 348.654 348.626 348.569 348.714 348.841 351.681 356.561 358.984 359.711 359.536 358.209 356.494 359.074 359.396 359.716 358.584 359.169 360.341 358.764 358.784 360.139 357.041 356.979 357.414 353.236 352.744 356.179 346.511 353.736 349.536 354.799 349.809 341.594 346.199 352.021 355.634 349.146 345.804 344.909 351.551 354.376 354.996 352.516 350.651 347.891 345.276 349.154 348.766 348.276 349.956 348.211 352.736 352.424 356.241 350.501 356.399 354.884 353.869 357.711 355.551 356.991 357.976 352.529 345.369 344.081 343.664 344.001 344.104 344.481 344.719 344.831 345.134 345.424 345.511 345.586 345.689 345.671 345.799 346.336 346.796 347.054 347.211 347.484 347.609 347.706 347.801 347.886 348.024 347.954 348.026 348.221 348.334 348.309 349.376 348.299 348.291 348.299 349.154 348.444 348.331 348.376 348.491 348.456 348.394 348.491 348.566 348.676 348.754 348.546 348.809 349.209 349.296 349.346 349.541 349.729 349.839 350.539 350.101 349.906 349.961 350.191 352.879 358.469 361.314 361.466 360.889 361.191 364.336 365.146 363.379 365.961 364.669 366.064 368.081 366.866 366.851 362.721 362.914 360.774 362.664 362.624 360.189 364.694 361.826 368.484 366.111 368.901 367.964 365.631 368.209 368.914 370.754 365.801 370.539 371.069 370.664 369.196 367.864 369.839 369.799 368.861 369.924 369.404
362.346 362.309 362.374 362.441 362.404 362.369 362.469 362.521 362.589 362.581 362.544 362.416 362.499 362.836 363.241 363.061 362.384 362.521 363.439 363.441 361.889 361.856 361.824 361.644 361.424 361.366 361.304 361.204 361.136 361.166 361.026 361.119 360.786 360.624 360.424 360.864 365.199 359.874 361.981 361.981 359.946 359.711 359.656 359.664 359.586 359.556 359.441 360.061 360.796 362.789 359.121 359.186 363.754 359.946 358.949 358.509 358.239 358.044 357.944 357.679 364.901 361.949 363.119 362.196 363.469 358.784 362.106 363.126 359.374 361.511 357.951 363.696 357.324 353.819 355.236 352.776 352.801 353.016 352.934 350.941 350.174 352.234 351.171 348.909 349.539 352.216 352.334 348.769 348.179 349.434 350.189 355.076 347.096 347.386 347.311 346.884 346.914 346.929 346.849 348.991 347.844 346.626 346.749 346.921 347.066 347.199 347.216 347.334 347.439 347.504 352.611 349.819 353.456 354.161 359.651 360.239 359.694 361.626 360.789 357.626 359.291 362.486 359.991 358.994 359.436 359.986 360.921 354.686 354.051 353.279 354.001 350.636 346.106 353.816 357.789 357.916 358.136 359.169 360.541 362.479 360.229 359.769 358.419 360.364 360.429 360.854 359.801 359.784 350.416 354.586 358.239 361.634 361.396 360.349 361.929 360.004 358.311 357.314 356.054 355.279 349.904 358.526 356.024 356.106 358.309 360.061 360.259 357.106 357.309 358.304 359.896 361.826 358.029 357.406 362.826 358.416 357.859 363.439 361.396 359.406 361.926 361.396 361.009 361.796 358.481 358.079 360.939 360.764 359.919 363.734 361.471 362.051 361.946 361.011 361.511 362.471 361.071 362.241 362.759 362.901 359.326 361.401 360.679 360.239 358.559 360.486 353.299 349.181 348.984 348.854 348.869 348.889 348.856 348.771 348.769 348.781 348.761 348.679 348.604 349.126 350.611 354.469 357.454 359.019 358.071 357.384 358.916 358.511 359.874 359.749 359.004 358.764 357.931 358.311 359.456 360.539 357.834 353.206 352.919 351.754 352.986 353.041 351.879 356.651 356.334 350.209 350.194 352.646 345.279 354.224 357.149 356.294 351.751 352.586 351.419 352.734 354.596 349.154 348.334 353.526 349.854 345.924 346.146 346.464 349.216 350.619 352.746 352.261 356.634 354.836 357.211 356.926 358.234 357.366 356.696 358.116 358.281 351.171 344.146 344.156 343.779 344.106 344.166 344.369 344.744 344.871 345.209 345.434 345.624 345.711 345.761 345.804 346.046 346.546 346.904 347.231 347.434 347.664 347.736 347.891 347.999 348.084 348.099 348.154 348.231 348.329 348.944 348.431 348.524 348.521 348.516 348.604 348.571 348.521 348.796 348.499 348.531 348.586 348.631 348.656 348.709 348.726 349.059 349.076 348.884 348.854 349.306 349.714 349.749 349.896 350.031 350.221 350.146 350.131 350.169 350.756 356.874 362.571 362.426 363.209 363.316 364.831 364.099 363.664 363.459 364.566 363.834 367.056 366.646 365.236 367.099 367.444 362.926 356.416 362.394 368.481 362.829 359.084 366.671 367.066 365.211 366.579 366.024 367.264 367.516 364.001 368.999 367.929 369.776 369.999 370.206 369.386 370.619 368.729 367.871 369.929 370.089 371.116
362.466 362.411 362.436 362.569 362.566 362.559 362.631 362.644 362.641 362.659 362.631 362.801 362.689 362.771 363.324 362.396 362.311 362.356 363.656 362.604 362.376 362.431 362.309 361.846 361.699 361.759 361.729 361.629 361.464 361.341 361.276 361.259 361.464 361.486 360.809 361.209 365.184 360.349 360.204 362.076 360.966 362.049 360.121 360.134 360.041 359.896 360.736 362.719 360.066 361.171 360.314 360.329 361.781 359.456 359.186 358.996 358.804 358.576 358.596 359.336 366.031 359.526 359.411 365.419 362.454 358.006 361.856 367.096 358.971 359.774 356.644 362.774 359.291 356.684 353.876 356.734 352.914 352.041 351.739 351.124 350.636 352.834 352.191 352.281 348.936 349.639 350.839 354.741 348.449 347.751 352.681 355.576 349.306 347.099 347.116 347.459 348.284 347.086 346.939 348.196 346.774 346.689 346.769 346.939 348.159 347.259 347.296 347.356 347.409 347.449 350.226 349.706 348.739 354.766 358.921 360.091 360.831 362.249 362.126 359.391 356.544 361.406 359.289 359.449 359.591 360.384 358.351 356.219 353.541 350.484 353.609 355.249 348.109 353.896 357.839 359.519 358.709 357.469 360.441 358.901 360.554 358.214 356.121 358.421 359.064 359.771 360.601 358.471 349.281 357.944 360.586 359.564 360.486 359.484 360.734 358.956 357.139 359.604 358.949 359.009 356.114 360.809 361.144 357.991 358.679 360.434 360.504 354.149 349.416 353.774 357.711 360.031 356.106 359.159 360.711 358.191 358.181 360.424 361.344 361.154 360.726 355.884 359.851 360.831 355.036 358.981 360.649 360.936 358.934 362.116 359.339 361.074 363.434 360.929 360.111 361.316 360.544 360.479 360.979 361.661 360.521 363.089 360.091 361.309 361.759 360.336 352.764 349.986 349.051 348.964 348.944 349.004 348.991 348.934 348.911 348.926 348.914 348.806 348.774 348.981 350.601 354.121 357.354 357.859 356.194 358.036 359.121 360.596 359.291 358.976 359.151 358.204 359.174 356.451 359.011 359.229 353.279 353.456 350.096 356.876 357.024 347.824 349.644 354.544 356.644 355.326 351.456 346.084 347.441 355.921 355.509 355.794 353.311 355.019 355.264 352.431 351.294 354.531 354.111 350.416 351.301 351.386 350.356 347.966 350.889 353.971 354.239 351.756 355.899 355.401 358.776 359.524 358.601 354.259 358.001 359.034 357.519 349.229 344.371 344.286 343.944 344.166 344.336 344.364 344.654 345.504 346.981 345.974 345.709 345.809 346.011 345.919 346.194 346.689 347.126 347.499 347.644 347.841 347.946 348.016 348.166 348.251 348.296 348.419 348.419 348.499 348.549 348.706 348.746 348.709 348.771 348.769 348.694 348.749 348.711 348.669 348.694 348.786 348.774 348.804 348.859 348.924 349.296 349.246 349.261 349.296 349.249 349.491 349.851 350.109 350.259 350.239 350.266 350.346 350.431 350.609 356.251 361.219 361.034 361.379 363.376 365.071 363.959 363.386 362.489 365.894 363.171 366.796 365.296 364.846 362.026 364.646 364.231 360.351 360.941 368.644 362.984 362.016 367.169 366.241 362.939 366.696 367.671 368.724 368.959 369.371 369.436 369.266 370.214 369.549 371.049 368.241 368.764 368.419 368.914 370.321 368.176 370.746
362.571 362.551 362.566 362.551 362.716 362.746 362.739 362.849 362.781 362.789 362.796 363.571 364.321 362.716 364.141 362.609 363.171 362.516 362.534 363.264 362.469 362.381 362.431 362.281 362.211 362.126 361.931 361.926 361.834 361.756 361.651 361.489 362.641 363.089 361.186 361.709 363.354 361.534 362.776 364.781 369.074 363.261 360.546 360.559 360.534 361.769 360.514 360.781 360.439 360.614 360.466 360.094 360.104 359.824 361.241 359.759 359.381 359.259 360.559 364.381 359.699 359.001 359.876 363.416 359.094 360.004 361.131 362.106 357.011 356.566 360.316 357.479 361.349 355.644 354.871 359.676 353.594 352.631 352.146 351.744 353.159 350.721 350.424 353.706 352.684 351.819 349.676 350.346 352.009 353.871 352.491 354.521 352.814 348.294 347.364 347.529 351.974 347.791 349.894 347.119 346.969 346.884 346.929 347.114 347.631 347.239 347.204 347.184 347.221 347.464 347.534 347.609 348.211 353.176 356.211 359.551 358.251 360.564 360.949 358.044 357.591 359.099 361.494 361.974 360.759 361.636 356.336 352.731 349.969 348.661 350.499 356.579 356.566 355.576 356.501 357.906 357.651 357.019 359.529 359.034 357.276 357.074 357.319 360.126 360.001 359.046 359.286 357.789 350.641 358.826 361.231 360.339 359.426 358.931 359.736 360.099 359.016 358.156 358.506 359.964 355.344 356.751 360.821 361.404 361.569 359.181 359.861 359.289 358.564 361.726 361.271 359.194 359.641 361.306 356.541 358.301 357.204 356.119 358.051 362.806 357.694 356.541 359.999 361.321 357.619 359.401 360.169 359.534 356.169 359.041 359.066 360.286 360.619 359.246 362.324 363.889 361.374 361.474 362.234 360.646 357.944 360.481 360.294 361.969 361.301 362.016 356.721 351.674 349.236 349.076 349.104 349.144 349.114 349.046 349.059 349.049 348.994 348.891 348.956 349.181 353.376 357.506 360.969 361.286 359.861 360.401 360.411 358.696 360.044 359.396 357.964 359.101 358.231 356.796 357.971 355.359 352.726 354.694 356.151 359.936 356.894 351.264 349.341 358.299 356.391 352.839 354.581 346.104 350.494 357.644 356.314 356.431 353.711 357.336 353.891 355.484 353.304 350.419 354.006 354.236 354.534 352.181 355.834 350.976 353.324 356.119 354.441 355.099 358.394 353.379 357.089 358.239 356.744 352.136 356.076 356.296 355.474 348.224 344.929 344.416 344.231 344.024 344.214 344.519 345.706 349.164 352.674 348.504 345.846 345.936 346.011 346.096 346.479 347.206 347.444 347.701 347.829 348.004 348.809 348.251 348.326 348.481 348.534 348.579 348.626 348.679 348.839 348.799 348.919 348.914 348.924 349.041 348.996 348.951 348.914 348.819 348.956 348.941 348.964 349.046 349.119 349.164 349.354 349.479 349.419 349.481 349.719 349.699 349.569 350.626 350.299 350.331 350.421 350.346 350.696 350.799 353.396 357.474 361.709 362.926 363.911 364.699 365.181 366.151 366.179 365.791 363.594 365.854 368.811 366.236 363.576 365.444 365.416 369.711 368.074 368.321 363.511 359.676 357.411 359.214 364.204 367.676 369.106 368.821 368.014 369.489 371.921 364.661 369.431 370.329 369.666 371.266 371.074 370.706 369.186 370.506 370.179 369.909
362.569 362.556 362.676 362.674 362.779 362.839 362.911 362.926 362.956 362.941 362.971 363.066 363.199 362.981 362.851 362.856 363.789 362.754 363.681 366.579 362.789 362.426 363.139 363.241 363.096 362.901 362.316 362.181 362.106 362.111 362.074 362.431 361.879 361.711 361.721 362.564 364.209 365.091 365.609 361.966 362.684 361.429 361.111 361.394 362.934 361.229 360.906 361.011 360.789 360.804 360.749 360.581 360.586 361.056 362.939 362.359 360.024 360.839 360.306 359.874 359.454 359.316 362.984 363.904 366.986 359.229 358.961 358.264 357.641 359.431 360.914 359.161 359.946 358.409 358.071 358.636 354.389 353.349 352.826 353.159 358.776 356.284 351.304 353.019 351.159 356.964 350.416 352.676 349.779 348.659 349.001 350.994 355.051 348.314 349.001 349.566 349.774 347.711 347.334 347.601 347.146 347.374 347.081 347.724 347.044 347.436 347.114 346.919 346.884 347.291 347.799 349.824 350.629 356.089 361.491 362.169 359.284 358.516 356.121 357.869 356.426 361.529 359.076 357.929 358.411 359.264 356.189 356.751 348.711 345.504 348.961 359.496 360.334 357.286 358.506 358.306 359.454 354.304 356.364 359.541 357.884 358.374 356.936 360.344 362.281 360.699 357.314 356.841 354.804 358.564 359.076 359.924 357.871 359.626 359.639 359.341 359.416 360.789 358.149 359.919 353.424 354.511 362.079 360.854 360.736 359.644 359.159 360.829 364.199 362.659 361.721 360.466 361.734 362.366 361.494 362.619 361.306 355.606 353.614 360.519 356.529 351.231 358.469 359.964 356.479 354.301 360.174 358.484 356.076 362.134 361.786 360.821 360.166 356.329 360.849 362.019 359.929 361.421 359.359 361.891 362.429 361.464 358.839 361.044 361.481 362.544 360.196 351.526 349.524 349.169 349.189 349.204 349.161 349.141 349.131 349.114 349.059 349.036 349.059 349.299 353.044 357.019 358.294 360.739 361.959 361.981 360.934 360.471 359.419 360.586 362.251 361.219 357.354 356.369 353.931 351.096 351.739 353.569 356.484 359.364 352.819 353.374 358.109 356.784 358.764 350.146 353.329 351.229 353.099 357.054 355.779 356.296 359.894 357.181 354.874 351.534 354.239 354.769 352.509 347.439 355.056 354.696 356.166 348.411 352.429 355.784 355.021 358.266 358.241 356.929 357.551 358.956 358.326 355.724 357.106 356.331 356.119 355.174 349.564 345.886 344.631 345.221 344.219 344.209 346.049 351.351 354.049 348.564 345.824 346.009 346.181 346.869 346.576 347.534 347.844 347.841 348.111 348.351 348.469 348.426 348.506 348.716 348.929 348.796 348.841 348.879 348.924 348.979 349.031 349.134 349.141 349.219 349.254 349.244 349.116 349.124 348.996 349.129 349.164 349.296 349.409 349.396 349.484 349.631 349.719 349.779 349.926 350.089 350.106 350.306 349.974 350.384 350.611 350.659 350.711 350.874 351.111 355.459 360.806 362.904 362.521 362.471 365.461 365.916 366.526 364.376 365.964 362.756 366.436 366.226 367.506 367.484 365.181 365.646 360.261 365.006 364.006 362.019 362.466 363.454 366.044 369.319 367.399 368.186 369.839 370.924 371.281 370.831 369.151 365.164 369.489 370.191 371.126 370.854 369.116 368.049 368.289 369.939
362.529 362.691 362.701 362.766 362.761 362.894 362.986 363.066 363.134 363.269 363.156 363.109 363.541 363.221 363.021 363.009 363.379 363.534 363.484 364.306 363.349 362.874 363.024 364.314 362.851 363.921 362.634 362.496 362.611 362.404 362.279 362.276 362.229 362.069 362.241 362.561 362.704 363.651 363.746 361.689 361.579 361.511 361.494 362.016 363.901 363.166 361.431 361.419 361.294 361.169 361.104 361.164 361.786 360.926 361.676 360.869 360.794 360.524 361.714 360.146 360.184 360.281 363.206 363.479 366.904 362.526 358.549 358.314 362.006 359.916 360.091 359.151 357.481 356.206 356.721 362.481 354.629 361.024 357.324 353.174 358.949 357.861 353.489 355.456 352.859 353.299 350.166 351.521 351.706 350.979 352.016 352.729 356.719 349.659 359.599 349.024 348.676 347.699 347.554 348.726 354.416 353.559 348.219 349.991 348.744 349.419 347.106 346.841 346.746 347.086 350.806 354.901 356.024 359.386 363.704 362.914 361.206 357.836 356.659 358.651 358.309 357.711 357.449 358.559 359.121 360.941 355.314 353.596 352.756 349.249 352.046 357.446 358.336 358.564 359.779 359.294 361.476 354.466 351.316 359.171 357.599 357.339 357.886 357.439 359.119 361.349 358.784 352.249 357.534 358.681 357.761 358.644 361.999 362.271 360.681 358.809 358.331 359.546 360.829 362.076 359.049 354.186 360.746 362.164 362.479 362.121 361.426 361.019 362.429 361.296 362.429 362.046 361.866 363.641 363.771 358.721 360.861 362.901 357.566 363.506 358.524 355.631 361.934 360.714 356.019 351.579 357.914 354.806 358.531 358.271 360.201 356.031 356.619 358.466 364.561 363.701 358.791 360.381 358.029 362.061 362.556 362.936 356.379 360.331 360.924 360.489 359.051 351.599 349.724 349.374 349.331 349.304 349.291 349.254 349.249 349.204 349.169 349.126 349.354 352.101 357.564 361.174 359.794 360.516 362.436 362.644 360.536 361.716 361.379 360.304 360.714 359.531 359.886 358.634 356.424 355.029 359.159 354.601 358.331 358.326 355.006 351.884 356.484 356.869 355.226 356.286 349.986 355.064 355.959 352.784 356.909 358.641 358.321 354.561 352.266 354.999 351.721 356.799 356.619 356.029 353.269 355.301 355.331 349.424 351.041 356.034 357.389 357.141 358.381 358.211 355.974 357.036 359.941 354.619 358.956 359.234 358.281 358.534 358.076 353.166 346.436 347.741 348.741 344.469 344.436 347.266 346.659 346.244 346.274 345.976 346.354 346.406 346.836 347.359 347.709 348.061 348.291 348.439 348.861 348.731 348.706 348.801 350.249 349.701 350.271 349.039 349.099 349.184 349.231 349.321 349.371 349.404 349.449 349.419 349.474 349.296 349.321 349.406 349.389 349.484 349.611 349.601 349.739 349.789 349.974 350.224 349.971 350.224 350.364 350.461 350.474 350.194 351.184 350.909 350.914 351.441 355.586 359.776 359.089 359.536 363.799 364.309 363.969 365.431 366.206 367.666 366.426 365.689 367.019 367.774 367.769 366.326 365.076 358.816 360.784 364.251 366.939 366.299 365.871 366.659 365.679 368.996 365.921 369.731 369.279 369.791 370.089 369.341 369.074 369.431 369.269 368.736 369.321 367.036 370.501 368.979 371.186 370.156
362.531 362.619 362.694 362.761 362.841 362.969 363.034 363.149 363.134 363.409 363.431 363.541 363.301 363.289 363.211 364.226 367.376 363.231 363.076 363.214 363.534 364.766 365.704 363.529 363.566 363.334 363.399 362.794 362.961 363.041 362.979 362.881 362.481 363.196 362.469 362.464 362.236 362.289 362.181 362.079 362.059 362.034 361.946 361.954 362.914 362.259 361.959 362.266 361.774 361.876 362.109 361.996 362.461 361.316 361.296 361.301 361.219 361.304 361.971 361.116 361.501 360.996 361.186 362.619 363.836 360.689 359.811 363.411 364.581 360.219 357.931 357.444 360.011 359.489 359.731 361.461 356.474 361.064 354.566 358.211 360.876 352.441 355.789 357.841 351.101 354.724 350.616 352.826 349.929 349.584 350.866 349.451 354.629 353.419 356.679 351.874 350.571 347.921 347.846 349.606 355.811 356.371 349.426 347.921 349.289 350.846 346.726 346.624 346.769 347.116 349.681 358.854 361.824 361.076 360.904 358.861 359.049 357.159 356.209 358.244 351.941 351.966 356.901 359.971 356.209 358.489 354.971 349.149 353.854 356.164 355.831 359.506 359.671 360.436 359.281 358.761 360.706 359.964 353.336 359.926 356.636 358.694 360.359 360.446 362.396 363.156 363.044 357.356 360.069 360.719 356.831 357.041 362.224 361.834 360.289 360.329 359.971 355.996 360.861 362.449 362.494 360.381 363.204 363.924 363.141 363.599 363.674 362.814 361.109 362.814 363.346 361.079 361.569 362.511 363.109 363.499 364.001 362.869 356.711 364.024 361.314 355.279 361.066 361.836 360.621 358.134 358.619 355.129 358.991 359.741 358.589 351.611 355.564 357.311 359.789 363.834 363.026 355.341 356.906 359.329 361.339 361.494 359.839 362.601 358.334 361.924 360.176 350.684 349.681 349.706 349.461 349.464 349.416 349.404 349.366 349.314 349.279 349.281 349.424 353.939 360.311 362.854 359.504 358.606 359.001 360.709 360.349 360.536 363.191 362.514 361.864 357.931 354.774 357.904 356.729 359.326 360.621 360.336 359.489 357.704 351.189 356.684 357.361 355.016 353.874 354.404 352.791 354.924 358.296 357.904 358.116 356.066 348.011 355.581 352.134 355.081 359.749 358.536 357.006 356.399 354.981 357.691 354.961 354.101 358.271 359.226 358.071 359.506 360.909 359.469 355.991 357.189 358.201 358.084 360.964 360.459 357.956 361.424 360.751 358.011 357.301 351.046 346.886 344.904 344.429 344.749 345.126 349.529 345.886 347.269 346.326 346.486 347.129 347.524 347.954 348.254 348.451 348.619 348.664 348.766 348.956 348.971 348.936 349.934 351.589 349.344 349.336 349.391 349.581 349.519 349.534 349.546 349.629 349.674 349.654 349.709 350.249 349.649 349.731 349.834 349.896 349.954 350.014 349.941 350.089 350.271 350.356 350.506 350.626 350.736 350.774 350.714 350.806 350.894 351.116 351.591 358.451 364.369 362.304 360.941 363.579 364.444 361.766 365.186 365.694 367.619 367.404 366.319 367.991 365.816 366.486 366.919 366.146 359.404 359.726 363.396 367.559 366.901 365.501 368.339 365.669 369.654 368.869 369.146 371.481 370.991 370.116 368.551 369.196 369.696 369.116 368.781 369.434 370.006 369.869 364.976 371.969 370.246
362.549 362.594 362.759 362.739 362.864 362.969 363.321 363.289 363.414 365.046 363.646 363.936 363.791 363.456 363.514 363.436 364.986 363.436 363.304 365.471 364.046 363.869 363.406 363.386 363.724 363.294 363.164 363.386 363.356 364.101 364.574 363.901 363.221 364.851 362.734 362.749 362.781 362.669 362.621 362.564 362.494 362.509 362.441 362.386 362.311 362.971 362.271 364.024 364.751 363.479 365.719 362.139 361.876 362.299 361.916 362.061 361.934 362.271 362.379 361.536 361.851 360.924 360.571 362.546 364.534 360.534 360.084 363.496 365.184 360.971 359.726 359.944 362.394 365.979 358.206 356.629 355.919 360.119 355.684 356.836 358.636 355.309 357.889 356.364 351.716 356.316 353.301 353.549 350.909 349.984 349.636 352.899 355.206 356.071 359.916 356.076 348.199 352.321 353.671 352.966 355.031 350.401 347.664 348.641 347.684 348.106 346.724 346.836 347.084 347.114 353.084 357.751 361.781 363.349 359.429 357.844 353.686 353.454 350.636 349.226 346.924 346.879 351.369 357.369 359.679 356.941 355.769 349.646 348.566 354.409 357.809 361.379 361.494 360.904 359.001 357.154 360.339 362.474 356.309 360.566 356.929 358.486 358.949 358.746 359.866 360.351 361.856 357.791 355.239 359.269 358.236 357.816 362.819 362.229 359.531 361.381 356.189 358.731 361.271 359.719 362.409 363.564 363.559 362.701 363.939 364.359 363.049 364.034 360.514 362.551 363.684 362.379 359.076 362.871 361.886 361.674 362.499 360.054 359.804 363.071 362.091 362.786 361.366 356.536 360.426 359.416 361.876 360.244 360.416 361.156 359.019 354.761 358.539 355.151 361.519 359.664 360.564 358.961 355.429 360.489 361.769 357.144 359.231 360.714 362.386 363.691 362.101 350.756 349.639 349.806 350.044 349.776 349.576 349.544 349.501 349.474 349.439 349.889 349.891 355.971 360.919 361.311 358.194 359.419 359.704 359.811 360.781 363.184 363.056 362.091 359.026 361.106 353.556 359.349 354.509 356.301 358.929 358.761 357.439 358.079 348.531 356.259 357.044 354.456 354.396 350.521 350.649 354.966 355.121 359.154 358.764 357.254 355.271 353.359 357.466 357.446 361.849 359.001 358.401 358.066 358.284 358.219 355.874 354.954 356.111 357.246 359.299 356.819 359.029 359.484 353.009 355.984 355.711 356.181 359.849 359.316 354.216 356.631 360.721 360.606 359.449 352.541 346.004 344.884 344.656 344.779 345.641 349.456 346.011 346.106 346.424 349.231 348.111 348.099 348.334 348.516 348.624 348.844 348.961 349.091 349.114 349.176 349.219 349.349 349.374 349.431 349.526 349.499 349.629 349.689 349.771 349.881 349.946 349.934 349.996 349.959 349.981 349.979 350.089 350.066 350.236 350.274 350.196 350.246 350.336 350.429 350.589 350.746 350.939 350.941 351.124 351.346 351.189 350.856 351.116 352.116 357.526 362.584 362.006 361.711 364.044 365.974 362.281 365.429 366.771 366.104 365.296 364.044 364.804 367.624 367.046 366.846 367.359 364.061 366.419 364.049 368.541 366.651 361.264 369.221 368.264 365.879 369.169 369.389 370.049 369.984 369.806 367.751 371.244 367.176 371.086 371.469 368.779 369.976 370.626 365.936 369.849 370.449
362.416 362.536 362.649 362.724 362.876 363.179 366.439 364.006 363.816 364.051 363.981 363.574 363.679 363.791 366.489 364.239 363.454 363.484 363.511 365.724 364.744 363.791 364.326 363.516 363.479 363.501 363.359 363.549 363.464 363.534 363.419 364.446 365.124 365.304 364.311 363.169 363.849 363.851 363.139 363.091 362.994 362.921 362.854 362.781 362.841 363.319 364.606 363.761 365.229 366.139 364.786 363.524 362.336 362.511 362.341 362.224 362.121 362.169 362.664 361.801 361.486 361.249 361.021 361.129 362.466 361.291 361.779 364.189 364.036 359.506 362.114 364.929 363.011 363.616 356.959 356.886 356.169 357.566 356.041 358.881 360.276 354.006 357.156 354.684 359.729 356.121 355.389 354.231 351.274 350.186 349.919 353.904 352.794 352.776 357.376 352.766 348.721 348.206 351.234 351.906 356.416 348.984 347.651 355.869 347.406 346.846 346.984 347.204 347.276 348.276 355.926 360.304 361.619 358.144 352.696 354.319 355.206 354.716 347.329 346.804 346.656 347.711 349.759 357.589 361.614 360.819 359.824 357.604 351.136 354.221 356.579 358.491 357.384 359.934 360.291 357.496 360.681 362.229 362.311 358.891 359.794 359.379 358.086 360.726 359.829 361.239 361.376 357.259 357.279 362.359 361.779 360.114 362.039 361.609 360.669 359.484 359.849 362.244 360.894 361.484 362.804 361.909 362.816 363.784 363.714 363.684 360.949 361.021 362.159 363.991 363.776 363.086 361.349 363.014 362.729 361.016 360.726 356.571 355.859 363.966 361.799 359.884 361.859 359.869 359.779 356.059 363.144 360.856 358.184 359.574 358.311 358.874 361.781 361.554 361.136 360.164 360.571 359.594 358.976 359.881 361.259 356.824 356.066 361.371 364.344 361.854 356.384 350.181 349.791 349.774 349.929 349.936 349.701 349.626 349.836 349.816 349.939 349.649 351.899 357.966 360.094 360.339 358.866 360.886 360.009 358.249 362.069 363.199 361.131 359.674 356.031 357.939 354.341 357.349 357.664 361.044 360.574 354.331 358.781 356.029 355.841 352.959 352.326 356.559 354.841 349.614 352.359 353.689 353.784 356.329 355.446 355.396 356.516 357.461 358.981 354.636 358.344 358.779 358.681 360.999 356.659 355.056 355.481 356.901 355.374 354.746 356.711 359.369 358.384 358.786 352.691 357.001 353.171 354.994 357.931 357.391 359.146 355.254 360.274 361.731 361.559 354.111 346.294 345.094 344.856 344.864 345.129 345.766 346.071 346.064 347.114 352.551 351.726 348.336 348.561 348.706 348.859 349.034 349.046 349.161 349.271 349.334 349.569 349.516 349.506 349.646 349.706 349.721 349.796 349.954 350.034 350.069 350.131 350.176 350.251 350.189 350.306 350.249 350.351 350.406 350.464 350.474 350.404 350.644 350.691 350.794 350.854 351.084 351.179 351.269 351.416 351.439 351.714 352.961 351.014 352.254 358.661 361.554 361.791 362.771 364.099 365.676 365.971 366.641 365.129 365.934 367.199 366.601 366.686 367.406 367.171 366.771 368.329 367.246 366.914 367.079 368.804 366.939 368.299 368.976 369.099 367.194 368.674 367.591 369.079 368.811 370.116 367.146 370.686 364.281 371.461 369.011 371.179 368.866 371.469 372.904 368.154 371.014
362.366 362.594 362.649 362.774 362.941 364.959 364.061 363.234 363.824 365.634 364.199 363.634 363.651 363.726 363.829 363.976 364.031 364.049 363.681 365.624 363.699 363.774 364.274 367.764 364.091 366.116 364.759 363.781 363.689 363.706 363.674 364.794 365.409 367.281 364.064 363.581 365.064 364.809 363.549 363.389 363.359 363.416 363.339 363.246 363.244 363.936 364.996 363.716 363.296 363.836 363.764 363.219 363.014 362.819 362.796 362.739 363.809 362.419 362.346 362.099 361.926 361.674 361.616 361.399 361.691 360.834 360.714 361.399 360.164 359.771 361.289 364.991 361.074 357.899 357.811 359.081 356.864 356.119 355.611 356.141 361.979 356.441 354.311 352.721 355.291 354.199 356.821 351.919 353.224 352.879 350.159 349.944 355.704 352.361 355.701 352.884 348.971 348.269 348.359 359.481 351.949 348.381 347.556 350.509 347.899 347.066 347.689 351.011 347.434 350.766 357.039 361.336 358.881 356.199 350.011 353.111 359.939 357.909 349.524 346.789 346.631 352.796 354.551 357.709 360.826 360.089 359.371 357.266 357.879 352.089 356.666 357.844 358.806 362.279 359.911 356.944 359.566 361.596 361.906 358.471 359.364 361.519 355.809 355.351 360.761 356.616 360.636 355.331 353.574 361.014 363.059 359.131 362.266 360.096 359.806 356.716 362.361 362.459 362.029 364.544 362.439 361.371 361.669 363.549 362.824 362.101 362.616 360.534 365.851 362.949 361.904 362.471 362.631 361.741 361.921 362.659 360.966 358.166 360.424 362.124 362.124 362.204 359.866 362.141 357.549 358.456 363.576 363.449 362.626 360.929 361.229 359.121 359.689 361.041 362.506 362.219 361.394 360.391 361.811 362.836 363.851 362.749 357.871 361.091 360.709 358.261 355.236 349.831 350.039 349.934 349.901 349.849 349.794 349.711 350.041 350.474 350.096 350.329 356.609 360.926 360.554 358.254 357.944 360.299 360.996 358.571 360.694 355.806 356.966 358.169 354.714 358.566 355.409 354.834 359.024 360.784 359.566 358.321 355.964 357.964 357.516 356.474 356.441 357.826 358.381 357.594 358.431 359.299 360.791 355.559 349.506 358.269 359.911 353.531 359.596 354.749 352.709 357.016 357.616 358.439 358.119 353.134 356.181 357.019 356.506 360.779 356.456 361.074 357.181 356.441 353.391 351.686 356.926 353.369 356.829 353.111 352.401 354.649 357.989 362.719 362.626 355.861 347.316 345.659 344.784 344.961 345.151 345.409 345.721 345.951 346.491 349.829 349.906 348.486 348.771 348.926 349.014 349.214 349.184 349.276 349.441 349.499 349.686 349.609 349.694 349.954 352.639 351.656 350.026 350.211 350.309 350.619 350.491 350.359 350.521 350.526 350.551 351.874 350.724 350.689 350.751 350.754 350.696 350.959 351.006 351.091 351.174 351.321 351.486 351.539 351.644 351.836 351.829 351.841 351.936 351.824 354.981 362.181 364.586 363.289 365.141 363.564 365.529 365.989 363.836 365.181 367.954 367.714 365.519 367.901 367.721 366.746 366.276 365.684 365.791 366.954 370.086 368.049 368.169 368.424 368.866 366.609 369.444 368.774 370.121 370.016 368.789 370.924 369.204 362.686 369.116 368.716 364.594 372.194 372.079 371.284 371.461 371.629
362.356 362.489 362.614 362.651 362.861 366.464 369.549 363.424 363.361 363.621 363.546 363.581 363.664 363.919 363.911 364.721 365.429 364.764 363.889 365.261 365.724 364.129 365.159 366.534 365.251 367.624 365.931 363.944 363.939 363.934 363.919 363.964 363.989 364.166 367.334 364.141 365.259 366.969 364.911 363.891 363.796 363.746 363.701 363.719 363.719 363.769 363.604 364.451 364.206 363.426 363.464 366.824 363.366 365.874 364.321 363.631 364.219 363.561 362.666 362.649 362.914 362.221 363.816 362.196 361.479 361.294 360.916 361.279 360.491 362.731 359.726 362.666 360.326 358.921 358.869 359.886 357.399 356.716 358.101 361.071 356.429 354.569 354.859 353.524 355.099 356.384 355.181 356.336 355.444 353.601 351.024 350.481 360.124 352.449 350.511 351.734 349.444 350.956 352.539 352.456 351.236 348.646 347.751 348.541 349.649 347.414 349.279 349.476 349.684 356.454 360.359 360.816 358.111 353.489 348.901 350.121 355.924 354.559 347.171 346.694 351.721 355.019 359.534 358.751 357.656 356.904 356.104 356.391 355.751 356.614 358.074 354.034 360.291 360.146 358.749 356.541 358.876 359.684 357.326 358.969 360.281 361.601 358.834 356.199 360.324 359.556 359.766 352.909 354.024 360.224 360.009 360.199 361.221 359.134 362.276 361.349 360.054 362.856 363.519 363.546 365.559 363.299 362.134 363.216 364.126 364.161 363.604 363.701 363.106 362.311 361.876 359.609 361.829 361.236 363.989 362.266 363.346 361.139 360.844 359.116 358.926 361.794 361.939 362.191 362.296 362.474 363.556 362.399 362.891 363.599 361.054 356.606 361.989 360.746 360.981 363.786 362.056 361.706 361.396 362.171 364.759 363.351 359.716 360.621 360.271 359.699 357.181 350.639 349.974 350.096 350.039 350.021 350.001 349.954 352.709 354.789 356.299 356.004 358.691 360.711 361.851 360.791 361.621 359.299 360.369 357.229 357.071 353.449 357.746 359.501 360.589 361.941 358.806 360.774 356.064 359.701 359.644 358.076 354.161 355.266 355.061 358.684 356.224 354.001 359.154 358.899 358.684 358.386 359.456 353.471 349.299 355.909 359.581 358.579 360.009 358.911 358.009 359.174 357.899 359.761 356.179 353.141 354.421 358.296 357.274 361.099 359.886 360.564 357.884 356.311 353.199 348.259 355.336 349.011 350.759 351.736 354.381 354.166 359.719 360.449 360.989 354.654 346.916 345.881 344.836 345.099 345.219 345.634 345.994 346.159 346.389 347.024 348.054 348.674 349.014 349.159 349.309 349.399 349.416 349.411 349.466 349.796 349.709 349.741 349.841 350.869 354.576 350.709 350.216 350.324 350.404 350.534 350.501 350.616 350.741 350.796 350.884 355.739 353.681 351.009 351.071 351.069 351.096 351.221 351.384 351.314 351.501 351.694 351.796 351.871 352.221 352.234 352.251 352.246 352.286 355.451 354.066 361.299 366.041 364.024 362.821 365.019 365.054 366.356 366.404 365.024 366.951 367.364 367.271 367.886 365.884 366.639 366.461 366.879 359.284 368.716 368.934 367.616 367.384 370.076 368.301 367.196 369.281 369.029 368.561 369.801 370.234 371.086 369.591 363.246 368.646 368.961 369.964 371.344 371.411 370.201 370.856 371.454
362.316 362.404 362.536 362.879 362.829 363.556 365.981 363.079 363.254 363.441 363.516 363.546 363.636 363.764 363.969 366.869 365.569 367.109 364.929 366.401 364.399 365.329 369.436 365.311 368.216 364.289 364.149 364.151 364.146 364.186 364.214 364.254 364.844 365.886 365.446 369.254 364.406 364.916 364.939 364.186 364.151 364.166 364.149 364.059 364.026 364.104 364.134 364.644 365.674 363.899 363.821 363.904 363.826 365.311 365.986 363.589 363.769 365.796 363.556 363.106 363.144 363.406 367.236 362.999 361.959 361.879 361.969 362.521 360.931 361.316 360.951 361.464 360.154 359.914 358.536 358.236 357.701 357.164 356.681 358.014 355.254 354.774 355.941 353.926 355.489 356.109 355.404 355.326 353.604 355.351 356.596 353.241 351.701 353.654 351.276 355.924 351.179 352.051 354.534 349.151 354.916 354.756 348.611 348.646 352.661 349.131 347.584 347.566 350.934 358.296 363.544 363.611 359.156 356.704 354.066 354.376 354.339 350.914 346.741 348.509 357.406 360.949 360.224 362.799 358.221 355.791 355.486 357.289 354.901 355.941 357.879 356.084 362.981 358.536 356.881 358.206 360.576 357.881 354.401 358.206 361.119 360.629 357.889 356.981 359.064 356.741 357.251 349.431 358.501 362.119 361.234 356.071 362.354 357.211 362.421 361.769 359.314 360.801 363.734 361.866 361.729 363.871 361.491 362.131 363.059 363.636 364.281 363.544 365.114 363.846 359.676 362.461 359.246 362.384 364.149 358.184 358.084 355.074 358.166 360.516 360.524 362.859 361.939 363.516 363.044 362.246 364.146 360.174 360.406 362.064 359.839 355.496 361.414 362.731 362.541 362.671 363.114 361.546 364.091 363.964 363.156 360.541 362.609 361.886 362.844 360.894 361.316 355.886 351.001 350.191 350.169 350.146 350.111 350.461 355.701 360.061 360.954 362.456 361.536 362.386 363.849 362.574 361.776 359.606 362.709 359.091 357.261 352.736 361.001 356.531 360.431 361.561 361.826 356.609 357.574 360.239 359.799 360.136 360.361 356.036 359.054 358.976 348.491 351.651 360.109 360.486 359.626 358.039 359.119 355.541 353.021 360.089 357.991 357.911 352.009 358.376 358.839 357.804 355.884 356.989 351.786 348.156 349.316 352.236 358.211 360.071 358.454 357.736 358.956 358.984 357.689 352.774 360.034 354.249 348.511 348.024 351.079 354.764 357.599 361.699 358.109 355.274 347.096 345.461 344.871 345.396 345.306 345.571 346.189 346.346 346.474 347.941 348.134 348.899 349.239 349.334 349.474 349.489 349.599 349.586 349.749 349.831 349.896 349.896 350.079 350.171 350.699 350.329 350.556 350.689 350.699 350.696 350.724 350.894 350.929 351.041 352.254 354.959 356.056 351.484 351.416 351.384 351.384 351.521 351.709 351.736 351.804 352.006 352.129 352.186 352.451 352.574 352.616 352.614 352.696 359.356 363.734 362.006 361.384 360.169 362.039 364.606 363.321 363.416 364.484 364.509 366.854 366.701 366.779 367.264 365.349 366.101 368.536 364.399 365.394 366.341 366.321 366.601 368.066 370.199 369.859 370.736 368.356 364.119 368.096 368.849 370.674 369.119 369.609 367.141 367.881 370.029 370.594 372.471 371.116 372.756 372.379 370.414
362.186 362.311 362.469 363.569 364.229 363.376 364.346 363.384 364.766 364.871 363.491 363.621 363.631 363.781 363.941 368.851 365.236 364.154 365.594 365.231 364.381 364.619 366.724 365.374 365.049 366.801 364.501 364.394 364.424 364.519 364.576 364.476 365.446 365.756 364.974 364.841 364.866 366.269 365.431 364.451 364.471 364.529 364.529 364.481 364.559 364.829 365.981 364.421 364.514 364.369 364.296 364.319 364.719 364.616 364.441 364.114 364.766 364.979 363.661 363.464 363.856 364.611 367.091 363.049 362.959 362.711 362.599 362.456 362.071 361.044 362.451 361.306 360.211 359.616 359.044 358.609 358.219 357.594 357.346 356.686 359.346 357.234 358.721 355.826 354.634 353.581 353.479 355.596 354.119 352.041 359.244 353.934 352.586 352.144 354.011 350.804 355.229 353.641 351.531 350.041 352.129 355.109 348.184 348.804 351.779 350.544 347.964 347.599 350.069 354.611 359.914 361.036 356.729 354.184 355.044 356.584 354.109 350.204 346.844 350.221 358.219 360.889 361.381 361.546 358.216 360.279 361.816 362.624 359.774 360.401 359.374 358.046 360.599 357.704 359.719 357.839 359.241 358.949 358.484 355.814 359.791 359.364 354.856 359.619 360.571 360.311 355.891 349.969 360.436 362.351 363.261 362.456 361.199 361.951 364.141 363.174 361.984 361.921 363.001 362.061 359.296 364.964 363.474 359.899 363.386 363.881 362.459 361.111 365.831 363.091 359.954 361.801 360.096 360.636 364.334 354.469 354.911 357.546 355.406 358.436 360.879 361.659 363.224 360.191 361.359 360.869 363.659 361.279 360.589 357.309 356.654 356.354 362.431 364.239 364.186 365.196 364.359 361.414 363.991 364.176 362.224 359.409 361.436 361.916 361.791 362.854 363.314 360.541 352.644 350.311 350.294 350.261 350.234 351.171 357.249 364.261 362.124 361.741 362.766 363.754 364.659 363.379 361.644 361.116 355.986 358.689 360.049 353.796 360.761 362.281 362.379 361.449 359.866 355.526 358.984 359.976 361.521 359.121 359.544 358.314 360.916 358.821 352.721 357.019 357.841 361.959 359.734 355.469 359.811 360.379 351.799 355.381 357.264 352.484 351.286 356.909 356.604 357.119 358.014 354.526 352.024 350.129 346.589 351.929 357.016 357.109 356.391 357.119 358.894 359.981 359.606 356.894 361.596 358.589 355.246 355.384 354.764 350.714 356.281 361.116 360.591 355.781 347.521 345.411 345.066 345.399 345.544 345.566 346.259 346.384 346.509 346.989 348.154 349.351 349.336 349.536 349.556 349.599 349.664 349.804 349.919 349.994 350.049 350.179 350.274 350.449 350.531 350.664 350.761 350.974 350.929 350.911 351.101 351.169 351.171 351.209 351.256 352.689 352.849 351.796 351.749 351.749 351.811 351.964 351.994 352.136 352.231 352.559 356.326 352.666 352.719 352.831 352.866 352.954 354.849 360.504 362.814 363.164 359.526 356.344 359.836 364.464 363.606 363.794 365.824 364.076 364.661 365.941 365.804 367.094 365.296 366.591 368.139 367.479 366.974 368.599 364.591 366.614 367.921 367.619 368.009 369.454 367.571 367.989 371.036 368.509 369.679 369.831 368.884 370.061 371.679 370.751 372.596 371.924 371.711 373.381 371.371 369.324
362.059 362.249 362.411 362.924 362.879 362.771 362.951 364.564 365.154 363.271 363.414 364.406 363.874 364.844 365.061 367.791 364.896 364.456 367.024 364.494 364.356 365.214 365.184 364.624 365.306 368.584 365.321 364.791 364.906 365.229 365.809 364.734 365.186 366.421 364.979 364.999 365.589 365.084 365.269 366.214 365.319 364.876 365.739 364.929 364.851 365.349 365.351 365.081 364.921 364.709 364.809 364.834 367.334 365.144 364.619 364.321 364.269 365.484 364.064 365.141 364.459 366.531 366.929 366.024 364.401 364.006 362.876 363.294 364.186 361.614 361.219 361.981 363.264 361.309 360.571 359.111 359.036 358.214 358.131 359.514 357.881 356.866 357.799 354.979 354.441 354.089 355.534 355.226 357.726 354.026 353.734 353.679 352.806 355.271 355.024 352.401 356.371 355.626 351.844 350.316 350.286 348.724 347.966 353.226 348.344 350.754 347.974 347.536 347.661 352.249 355.666 353.791 351.106 348.204 349.226 351.266 351.841 348.331 346.734 346.844 350.479 355.574 358.824 358.419 353.141 357.714 360.741 359.661 358.539 361.024 362.029 358.941 360.879 360.481 358.291 357.844 358.474 360.659 361.471 358.421 362.046 361.439 358.006 359.666 358.006 360.251 357.446 349.809 360.241 361.076 361.064 359.619 359.471 361.764 363.236 362.764 361.484 360.811 362.194 363.409 358.964 365.211 364.036 361.424 361.196 365.144 363.599 364.286 364.696 362.534 358.166 363.984 363.476 361.274 362.966 353.911 356.039 353.956 359.876 362.666 362.334 362.434 361.534 358.344 360.851 357.826 363.041 362.716 362.044 358.826 352.974 357.584 362.459 364.461 364.171 363.661 359.521 360.884 364.274 364.929 362.074 362.881 361.086 366.081 359.106 362.976 363.049 361.579 357.676 351.334 350.439 350.424 350.304 350.386 358.154 362.994 361.646 360.436 361.764 362.209 363.794 361.946 355.206 361.836 359.851 359.164 357.824 360.166 361.354 360.281 358.646 361.141 358.111 357.261 356.434 356.506 360.659 358.204 356.836 356.296 361.031 358.226 357.516 362.564 361.806 362.094 358.171 355.311 359.616 355.279 348.709 353.594 354.324 349.874 353.366 357.869 359.621 359.934 358.166 350.011 352.544 353.931 347.606 353.956 359.464 356.736 358.374 362.244 361.919 360.511 360.321 358.559 359.524 357.809 361.214 361.641 360.501 357.964 355.126 363.489 358.401 355.026 347.221 345.549 345.191 345.486 345.624 345.601 346.341 346.764 346.659 347.144 348.179 349.056 349.569 349.709 349.814 349.836 349.886 350.034 350.139 350.221 350.341 350.446 350.566 350.784 350.746 350.821 350.981 351.286 351.316 351.299 351.351 351.341 351.489 351.334 351.549 351.659 351.826 352.019 352.191 352.154 352.186 352.271 352.339 352.389 352.941 352.851 352.881 352.961 353.019 353.186 353.191 353.554 357.054 365.919 366.229 366.589 360.669 360.109 358.061 360.854 360.519 360.659 361.819 360.129 362.891 367.104 367.609 367.431 367.224 367.761 366.846 367.064 368.084 369.246 366.136 362.726 366.511 368.081 366.259 365.371 366.354 369.421 369.291 369.444 369.446 370.071 369.251 370.361 371.416 371.581 372.451 372.941 371.529 372.626 372.489 372.936
362.014 364.231 362.336 362.679 362.641 362.766 362.891 366.059 364.286 363.281 363.461 363.576 364.381 364.111 364.611 367.199 364.791 365.914 368.689 370.211 364.586 366.599 366.524 364.799 364.851 364.946 365.161 364.944 364.961 364.931 364.991 364.921 365.014 365.111 365.179 365.879 365.819 365.601 365.441 366.396 368.944 367.196 365.281 365.241 365.241 365.239 365.294 365.414 365.971 365.161 365.029 365.351 365.656 365.001 364.841 364.796 364.669 364.789 364.799 365.401 365.449 366.499 368.259 364.709 363.514 364.099 363.509 362.904 362.911 362.589 361.754 362.246 362.976 361.749 361.079 359.541 359.259 358.729 358.071 359.281 357.059 356.454 356.169 356.534 354.731 354.454 353.874 355.661 353.294 353.424 354.396 354.809 356.719 354.594 351.574 349.829 350.094 349.011 350.701 349.876 348.244 350.834 349.599 349.529 350.974 351.746 347.624 347.564 348.291 349.591 354.821 350.929 348.256 347.124 347.041 346.976 347.381 346.809 347.059 346.734 346.729 353.201 360.084 359.391 358.361 360.956 362.391 361.969 359.581 359.274 360.784 361.501 364.136 360.611 359.691 360.249 361.199 362.509 360.726 358.786 362.676 364.816 358.789 361.919 359.719 363.721 358.749 352.001 360.306 359.746 358.719 358.776 359.356 361.571 362.311 362.589 363.531 360.546 363.369 363.176 361.554 360.374 358.681 363.031 362.209 365.029 361.904 363.841 362.661 364.841 363.124 363.476 363.104 361.641 360.806 357.189 361.056 358.701 358.669 359.399 361.376 362.861 357.866 360.696 360.356 363.636 363.926 362.831 362.574 363.886 357.659 361.804 361.204 362.806 363.339 364.959 362.856 364.751 363.136 364.154 363.876 364.881 363.079 365.214 361.066 362.616 364.399 364.346 361.066 352.001 350.556 350.516 350.421 350.466 355.804 362.046 362.634 360.266 359.514 361.541 360.846 357.721 353.381 359.971 360.694 361.386 361.996 361.171 361.854 357.641 360.259 360.424 357.461 357.091 356.041 359.199 359.224 356.689 352.831 356.681 357.549 360.516 360.301 358.559 361.716 361.439 359.094 359.336 356.116 348.511 345.991 353.026 356.379 351.461 354.474 357.829 359.021 360.144 357.026 354.631 359.466 356.521 351.546 358.419 359.011 357.199 360.039 361.901 360.339 361.749 361.499 358.311 360.734 358.171 361.034 362.539 361.851 361.861 362.471 363.029 358.519 356.481 346.836 345.846 345.196 345.641 345.671 345.749 346.081 346.591 346.901 347.306 348.071 349.146 349.699 349.944 350.096 350.241 350.299 350.234 350.439 353.861 350.706 350.811 350.829 350.996 351.134 351.209 351.494 351.604 351.721 351.574 351.579 352.399 356.826 352.754 351.914 351.971 352.074 352.309 352.374 352.476 352.556 352.604 352.701 352.806 353.941 358.324 355.224 353.311 353.319 353.396 355.296 359.099 362.056 365.296 365.491 367.461 365.014 364.411 358.626 357.049 354.889 356.341 359.269 360.146 361.086 364.501 367.819 367.796 368.366 369.391 367.161 365.486 366.571 368.819 370.246 366.834 368.496 368.624 368.324 367.121 368.931 368.489 367.024 369.481 368.591 367.314 367.026 366.611 367.641 369.954 369.154 370.824 371.116 373.214 371.031 370.779
361.984 362.954 362.414 364.594 363.986 362.819 362.906 363.609 363.261 363.351 363.416 363.529 363.991 363.786 366.739 365.471 364.651 365.609 370.906 370.501 370.601 365.291 364.876 364.964 365.016 365.006 365.041 365.106 365.171 365.119 365.321 365.181 365.444 365.721 365.694 366.481 365.486 365.539 365.726 366.629 373.144 368.369 365.601 365.611 365.784 365.676 365.674 365.969 365.839 365.824 365.559 365.526 365.354 365.294 365.304 365.219 365.089 365.296 364.939 364.801 364.621 366.446 366.219 363.966 364.001 364.594 363.579 363.154 363.006 362.741 362.626 363.251 363.484 361.604 360.546 359.974 359.636 359.056 358.636 359.864 357.331 358.344 356.409 355.931 356.756 354.621 354.109 354.676 353.476 353.384 352.809 352.941 355.664 357.041 350.601 351.491 353.044 350.511 350.609 352.099 353.789 352.634 348.314 348.549 349.699 347.719 347.509 347.471 347.299 347.714 353.826 351.149 347.636 347.111 346.996 346.911 346.869 346.781 349.149 350.816 350.919 354.746 359.644 362.081 359.111 362.964 362.249 362.701 360.309 360.111 360.816 358.996 362.576 360.359 359.526 364.186 363.509 361.981 361.244 360.884 360.164 360.896 361.014 361.669 361.729 363.964 361.199 355.459 358.954 364.629 354.811 357.496 355.691 359.184 358.856 360.224 360.901 360.569 360.021 358.419 361.396 359.349 359.104 359.149 363.119 364.286 365.444 362.771 362.331 361.509 362.621 360.426 363.186 360.699 362.381 357.204 361.451 362.666 357.574 364.441 360.631 364.094 358.559 362.406 365.241 365.161 364.671 364.649 363.471 364.706 361.244 362.591 362.816 363.519 364.361 364.314 364.671 362.641 364.859 364.189 362.596 365.869 366.821 365.871 364.801 362.721 362.864 363.449 359.659 352.339 350.614 350.611 350.564 350.649 355.751 358.526 359.794 359.824 359.719 361.274 361.154 355.181 353.981 362.494 363.219 363.451 362.481 359.486 361.774 361.804 362.741 361.064 357.014 362.609 357.611 360.414 359.231 354.136 357.491 361.891 361.081 361.754 363.224 358.919 359.179 361.781 358.424 358.504 356.491 352.854 351.114 358.464 358.071 355.869 359.369 357.669 359.776 358.076 356.786 355.046 360.679 360.306 361.626 360.936 356.709 359.029 359.866 362.354 359.549 361.481 363.101 359.456 359.916 363.624 361.046 361.109 362.964 360.659 361.466 361.679 362.616 359.654 351.011 346.461 345.406 345.559 348.136 345.821 346.006 346.769 347.039 347.389 348.121 349.196 349.921 350.131 350.374 352.489 352.031 350.581 350.866 350.841 350.946 350.959 351.126 351.779 351.471 351.566 351.736 351.831 351.936 351.924 351.956 352.074 355.044 353.214 352.296 352.301 352.316 352.614 352.671 352.761 352.866 352.969 353.056 353.011 354.926 357.356 355.459 353.586 353.576 353.656 356.446 364.764 365.856 365.496 365.514 365.094 365.169 365.229 363.431 360.354 354.484 358.549 362.501 364.644 361.174 361.691 365.879 367.516 367.781 367.854 368.284 368.021 369.446 369.191 368.814 369.241 370.106 368.744 366.241 367.464 368.896 367.751 365.686 367.679 368.236 366.564 366.876 367.671 368.869 370.011 370.279 370.401 371.361 371.376 371.546 372.834
363.054 364.496 363.484 365.724 366.714 362.824 363.069 363.194 363.441 363.526 363.844 364.409 366.176 365.736 367.914 366.614 364.339 365.116 367.591 369.911 365.919 364.971 365.654 366.066 365.509 366.281 365.899 366.164 365.336 365.664 366.421 366.271 365.951 366.171 366.246 366.531 365.716 365.826 366.799 369.171 370.986 368.639 366.796 367.859 367.456 366.064 365.999 365.911 365.839 365.971 367.249 367.824 365.871 365.611 365.596 365.731 366.071 365.561 365.294 365.834 369.004 366.319 364.839 364.631 364.799 365.814 365.139 363.734 363.616 363.071 363.439 362.906 363.444 361.579 361.029 360.726 360.811 359.741 358.936 358.246 357.779 357.496 356.731 356.091 355.789 355.224 354.689 354.049 353.684 353.574 354.399 356.654 352.266 352.819 351.931 351.211 352.494 351.544 353.399 353.021 351.794 348.864 348.821 349.399 347.379 348.146 348.549 348.006 347.296 347.206 350.631 351.294 348.146 347.169 346.959 346.889 346.949 346.829 353.169 358.524 358.841 358.466 361.906 362.176 362.694 363.416 363.419 364.454 362.896 359.551 361.906 360.641 362.291 360.454 359.916 361.221 361.294 363.174 362.846 359.039 363.846 362.209 361.274 360.299 361.886 362.426 359.494 359.701 361.519 362.664 360.496 363.414 356.519 356.749 362.126 358.819 360.979 360.699 359.231 358.014 361.179 357.186 356.874 358.341 362.091 363.614 363.476 356.941 365.109 364.144 364.514 365.061 360.879 363.389 364.044 363.916 359.941 364.826 364.461 363.979 361.496 365.209 358.069 362.246 362.044 360.386 363.759 364.566 363.134 363.891 363.171 360.191 362.909 361.014 364.629 364.009 364.391 362.354 365.481 364.979 360.791 362.996 365.621 366.081 364.906 361.061 361.624 362.004 357.626 351.599 350.724 350.746 350.701 351.959 358.256 359.336 356.089 358.596 363.579 364.944 361.571 356.799 363.939 362.556 361.084 361.099 364.786 361.906 360.109 362.379 362.561 363.734 359.854 361.836 361.281 356.704 363.544 358.784 361.771 362.201 359.379 359.781 358.996 353.771 357.614 360.691 357.121 358.514 357.599 358.249 360.136 354.244 360.801 357.111 360.881 360.599 359.511 360.376 360.951 352.464 357.539 357.674 359.929 362.696 360.821 361.266 360.439 361.751 360.779 359.216 359.264 360.191 363.426 364.454 363.094 362.714 362.234 362.649 363.104 363.431 364.254 361.706 353.234 346.966 345.841 345.519 346.019 345.879 346.221 346.936 347.224 347.534 348.211 349.384 350.186 350.416 350.626 351.194 354.029 351.484 351.274 351.071 351.221 351.764 351.634 353.861 351.796 351.926 352.074 352.356 352.914 353.091 352.361 352.599 352.586 352.619 352.659 353.771 355.156 352.979 353.104 353.131 353.194 353.319 353.369 353.401 353.539 355.091 354.061 353.874 354.016 354.656 355.721 363.416 366.621 364.579 367.509 366.299 366.156 366.576 367.391 365.181 357.024 358.634 363.411 367.016 361.756 357.994 361.271 367.109 367.381 366.301 368.699 368.706 370.514 368.386 368.731 367.526 369.171 368.139 365.139 368.054 366.684 365.729 366.374 367.121 368.591 368.724 364.921 367.336 370.111 371.324 370.016 369.289 368.869 371.951 370.746 371.454
362.066 363.356 365.036 365.964 364.274 362.699 363.081 363.379 364.301 364.526 363.796 367.286 366.241 365.789 368.929 364.361 364.336 364.561 364.736 364.849 364.949 365.244 369.756 370.269 365.439 367.099 369.501 367.039 365.656 365.686 366.509 367.026 366.134 368.036 366.284 366.004 366.209 366.276 367.081 367.209 367.099 369.541 368.261 367.676 367.206 366.521 366.534 366.341 366.916 366.259 369.671 368.369 368.824 366.799 365.969 365.864 365.801 365.699 365.696 366.491 369.449 368.766 365.381 365.206 365.661 366.299 367.866 364.356 363.679 363.416 363.219 362.864 362.551 361.899 361.511 361.036 361.226 360.964 360.051 359.166 358.329 357.659 357.161 356.394 357.346 356.159 355.376 355.041 357.324 354.049 358.431 352.699 352.341 352.031 351.946 358.666 351.014 350.559 352.609 354.084 351.186 348.551 347.946 347.899 347.744 348.864 353.504 347.434 347.276 347.534 347.264 347.929 347.849 347.229 346.926 346.886 346.851 347.386 353.581 359.234 359.726 358.161 361.069 359.281 359.594 361.031 361.824 361.106 360.691 359.476 365.721 362.529 357.491 362.356 360.429 362.071 360.791 362.909 359.076 361.204 360.369 361.181 359.576 361.526 361.999 360.214 357.329 361.221 361.809 361.179 361.591 362.286 362.786 361.476 363.979 359.684 362.699 360.201 358.696 357.364 363.991 359.254 353.711 358.169 359.129 360.189 355.876 357.164 362.099 361.246 362.244 365.084 364.551 362.054 365.864 364.564 358.626 364.381 363.866 364.461 366.166 363.779 362.929 361.801 356.796 362.899 364.534 364.629 363.464 363.261 363.014 364.159 362.704 363.681 364.096 364.499 363.301 364.224 364.901 362.654 360.504 362.939 362.459 364.384 362.909 360.311 363.014 364.566 360.166 353.509 350.961 350.834 351.319 355.546 359.891 364.541 364.079 363.184 364.544 362.039 354.831 361.799 363.184 362.429 358.924 362.959 363.146 362.476 361.346 362.916 362.121 362.476 362.521 363.024 360.966 360.556 361.666 359.496 357.699 363.274 360.651 361.149 354.691 351.644 355.816 359.646 360.714 358.721 361.706 361.039 358.844 355.801 363.609 360.079 363.096 361.764 359.571 360.364 361.944 360.221 359.211 354.744 357.991 360.964 359.334 355.991 358.724 361.141 361.554 359.364 361.684 360.221 362.766 363.356 362.869 362.189 363.391 364.499 363.549 363.731 362.469 360.906 352.764 347.841 346.894 345.559 346.006 346.149 346.564 347.209 347.346 347.529 348.144 349.496 350.344 350.614 350.811 351.156 351.559 353.336 353.664 351.581 351.574 351.701 351.989 352.844 352.164 352.251 352.541 352.901 353.296 353.091 352.971 353.036 353.149 353.114 353.284 353.866 355.811 354.241 353.539 353.501 353.566 353.646 353.744 353.786 353.919 354.021 354.101 354.224 356.926 360.901 364.459 366.059 365.296 365.764 368.541 367.061 366.631 367.489 366.886 363.731 363.314 363.026 362.389 362.414 359.151 355.591 357.304 362.156 362.646 362.026 362.616 365.441 367.376 366.541 370.351 369.786 366.486 369.499 367.594 366.039 364.739 363.751 367.126 366.146 369.181 368.214 369.184 369.589 369.001 370.361 369.071 369.281 368.546 372.996 372.831 371.381
361.704 362.736 365.651 363.324 362.586 362.799 362.854 363.026 363.991 364.589 363.916 363.761 363.994 364.994 366.901 364.276 364.366 364.524 364.694 364.794 364.979 367.241 367.051 368.871 367.506 367.771 369.889 366.821 365.844 365.896 365.911 366.234 366.564 368.149 366.316 366.284 366.581 366.449 367.086 366.821 367.014 369.034 369.019 371.724 367.999 367.741 368.181 366.936 367.574 366.779 368.536 367.056 367.719 367.531 366.456 366.336 366.559 365.909 365.889 365.979 367.569 365.724 365.424 365.414 365.364 365.526 366.491 366.719 364.371 364.396 364.881 363.156 362.974 362.616 362.451 362.244 362.109 360.469 359.776 359.976 359.841 358.511 358.304 356.971 356.916 358.136 356.496 356.441 359.261 356.301 354.634 353.316 353.556 352.996 351.859 356.199 351.356 351.336 357.136 350.781 353.121 353.084 351.829 348.209 347.999 352.374 351.134 347.559 347.354 351.106 347.201 347.109 346.949 346.884 346.806 346.926 346.936 346.934 349.814 354.249 355.426 356.881 358.751 357.874 360.584 360.069 358.986 359.176 361.611 362.039 363.291 362.949 362.514 364.356 363.939 362.029 362.854 363.701 362.876 361.029 363.979 361.306 356.164 360.119 362.769 359.719 358.714 360.681 360.896 362.761 361.931 361.841 363.689 364.349 363.611 360.981 361.351 363.354 360.839 360.649 364.346 364.391 362.296 363.416 363.811 360.989 355.124 357.244 358.684 360.504 363.086 365.221 365.061 359.564 364.659 364.869 361.719 365.066 365.186 364.296 363.884 363.504 362.859 362.346 357.051 363.766 365.421 364.726 361.861 363.521 365.704 361.959 362.149 358.084 362.264 362.936 358.966 364.009 364.351 365.236 363.154 364.371 359.031 364.839 360.776 365.839 363.556 364.299 360.859 353.986 351.059 351.059 352.004 357.564 363.806 364.409 363.934 365.601 363.019 361.509 352.946 362.059 363.881 363.706 364.376 363.986 362.099 361.359 361.476 363.144 363.284 362.921 362.611 360.951 358.674 365.156 364.456 356.259 358.621 362.916 360.196 361.909 352.409 351.401 357.446 361.156 361.136 359.449 359.056 356.264 351.336 358.906 362.836 361.231 361.849 361.796 361.281 358.056 361.074 360.879 364.036 361.034 360.046 360.959 360.924 354.894 361.926 361.081 361.071 360.361 362.894 362.131 357.921 362.386 365.209 363.874 364.764 365.069 363.031 362.461 365.109 361.901 354.506 348.561 346.229 345.706 346.161 346.539 347.026 347.304 347.349 347.591 348.139 349.126 350.224 350.819 351.106 351.349 351.584 353.104 352.126 352.091 352.051 352.159 352.411 352.681 352.729 353.094 353.109 353.234 353.359 353.409 353.536 353.674 353.744 353.784 353.919 354.704 356.494 356.101 354.049 354.786 354.314 354.086 354.929 354.286 354.446 354.461 354.489 354.759 359.021 364.021 369.196 368.181 367.841 366.126 366.244 366.411 367.269 367.484 367.354 362.309 364.664 365.996 366.574 360.921 357.426 355.089 355.294 355.346 355.381 355.451 356.301 360.824 366.814 369.311 369.574 370.894 369.851 368.919 366.116 361.406 364.856 365.794 367.644 367.299 365.951 368.139 368.106 368.751 368.821 370.451 371.024 368.514 371.404 371.879 371.679 371.354
361.804 363.599 367.346 364.886 362.536 364.009 365.096 363.581 363.459 363.421 363.559 364.394 363.869 363.956 364.669 364.319 364.484 364.576 364.831 365.014 364.966 365.189 365.479 367.676 367.779 366.616 368.076 366.236 366.004 366.106 366.211 366.219 366.471 366.816 367.151 367.699 367.449 366.746 366.991 368.626 371.184 369.846 368.531 369.711 369.566 367.841 367.641 367.301 367.016 367.064 367.029 366.974 368.471 369.714 366.789 366.701 366.641 366.414 366.269 366.179 366.129 366.064 365.921 365.756 367.706 365.824 365.046 366.184 366.654 364.316 363.901 363.856 363.371 362.926 363.141 363.159 361.559 360.919 360.259 361.234 359.481 360.506 358.246 358.064 361.161 357.711 355.449 359.089 356.946 356.351 357.701 353.114 352.834 354.069 353.264 353.459 351.696 351.369 354.499 351.126 350.254 352.224 355.359 348.634 350.381 357.486 349.361 347.686 350.509 351.009 347.151 347.059 346.931 346.826 346.864 346.904 346.931 346.811 346.884 348.064 350.536 357.854 361.279 361.506 361.036 362.066 363.076 360.221 362.124 364.961 361.869 363.011 363.706 361.069 361.986 363.214 362.054 361.214 360.564 363.321 363.754 362.174 355.681 363.201 364.566 360.724 359.704 360.676 362.556 363.216 362.964 360.194 364.216 362.184 363.281 357.214 363.334 362.284 361.361 363.174 364.479 365.061 362.089 364.756 364.794 363.181 358.886 358.519 358.626 361.396 360.484 360.584 361.829 362.484 365.799 362.916 365.966 365.186 362.446 365.434 363.119 360.979 364.174 362.509 358.261 366.329 366.066 365.499 363.104 363.974 366.546 364.989 361.651 357.421 365.171 363.401 360.064 363.051 364.631 365.179 361.199 363.866 361.199 363.876 363.399 362.251 364.266 366.391 360.931 352.731 351.131 351.056 351.719 356.416 362.351 363.001 362.236 366.376 365.781 363.719 357.434 363.776 363.661 362.469 364.969 364.289 362.919 365.191 357.749 364.256 364.314 363.134 358.414 361.646 360.379 363.291 362.461 355.991 359.414 360.754 358.729 360.106 356.236 360.366 361.759 363.059 358.971 358.186 356.309 353.394 349.871 359.279 361.219 362.751 360.999 361.099 360.984 361.749 361.149 354.829 361.199 361.601 360.109 361.016 362.359 362.064 363.019 364.311 360.631 361.904 363.729 361.939 359.194 363.134 365.439 362.739 362.469 364.461 362.266 363.319 366.531 363.346 358.936 348.949 346.551 346.026 346.251 347.164 347.219 347.369 347.419 347.676 348.359 350.261 350.211 351.016 351.419 351.614 351.899 352.041 352.306 352.529 352.626 352.696 354.101 355.981 353.454 353.451 353.684 353.744 353.881 354.054 354.121 354.281 354.331 354.336 354.494 354.646 356.709 354.816 354.629 354.871 354.881 355.659 356.236 354.809 354.839 355.089 354.919 355.634 362.696 366.781 369.801 366.436 367.389 367.724 366.221 364.781 366.469 367.489 366.426 363.051 365.631 366.499 368.386 368.879 364.621 355.644 355.336 355.496 355.606 355.599 355.671 357.411 362.914 367.521 369.531 368.826 368.531 368.716 365.209 358.184 361.104 365.106 365.451 366.021 364.664 368.744 367.544 369.536 369.561 371.629 369.631 368.421 372.001 369.061 371.421 371.446
361.814 362.709 362.804 363.224 362.519 363.899 364.034 362.986 365.154 366.444 363.816 363.924 363.906 364.154 365.671 366.811 364.859 364.649 368.871 369.939 365.031 365.196 365.654 366.034 368.954 366.349 366.009 366.564 367.514 367.614 366.576 366.489 366.556 366.731 366.844 367.056 368.251 369.006 367.084 367.296 367.724 371.314 368.129 368.946 369.921 369.456 367.506 367.386 367.384 367.451 367.381 367.299 368.141 367.681 368.606 367.004 366.931 366.851 366.721 367.816 366.601 366.321 366.149 366.011 368.681 365.971 369.056 368.259 365.021 364.584 364.429 364.544 364.441 363.914 364.484 362.536 361.929 361.494 361.341 360.509 361.146 362.769 361.861 359.374 357.121 360.959 358.311 359.306 357.274 358.459 359.649 353.461 353.219 354.114 354.086 354.384 351.754 351.529 351.256 351.394 352.429 353.746 353.584 350.176 350.204 356.371 348.174 347.866 348.644 350.979 347.631 347.006 346.926 346.921 346.831 346.901 346.889 346.776 346.869 346.991 352.129 358.409 361.734 364.129 360.566 362.551 365.566 358.364 361.909 360.704 360.646 363.139 361.574 360.336 361.111 366.509 365.039 362.831 362.191 362.806 361.986 359.369 359.106 362.706 361.251 359.551 360.156 361.271 360.654 361.219 363.186 361.519 364.669 361.434 360.676 356.826 361.434 363.016 361.974 362.676 364.149 364.519 362.051 361.729 362.776 363.971 362.931 358.886 361.394 363.504 359.951 360.016 361.064 362.749 363.469 365.191 365.934 364.474 365.856 366.539 364.869 357.504 363.281 362.206 362.061 364.861 365.971 364.679 365.116 364.704 363.599 363.856 365.186 362.701 365.854 363.661 365.236 361.314 363.194 364.091 363.931 357.039 363.426 364.876 360.826 363.374 363.689 364.821 358.684 352.029 351.226 351.211 351.184 355.756 362.156 364.789 364.484 364.391 364.394 361.436 357.644 364.166 364.271 364.751 364.076 364.386 362.871 365.181 360.646 363.506 364.156 362.374 364.649 361.539 357.701 361.259 361.264 357.721 361.776 356.856 358.544 360.291 359.166 361.094 358.921 360.046 357.306 352.411 348.996 348.949 355.844 360.941 358.866 362.716 361.319 360.166 360.354 361.761 361.954 360.021 360.269 362.736 358.449 363.596 361.591 362.169 361.281 361.781 361.449 361.891 363.921 363.754 360.036 362.671 364.571 363.276 362.746 363.656 364.496 363.861 365.696 364.166 357.011 349.519 346.791 346.154 346.501 347.299 347.349 347.594 347.514 347.791 348.506 349.344 350.304 351.156 351.724 352.001 352.296 352.671 352.771 352.961 353.104 353.314 353.584 353.934 354.056 354.029 354.099 354.211 354.494 354.546 354.586 354.819 354.931 354.961 354.971 355.041 355.139 355.149 355.181 355.209 355.224 358.274 355.796 355.254 355.419 355.539 355.661 358.209 365.971 369.396 368.724 368.271 368.614 370.356 368.786 368.574 365.604 367.471 363.719 369.506 365.709 367.936 368.509 369.101 365.154 361.461 357.214 355.876 356.114 355.966 356.094 356.151 358.154 363.009 365.406 362.689 361.316 365.539 366.069 365.309 362.219 360.071 364.536 365.626 365.331 365.426 366.479 368.994 368.599 368.564 367.951 367.999 371.044 370.304 371.324 371.579
361.686 361.784 361.979 362.169 362.391 364.894 362.654 364.416 364.451 363.754 365.469 364.044 367.449 364.044 366.029 365.696 369.361 367.139 366.246 366.621 366.641 365.471 365.614 365.704 365.744 366.381 366.021 367.251 369.226 370.244 367.244 366.704 366.814 366.929 367.104 367.181 368.076 368.584 368.061 367.289 367.581 373.776 370.984 368.164 368.176 370.144 367.809 367.734 367.696 367.711 367.764 367.659 368.344 368.284 368.034 367.456 367.304 367.249 367.869 371.609 370.829 367.619 366.421 366.321 366.474 366.454 367.749 368.461 365.596 365.229 364.866 364.511 364.304 364.344 363.391 363.464 363.406 362.254 362.769 360.619 364.111 359.899 359.986 360.681 359.619 359.371 356.489 359.906 355.876 355.654 354.684 353.664 357.274 353.024 354.229 353.434 353.924 352.214 351.621 352.129 352.766 352.549 352.081 350.001 355.464 352.926 348.969 350.001 348.459 349.324 347.411 347.354 347.211 347.239 347.159 347.166 347.166 346.979 346.944 346.936 349.569 356.086 358.771 361.909 363.009 362.929 364.734 363.291 363.964 360.471 360.551 360.994 361.939 363.189 362.266 362.534 365.049 364.256 364.149 361.819 359.624 360.379 360.446 360.959 354.199 360.594 360.191 361.379 360.521 361.741 362.299 362.809 364.346 363.034 362.941 361.181 364.086 365.504 365.746 363.099 364.059 363.626 363.386 362.304 362.489 361.911 361.566 357.551 360.556 364.819 362.664 359.579 355.426 361.206 363.551 363.261 367.896 364.376 366.416 367.136 364.801 356.859 365.629 363.056 359.891 365.559 366.309 367.489 365.711 363.271 364.036 366.751 357.639 362.451 364.599 362.104 362.074 366.206 363.089 365.346 364.881 365.624 363.826 363.726 358.434 363.176 362.979 362.076 355.016 351.389 351.384 351.346 351.316 356.271 361.069 365.066 364.939 363.429 360.654 358.064 361.371 362.929 360.924 364.009 363.941 362.101 363.741 364.049 362.704 363.856 360.361 363.404 360.964 361.209 357.336 361.379 362.876 356.481 355.301 357.756 356.779 363.489 363.164 359.269 359.936 355.604 354.041 349.094 350.806 352.834 352.026 353.989 359.169 360.279 357.494 360.069 362.334 364.774 364.016 361.674 356.514 363.349 362.736 362.111 361.854 362.644 361.406 361.884 360.791 364.361 365.181 364.059 360.699 362.489 364.641 364.406 365.169 363.919 363.081 363.821 366.701 365.324 355.686 348.059 346.639 346.759 346.806 347.209 347.611 347.701 347.576 347.859 348.496 349.326 350.231 351.474 352.101 352.401 352.709 353.004 353.274 353.474 353.739 353.894 354.024 354.231 354.451 354.576 354.709 354.901 355.006 355.139 355.184 355.361 355.371 357.394 358.241 355.681 355.809 356.184 357.024 355.914 355.904 355.901 357.471 355.966 355.929 356.021 359.284 362.929 365.109 370.676 369.644 369.396 369.196 370.096 370.519 369.459 363.721 365.301 368.096 369.511 368.571 365.959 367.101 368.621 368.979 368.754 365.624 367.424 361.581 357.174 356.394 356.401 356.506 357.554 359.519 357.591 360.029 367.071 369.269 370.276 370.871 367.176 370.034 366.521 364.361 362.434 364.646 366.511 368.604 367.684 367.554 366.739 366.954 368.506 370.864 370.734
