ncols 433
nrows 31
xllcorner    385038
yllcorner    478124
cellsize     2
NODATA_value -9999
-9999 -9999 -9999 -9999 -9999 -9999 -9999 -9999 -9999 -9999 -9999 -9999 -9999 -9999 -9999 -9999 -9999 -9999 -9999 -9999 -9999 -9999 -9999 -9999 -9999 -9999 -9999 -9999 -9999 -9999 -9999 -9999 -9999 -9999 -9999 -9999 -9999 -9999 -9999 -9999 -9999 -9999 -9999 -9999 -9999 -9999 -9999 -9999 -9999 -9999 -9999 -9999 -9999 -9999 -9999 -9999 -9999 -9999 -9999 -9999 -9999 -9999 -9999 -9999 -9999 -9999 -9999 -9999 -9999 -9999 -9999 -9999 -9999 -9999 -9999 -9999 -9999 -9999 -9999 -9999 -9999 -9999 -9999 -9999 -9999 -9999 -9999 -9999 -9999 -9999 -9999 -9999 -9999 -9999 -9999 -9999 -9999 -9999 -9999 -9999 -9999 -9999 -9999 -9999 -9999 -9999 -9999 -9999 -9999 -9999 -9999 -9999 -9999 -9999 -9999 -9999 -9999 -9999 -9999 -9999 -9999 -9999 -9999 -9999 -9999 -9999 -9999 -9999 -9999 -9999 -9999 -9999 -9999 -9999 -9999 -9999 -9999 -9999 -9999 -9999 -9999 -9999 -9999 -9999 -9999 -9999 -9999 -9999 -9999 -9999 -9999 -9999 -9999 -9999 -9999 -9999 -9999 -9999 -9999 -9999 -9999 -9999 -9999 -9999 -9999 -9999 -9999 -9999 -9999 -9999 -9999 -9999 -9999 -9999 -9999 -9999 -9999 -9999 -9999 -9999 -9999 -9999 -9999 -9999 -9999 -9999 -9999 -9999 -9999 469.448 469.323 469.128 469.068 468.885 468.655 468.4 468.265 467.84 467.443 467.093 466.748 466.345 466.065 465.71 465.258 464.81 464.36 463.93 463.491 462.93 462.493 462.093 461.678 461.235 460.703 460.205 459.6 459.03 458.598 458.275 458.208 458.188 458.09 458.088 458.115 458.075 458.128 458.108 458.155 458.165 458.085 458.028 457.93 457.875 457.775 457.615 457.28 456.68 456.195 456.228 456.355 456.583 456.785 456.813 456.75 456.668 456.553 456.44 456.343 456.295 456.265 456.188 455.993 455.863 455.855 455.755 455.708 455.67 455.563 455.405 455.113 454.808 454.715 454.465 454.713 454.93 455.175 455.275 455.263 455.16 455.19 455.215 455.188 455.178 455.158 455.058 455.08 455.13 455.228 455.225 455.225 455.13 454.988 454.833 454.695 454.613 454.633 454.703 454.653 454.65 454.608 454.618 454.548 454.44 454.358 454.3 454.435 453.958 453.618 453.488 453.48 453.313 453.25 453.103 452.88 452.653 452.43 452.248 452.118 451.923 451.755 451.62 451.473 451.273 451.048 450.738 450.44 450.195 450.07 449.75 449.483 448.948 448.435 447.945 447.43 447.038 446.77 446.463 446.065 445.73 445.388 445.008 444.615 444.255 443.915 443.555 443.218 442.893 442.64 442.32 441.935 441.518 441.203 441.06 440.925 440.765 440.493 440.403 440.373 440.405 441.028 441.82 442.15 442.53 442.748 442.968 443.02 443.13 443.305 443.188 443.175 443.4 443.365 443.358 443.41 443.428 443.42 443.45 443.473 443.515 443.48 443.438 443.368 443.333 443.383 443.205 443.18 443.115 442.97 442.89 442.818 442.668 442.518 442.415 442.22 442.078 442.005 441.85 441.768 441.683 441.518 441.35 441.29 441.045 440.728 440.47 440.488 440.438 440.308 440.13 439.958 439.723 439.58 439.375 439.25 439.143 439.035 438.848 438.74 438.668 438.523 438.315 438.22 438.035 437.92 437.803 437.683 437.535 437.34 437.085 436.943 436.74 436.475 436.658 436.578 436.515 436.37 436.303 436.2 436.043 435.86 435.767 435.677
-9999 -9999 -9999 -9999 -9999 -9999 -9999 -9999 -9999 -9999 -9999 -9999 -9999 -9999 -9999 -9999 -9999 -9999 -9999 -9999 -9999 -9999 -9999 -9999 -9999 -9999 -9999 -9999 -9999 -9999 -9999 -9999 -9999 -9999 -9999 -9999 -9999 -9999 -9999 -9999 -9999 -9999 -9999 -9999 -9999 -9999 -9999 -9999 -9999 -9999 -9999 -9999 -9999 -9999 -9999 -9999 -9999 -9999 -9999 -9999 -9999 -9999 -9999 -9999 -9999 -9999 -9999 -9999 -9999 -9999 -9999 -9999 -9999 -9999 -9999 -9999 -9999 -9999 -9999 -9999 -9999 -9999 -9999 -9999 -9999 -9999 -9999 -9999 -9999 -9999 -9999 -9999 -9999 -9999 -9999 -9999 -9999 -9999 -9999 -9999 -9999 -9999 -9999 -9999 -9999 -9999 -9999 -9999 -9999 -9999 -9999 -9999 -9999 -9999 -9999 -9999 -9999 -9999 -9999 -9999 -9999 -9999 -9999 -9999 -9999 -9999 -9999 -9999 -9999 -9999 -9999 -9999 -9999 -9999 -9999 -9999 -9999 -9999 -9999 -9999 -9999 -9999 -9999 -9999 -9999 -9999 -9999 -9999 -9999 -9999 -9999 -9999 -9999 -9999 -9999 -9999 -9999 -9999 -9999 -9999 -9999 -9999 -9999 -9999 -9999 -9999 -9999 -9999 -9999 -9999 -9999 -9999 -9999 -9999 -9999 -9999 -9999 -9999 -9999 -9999 -9999 -9999 -9999 -9999 -9999 -9999 -9999 -9999 -9999 469.183 468.91 468.708 468.578 468.35 468.285 467.91 467.54 467.128 466.765 466.453 466.098 465.763 465.433 465.033 464.628 464.143 463.728 463.293 462.828 462.32 462.005 461.73 461.31 460.79 460.4 459.923 459.318 458.743 458.27 458.055 457.885 457.833 457.715 457.705 457.72 457.723 457.738 457.713 457.7 457.671 457.61 457.583 457.495 457.4 457.328 457.173 456.918 456.495 455.883 455.73 455.843 456.033 456.2 456.253 456.243 456.175 456.088 455.908 455.798 455.81 455.773 455.6 455.398 455.275 455.193 455.095 455.015 454.978 454.818 454.63 454 453.738 453.898 453.528 453.758 454.125 454.365 454.61 454.64 454.563 454.65 454.693 454.685 454.765 454.69 454.658 454.643 454.745 454.828 454.773 454.685 454.568 454.475 454.353 454.335 454.28 454.308 454.338 454.31 454.34 454.273 454.22 454.188 454.1 453.963 453.958 453.798 453.633 453.308 453.223 453.095 452.913 452.793 452.72 452.53 452.365 452.153 451.895 451.7 451.508 451.365 451.218 451.1 450.875 450.61 450.295 450.018 449.808 449.678 449.225 448.993 448.533 447.99 447.513 447.005 446.508 446.253 445.968 445.653 445.335 444.943 444.553 444.138 443.815 443.498 443.165 442.783 442.388 442.068 441.683 441.24 440.768 440.563 440.413 440.313 440.12 439.893 439.813 439.808 440.198 441.01 441.588 441.82 442.108 442.37 442.668 442.733 442.795 442.993 442.823 442.76 442.988 443.023 443.068 443.09 443.153 443.133 443.103 443.135 443.148 443.203 443.155 443.07 442.95 442.918 442.835 442.723 442.75 442.663 442.578 442.493 442.268 442.11 442.033 441.833 441.685 441.713 441.523 441.365 441.223 441.105 440.953 440.838 440.605 440.335 440.123 440.105 440.025 439.95 439.815 439.608 439.318 439.173 438.998 438.853 438.72 438.613 438.443 438.39 438.308 438.113 437.973 437.868 437.668 437.478 437.325 437.238 437.143 436.923 436.59 436.538 436.163 436.133 436.023 436.143 436.073 435.88 435.81 435.675 435.535 435.395 435.272 435.35
-9999 -9999 -9999 -9999 -9999 -9999 -9999 -9999 -9999 -9999 -9999 -9999 -9999 -9999 -9999 -9999 -9999 -9999 -9999 -9999 -9999 -9999 -9999 -9999 -9999 -9999 -9999 -9999 -9999 -9999 -9999 -9999 -9999 -9999 -9999 -9999 -9999 -9999 -9999 -9999 -9999 -9999 -9999 -9999 -9999 -9999 -9999 -9999 -9999 -9999 -9999 -9999 -9999 -9999 -9999 -9999 -9999 -9999 -9999 -9999 -9999 -9999 -9999 -9999 -9999 -9999 -9999 -9999 -9999 -9999 -9999 -9999 -9999 -9999 -9999 -9999 -9999 -9999 -9999 -9999 -9999 -9999 -9999 -9999 -9999 -9999 -9999 -9999 -9999 -9999 -9999 -9999 -9999 -9999 -9999 -9999 -9999 -9999 -9999 -9999 -9999 -9999 -9999 -9999 -9999 -9999 -9999 -9999 -9999 -9999 -9999 -9999 -9999 -9999 -9999 -9999 -9999 -9999 -9999 -9999 -9999 -9999 -9999 -9999 -9999 -9999 -9999 -9999 -9999 -9999 -9999 -9999 -9999 -9999 -9999 -9999 -9999 -9999 -9999 -9999 -9999 -9999 -9999 -9999 -9999 -9999 -9999 -9999 -9999 -9999 -9999 -9999 -9999 -9999 -9999 -9999 -9999 -9999 -9999 -9999 -9999 -9999 -9999 -9999 -9999 -9999 -9999 -9999 -9999 -9999 -9999 -9999 -9999 -9999 -9999 -9999 -9999 -9999 -9999 -9999 -9999 -9999 -9999 -9999 -9999 -9999 -9999 -9999 468.788 468.708 468.433 468.51 468.163 467.793 467.46 467.111 466.928 466.668 466.301 465.975 465.548 465.183 464.838 464.428 463.995 463.503 463.098 462.62 462.19 461.85 461.505 461.176 460.805 460.413 459.993 459.498 458.968 458.508 458.035 457.775 457.588 457.445 457.308 457.275 457.368 457.418 457.41 457.318 457.27 457.183 457.133 457.093 457.025 456.905 456.793 456.67 456.483 456.155 455.713 455.468 455.26 455.495 455.703 455.733 455.66 455.638 455.54 455.38 455.328 455.245 455.145 454.978 454.845 454.723 454.623 454.495 454.423 454.31 454.125 453.74 453.09 452.855 453.608 453.6 452.963 453.33 453.59 453.778 453.98 453.945 454.018 454.103 454.143 454.195 454.275 454.303 454.283 454.308 454.303 454.275 454.218 454.16 454.13 454.09 454.01 454 454.025 454.053 454.03 453.993 453.965 453.86 453.795 453.765 453.668 453.553 453.485 453.47 452.985 452.935 452.738 452.533 452.375 452.258 452.155 451.935 451.755 451.508 451.305 451.16 450.925 450.738 450.603 450.443 450.23 449.915 449.603 449.27 449.073 448.8 448.358 448.025 447.555 447.053 446.585 446.133 445.768 445.488 445.108 444.768 444.44 444.063 443.653 443.358 442.968 442.573 442.213 441.788 441.4 440.958 440.518 440.16 439.963 439.808 439.635 439.438 439.235 439.205 439.55 440.398 441.083 441.383 441.618 441.88 442.048 442.208 442.275 442.338 442.558 442.353 442.53 442.673 442.748 442.695 442.67 442.74 442.713 442.748 442.763 442.76 442.818 442.833 442.715 442.543 442.558 442.455 442.268 442.343 442.285 442.188 442.088 441.9 441.788 441.58 441.48 441.323 441.318 441.17 441.038 440.878 440.71 440.518 440.33 440.2 439.995 439.735 439.7 439.61 439.51 439.405 439.243 438.96 438.838 438.628 438.558 438.328 438.153 438.018 437.945 437.838 437.645 437.548 437.553 437.298 437.093 436.96 436.845 436.693 436.515 436.293 436.105 435.848 435.845 435.715 435.77 435.635 435.443 435.223 435.168 435.045 434.955 434.865 434.892
-9999 -9999 -9999 -9999 -9999 -9999 -9999 -9999 -9999 -9999 -9999 -9999 -9999 -9999 -9999 -9999 -9999 -9999 -9999 -9999 -9999 -9999 -9999 -9999 -9999 -9999 -9999 -9999 -9999 -9999 -9999 -9999 -9999 -9999 -9999 -9999 -9999 -9999 -9999 -9999 -9999 -9999 -9999 -9999 -9999 -9999 -9999 -9999 -9999 -9999 -9999 -9999 -9999 -9999 -9999 -9999 -9999 -9999 -9999 -9999 -9999 -9999 -9999 -9999 -9999 -9999 -9999 -9999 -9999 -9999 -9999 -9999 -9999 -9999 -9999 -9999 -9999 -9999 -9999 -9999 -9999 -9999 -9999 -9999 -9999 -9999 -9999 -9999 -9999 -9999 -9999 -9999 -9999 -9999 -9999 -9999 -9999 -9999 -9999 -9999 -9999 -9999 -9999 -9999 -9999 -9999 -9999 -9999 -9999 -9999 -9999 -9999 -9999 -9999 -9999 -9999 -9999 -9999 -9999 -9999 -9999 -9999 -9999 -9999 -9999 -9999 -9999 -9999 -9999 -9999 -9999 -9999 -9999 -9999 -9999 -9999 -9999 -9999 -9999 -9999 -9999 -9999 -9999 -9999 -9999 -9999 -9999 -9999 -9999 -9999 -9999 -9999 -9999 -9999 -9999 -9999 -9999 -9999 -9999 -9999 -9999 -9999 -9999 -9999 -9999 -9999 -9999 -9999 -9999 -9999 -9999 -9999 -9999 -9999 -9999 -9999 -9999 -9999 -9999 -9999 -9999 -9999 -9999 -9999 -9999 -9999 -9999 468.548 468.345 468.2 468.033 467.71 467.343 467.113 466.833 466.595 466.385 466.148 465.728 465.355 464.893 464.518 464.225 463.783 463.255 462.796 462.418 462.03 461.645 461.31 461.01 460.688 460.283 459.918 459.57 459.145 458.705 458.265 457.788 457.453 457.28 457.135 456.993 456.94 456.94 457.033 457.005 456.915 456.805 456.74 456.688 456.643 456.54 456.41 456.308 456.153 456.005 455.788 455.59 455.268 454.89 454.958 455.188 455.265 455.223 455.135 455.025 454.945 454.883 454.768 454.613 454.46 454.368 454.185 454.015 453.86 453.693 453.608 453.335 452.955 452.74 452.638 452.913 453.14 452.753 453.048 453.085 453.27 453.418 453.503 453.575 453.623 453.658 453.7 453.863 453.838 453.89 453.953 453.94 453.908 453.893 453.843 453.863 453.835 453.788 453.748 453.755 453.753 453.74 453.693 453.568 453.445 453.363 453.348 453.293 453.15 453.105 453.09 452.728 452.533 452.37 452.223 452 451.828 451.713 451.548 451.358 451.185 450.958 450.775 450.513 450.323 450.155 449.95 449.728 449.51 449.128 448.768 448.475 448.26 447.873 447.483 447.085 446.6 446.063 445.7 445.3 444.88 444.485 444.228 443.895 443.515 443.083 442.725 442.375 442.03 441.59 441.18 440.72 440.205 439.828 439.565 439.423 439.233 438.9 438.533 438.35 438.805 439.613 440.463 440.875 441.188 441.415 441.658 441.778 441.843 441.89 441.973 442.158 442.058 442.16 442.235 442.313 442.315 442.35 442.338 442.37 442.383 442.395 442.47 442.418 442.355 442.225 442.05 442.123 442.003 441.925 441.903 441.875 441.86 441.738 441.598 441.468 441.305 441.11 440.983 440.825 440.758 440.653 440.485 440.365 440.095 439.88 439.778 439.66 439.458 439.293 439.21 439.13 439.008 438.853 438.658 438.455 438.26 438.128 437.955 437.77 437.64 437.555 437.403 437.265 437.115 436.973 436.885 436.678 436.618 436.49 436.313 436.13 435.925 435.738 435.555 435.6 435.613 435.433 435.253 435.06 434.863 434.793 434.695 434.563 434.425 434.665
-9999 -9999 -9999 -9999 -9999 -9999 -9999 -9999 -9999 -9999 -9999 -9999 -9999 -9999 -9999 -9999 -9999 -9999 -9999 -9999 -9999 -9999 -9999 -9999 -9999 -9999 -9999 -9999 -9999 -9999 -9999 -9999 -9999 -9999 -9999 -9999 -9999 -9999 -9999 -9999 -9999 -9999 -9999 -9999 -9999 -9999 -9999 -9999 -9999 -9999 -9999 -9999 -9999 -9999 -9999 -9999 -9999 -9999 -9999 -9999 -9999 -9999 -9999 -9999 -9999 -9999 -9999 -9999 -9999 -9999 -9999 -9999 -9999 -9999 -9999 -9999 -9999 -9999 -9999 -9999 -9999 -9999 -9999 -9999 -9999 -9999 -9999 -9999 -9999 -9999 -9999 -9999 -9999 -9999 -9999 -9999 -9999 -9999 -9999 -9999 -9999 -9999 -9999 -9999 -9999 -9999 -9999 -9999 -9999 -9999 -9999 -9999 -9999 -9999 -9999 -9999 -9999 -9999 -9999 -9999 -9999 -9999 -9999 -9999 -9999 -9999 -9999 -9999 -9999 -9999 -9999 -9999 -9999 -9999 -9999 -9999 -9999 -9999 -9999 -9999 -9999 -9999 -9999 -9999 -9999 -9999 -9999 -9999 -9999 -9999 -9999 -9999 -9999 -9999 -9999 -9999 -9999 -9999 -9999 -9999 -9999 -9999 -9999 -9999 -9999 -9999 -9999 -9999 -9999 -9999 -9999 -9999 -9999 -9999 -9999 -9999 -9999 -9999 -9999 -9999 -9999 -9999 -9999 -9999 -9999 -9999 -9999 468.29 467.935 467.583 467.23 466.995 466.801 466.638 466.375 466.183 465.985 465.533 465.12 464.671 464.223 463.905 463.515 463.063 462.558 462.043 461.675 461.418 461.04 460.79 460.555 460.213 459.953 459.588 459.173 458.825 458.46 457.973 457.64 457.185 457.085 456.895 456.728 456.623 456.57 456.61 456.57 456.53 456.458 456.38 456.333 456.238 456.168 455.988 455.853 455.713 455.695 455.618 455.31 454.928 454.538 454.385 454.79 454.87 454.793 454.688 454.623 454.525 454.425 454.31 454.168 454.085 453.948 453.773 453.468 453.2 453.035 452.838 452.635 452.423 452.395 452.345 452.43 452.84 452.425 452.665 452.788 452.815 452.983 453.143 453.243 453.275 453.345 453.318 453.36 453.418 453.558 453.638 453.735 453.708 453.7 453.668 453.623 453.635 453.598 453.523 453.495 453.483 453.363 453.263 453.175 453.013 452.973 452.948 452.908 452.83 452.71 452.59 452.533 452.015 452.005 451.88 451.69 451.425 451.225 451.12 450.983 450.843 450.585 450.408 450.16 449.915 449.715 449.51 449.273 449.043 448.775 448.518 448.173 447.79 447.403 447.023 446.6 446.133 445.643 445.228 444.845 444.463 444.085 443.773 443.43 443.048 442.508 442.093 441.743 441.455 441.018 440.515 440.008 439.573 439.203 439.013 438.915 438.548 438.07 437.853 438.058 438.898 439.783 440.333 440.618 440.875 441.1 441.388 441.52 441.555 441.53 441.695 441.83 441.75 441.935 441.86 441.913 441.94 441.958 441.948 442.03 442.03 442.06 442.095 442.045 441.925 441.77 441.693 441.695 441.65 441.6 441.553 441.368 441.47 441.34 441.2 441.143 441.023 440.853 440.715 440.53 440.33 440.158 439.978 439.938 439.723 439.515 439.385 439.243 439.115 438.933 438.8 438.8 438.615 438.47 438.31 438.12 437.925 437.73 437.598 437.428 437.243 437.193 437.008 436.82 436.743 436.598 436.423 436.27 436.14 436.055 435.938 435.763 435.478 435.365 435.343 435.348 435.165 434.985 434.808 434.635 434.445 434.33 434.263 434.093 434.102 436.36
-9999 -9999 -9999 -9999 -9999 -9999 -9999 -9999 -9999 -9999 -9999 -9999 -9999 -9999 -9999 -9999 -9999 -9999 -9999 -9999 -9999 -9999 -9999 -9999 -9999 -9999 -9999 -9999 -9999 -9999 -9999 -9999 -9999 -9999 -9999 -9999 -9999 -9999 -9999 -9999 -9999 -9999 -9999 -9999 -9999 -9999 -9999 -9999 -9999 -9999 -9999 -9999 -9999 -9999 -9999 -9999 -9999 -9999 -9999 -9999 -9999 -9999 -9999 -9999 -9999 -9999 -9999 -9999 -9999 -9999 -9999 -9999 -9999 -9999 -9999 -9999 -9999 -9999 -9999 -9999 -9999 -9999 -9999 -9999 -9999 -9999 -9999 -9999 -9999 -9999 -9999 -9999 -9999 -9999 -9999 -9999 -9999 -9999 -9999 -9999 -9999 -9999 -9999 -9999 -9999 -9999 -9999 -9999 -9999 -9999 -9999 -9999 -9999 -9999 -9999 -9999 -9999 -9999 -9999 -9999 -9999 -9999 -9999 -9999 -9999 -9999 -9999 -9999 -9999 -9999 -9999 -9999 -9999 -9999 -9999 -9999 -9999 -9999 -9999 -9999 -9999 -9999 -9999 -9999 -9999 -9999 -9999 -9999 -9999 -9999 -9999 -9999 -9999 -9999 -9999 -9999 -9999 -9999 -9999 -9999 -9999 -9999 -9999 -9999 -9999 -9999 -9999 -9999 -9999 -9999 -9999 -9999 -9999 -9999 -9999 -9999 -9999 -9999 -9999 -9999 -9999 -9999 -9999 -9999 -9999 -9999 467.901 467.703 467.443 467.078 466.655 466.508 466.348 466.183 465.993 465.803 465.445 464.945 464.543 464.005 463.538 463.238 462.813 462.39 461.895 461.418 461.145 460.955 460.558 460.42 460.06 459.833 459.548 459.223 458.85 458.54 458.143 457.796 457.508 457.195 456.88 456.693 456.508 456.398 456.325 456.26 456.243 456.218 456.16 456.085 455.983 455.898 455.83 455.67 455.518 455.343 455.19 455.025 454.798 454.51 454.168 454.083 454.425 454.505 454.348 454.32 454.238 454.108 453.945 453.805 453.76 453.753 453.613 453.345 453.023 452.713 452.41 452.14 452.085 452.07 452.108 452.103 452.18 452.555 452.225 452.22 452.243 452.385 452.633 452.81 452.865 452.905 453.033 453.02 453.095 453.213 453.365 453.408 453.435 453.513 453.513 453.483 453.48 453.473 453.433 453.313 453.173 453.158 453.02 452.883 452.773 452.693 452.663 452.575 452.483 452.39 452.3 452.198 452.063 451.69 451.563 451.505 451.318 451.065 450.783 450.66 450.533 450.408 450.168 449.925 449.728 449.523 449.323 449.058 448.81 448.57 448.418 448.015 447.645 447.38 446.943 446.553 446.178 445.84 445.33 444.933 444.545 444.14 443.743 443.428 442.915 442.448 441.973 441.578 441.203 440.858 440.445 439.91 439.405 439.025 438.8 438.523 438.305 437.84 437.33 437.513 438.18 439.085 439.72 440.103 440.405 440.54 440.795 441.018 441.208 441.2 441.185 441.355 441.273 441.35 441.575 441.468 441.468 441.525 441.54 441.583 441.668 441.668 441.693 441.708 441.643 441.505 441.435 441.405 441.32 441.27 441.238 441.16 441.13 440.973 440.858 440.835 440.74 440.688 440.553 440.4 440.313 440.02 439.753 439.535 439.478 439.293 439.035 439.035 438.915 438.755 438.555 438.375 438.355 438.263 438.11 437.93 437.785 437.59 437.373 437.133 436.993 436.835 436.715 436.573 436.415 436.338 436.155 436.003 435.87 435.73 435.578 435.495 435.345 435.113 434.933 434.803 434.658 434.578 434.39 434.283 434.158 434.01 433.91 433.86 433.593 433.865 437.545
-9999 -9999 -9999 -9999 -9999 -9999 -9999 -9999 -9999 -9999 -9999 -9999 -9999 -9999 -9999 -9999 -9999 -9999 -9999 -9999 -9999 -9999 -9999 -9999 -9999 -9999 -9999 -9999 -9999 -9999 -9999 -9999 -9999 -9999 -9999 -9999 -9999 -9999 -9999 -9999 -9999 -9999 -9999 -9999 -9999 -9999 -9999 -9999 -9999 -9999 -9999 -9999 -9999 -9999 -9999 -9999 -9999 -9999 -9999 -9999 -9999 -9999 -9999 -9999 -9999 -9999 -9999 -9999 -9999 -9999 -9999 -9999 -9999 -9999 -9999 -9999 -9999 -9999 -9999 -9999 -9999 -9999 -9999 -9999 -9999 -9999 -9999 -9999 -9999 -9999 -9999 -9999 -9999 -9999 -9999 -9999 -9999 -9999 -9999 -9999 -9999 -9999 -9999 -9999 -9999 -9999 -9999 -9999 -9999 -9999 -9999 -9999 -9999 -9999 -9999 -9999 -9999 -9999 -9999 -9999 -9999 -9999 -9999 -9999 -9999 -9999 -9999 -9999 -9999 -9999 -9999 -9999 -9999 -9999 -9999 -9999 -9999 -9999 -9999 -9999 -9999 -9999 -9999 -9999 -9999 -9999 -9999 -9999 -9999 -9999 -9999 -9999 -9999 -9999 -9999 -9999 -9999 -9999 -9999 -9999 -9999 -9999 -9999 -9999 -9999 -9999 -9999 -9999 -9999 -9999 -9999 -9999 -9999 -9999 -9999 -9999 -9999 -9999 -9999 -9999 -9999 -9999 -9999 -9999 -9999 467.568 467.425 467.308 466.893 466.703 466.323 466.113 465.873 465.688 465.41 465.171 464.763 464.388 463.928 463.383 462.833 462.493 462.171 461.755 461.361 461.025 460.78 460.55 460.16 459.99 459.663 459.425 459.153 458.9 458.563 458.303 457.933 457.58 457.258 457.068 456.645 456.445 456.303 456.185 456.108 455.93 455.95 455.853 455.9 455.798 455.768 455.643 455.45 455.278 455.12 454.878 454.68 454.415 454.263 454.06 453.758 453.528 453.933 453.935 453.863 453.805 453.768 453.565 453.4 453.208 453.12 453.155 453.128 452.863 452.568 452.208 452.018 451.84 451.74 451.753 451.848 451.968 452 452.47 452.02 452 452.075 452.135 452.313 452.483 452.62 452.64 452.678 452.718 452.95 453.018 453.208 453.208 453.27 453.293 453.325 453.353 453.305 453.208 453.108 453.108 452.983 452.835 452.673 452.593 452.52 452.39 452.285 452.205 452.075 452.02 451.923 451.78 451.608 451.438 451.095 451.085 450.953 450.753 450.41 450.175 450.043 449.95 449.79 449.51 449.288 449.073 448.858 448.525 448.278 448.033 447.935 447.355 447.15 446.87 446.565 446.183 445.79 445.385 444.953 444.615 444.148 443.748 443.315 442.908 442.445 442.01 441.5 441.148 440.67 440.283 439.805 439.283 438.813 438.468 438.235 438.06 437.715 437.11 436.915 437.47 438.298 439.07 439.483 439.838 440.22 440.32 440.48 440.663 440.733 440.745 440.983 441.028 440.938 441.098 441.225 441.168 441.118 441.148 441.15 441.26 441.335 441.313 441.353 441.355 441.335 441.18 441.173 441.135 440.955 440.908 440.918 440.823 440.71 440.555 440.463 440.425 440.305 440.163 440.145 440.025 439.91 439.718 439.485 439.175 438.968 438.89 438.668 438.498 438.495 438.415 438.188 438.035 438.028 437.998 437.82 437.565 437.388 437.248 436.983 436.715 436.528 436.34 436.235 436.173 436.04 435.915 435.73 435.563 435.418 435.223 434.76 435.01 434.925 434.7 434.305 433.865 433.523 433.43 433.443 433.578 433.565 433.433 433.43 433.22 432.888 432.597 436.565
-9999 -9999 -9999 -9999 -9999 -9999 -9999 -9999 -9999 -9999 -9999 -9999 -9999 -9999 -9999 -9999 -9999 -9999 -9999 -9999 -9999 -9999 -9999 -9999 -9999 -9999 -9999 -9999 -9999 -9999 -9999 -9999 -9999 -9999 -9999 -9999 -9999 -9999 -9999 -9999 -9999 -9999 -9999 -9999 -9999 -9999 -9999 -9999 -9999 -9999 -9999 -9999 -9999 -9999 -9999 -9999 -9999 -9999 -9999 -9999 -9999 -9999 -9999 -9999 -9999 -9999 -9999 -9999 -9999 -9999 -9999 -9999 -9999 -9999 -9999 -9999 -9999 -9999 -9999 -9999 -9999 -9999 -9999 -9999 -9999 -9999 -9999 -9999 -9999 -9999 -9999 -9999 -9999 -9999 -9999 -9999 -9999 -9999 -9999 -9999 -9999 -9999 -9999 -9999 -9999 -9999 -9999 -9999 -9999 -9999 -9999 -9999 -9999 -9999 -9999 -9999 -9999 -9999 -9999 -9999 -9999 -9999 -9999 -9999 -9999 -9999 -9999 -9999 -9999 -9999 -9999 -9999 -9999 -9999 -9999 -9999 -9999 -9999 -9999 -9999 -9999 -9999 -9999 -9999 -9999 -9999 -9999 -9999 -9999 -9999 -9999 -9999 -9999 -9999 -9999 -9999 -9999 -9999 -9999 -9999 -9999 -9999 -9999 -9999 -9999 -9999 -9999 -9999 -9999 -9999 -9999 -9999 -9999 -9999 -9999 -9999 -9999 -9999 -9999 -9999 -9999 -9999 -9999 -9999 -9999 466.8 466.995 466.73 466.468 466.245 465.91 465.62 465.363 465.11 464.798 464.48 464.155 463.75 463.303 462.713 462.16 461.748 461.453 461.13 460.805 460.425 460.155 459.968 459.723 459.525 459.265 459.083 458.838 458.538 458.263 457.983 457.615 457.345 457.113 456.78 456.45 456.163 456.113 455.93 455.795 455.72 455.633 455.565 455.533 455.46 455.405 455.268 455.073 454.868 454.693 454.498 454.233 453.945 453.75 453.58 453.265 452.928 453.303 453.425 453.395 453.208 453.135 452.96 452.865 452.688 452.54 452.523 452.415 452.38 452.21 451.815 451.568 451.585 451.525 451.595 451.695 451.545 451.613 451.965 451.89 451.71 451.783 451.938 452.045 452.2 452.32 452.39 452.438 452.538 452.61 452.673 452.73 452.87 452.965 452.943 453.028 453.04 452.923 452.843 452.723 452.728 452.663 452.563 452.428 452.36 452.19 452.078 451.97 451.825 451.69 451.585 451.493 451.363 451.295 451.155 450.77 450.67 450.563 450.36 450.043 449.768 449.563 449.425 449.26 449.065 448.833 448.57 448.33 448.01 447.743 447.45 447.273 446.968 446.678 446.318 446.033 445.6 445.178 444.82 444.433 444.095 443.673 443.303 442.848 442.405 441.973 441.52 441.1 440.595 440.098 439.67 439.168 438.675 438.268 437.898 437.71 437.55 437.045 436.51 436.658 437.513 438.33 438.848 439.163 439.488 439.85 440.048 440.223 440.34 440.33 440.495 440.683 440.635 440.638 440.803 440.858 440.87 440.873 440.843 440.785 440.808 440.848 440.925 440.96 440.933 440.905 440.763 440.763 440.745 440.598 440.568 440.565 440.425 440.29 440.178 440.138 439.96 439.828 439.73 439.698 439.665 439.568 439.365 439.16 438.928 438.68 438.578 438.365 438.148 438.073 438.023 437.825 437.74 437.728 437.625 437.42 437.21 436.995 436.775 436.518 436.278 436.063 435.91 435.743 435.718 435.615 435.445 435.353 435.21 435.03 434.753 433.885 434.19 434.418 434.185 433.495 433.028 432.69 432.48 432.465 432.66 432.748 432.645 432.57 432.445 431.99 432.02 436.442
-9999 -9999 -9999 -9999 -9999 -9999 -9999 -9999 -9999 -9999 -9999 -9999 -9999 -9999 -9999 -9999 -9999 -9999 -9999 -9999 -9999 -9999 -9999 -9999 -9999 -9999 -9999 -9999 -9999 -9999 -9999 -9999 -9999 -9999 -9999 -9999 -9999 -9999 -9999 -9999 -9999 -9999 -9999 -9999 -9999 -9999 -9999 -9999 -9999 -9999 -9999 -9999 -9999 -9999 -9999 -9999 -9999 -9999 -9999 -9999 -9999 -9999 -9999 -9999 -9999 -9999 -9999 -9999 -9999 -9999 -9999 -9999 -9999 -9999 -9999 -9999 -9999 -9999 -9999 -9999 -9999 -9999 -9999 -9999 -9999 -9999 -9999 -9999 -9999 -9999 -9999 -9999 -9999 -9999 -9999 -9999 -9999 -9999 -9999 -9999 -9999 -9999 -9999 -9999 -9999 -9999 -9999 -9999 -9999 -9999 -9999 -9999 -9999 -9999 -9999 -9999 -9999 -9999 -9999 -9999 -9999 -9999 -9999 -9999 -9999 -9999 -9999 -9999 -9999 -9999 -9999 -9999 -9999 -9999 -9999 -9999 -9999 -9999 -9999 -9999 -9999 -9999 -9999 -9999 -9999 -9999 -9999 -9999 -9999 -9999 -9999 -9999 -9999 -9999 -9999 -9999 -9999 -9999 -9999 -9999 -9999 -9999 -9999 -9999 -9999 -9999 -9999 -9999 -9999 -9999 -9999 -9999 -9999 -9999 -9999 -9999 -9999 -9999 -9999 -9999 -9999 -9999 -9999 -9999 466.355 465.823 466.35 466.373 466.095 465.82 465.515 465.16 464.838 464.488 464.18 463.861 463.508 463.058 462.553 462.138 461.505 460.75 460.56 460.463 460.255 459.893 459.69 459.49 459.328 459.093 458.87 458.715 458.52 458.293 458.03 457.785 457.495 457.195 456.863 456.59 456.295 455.94 455.8 455.65 455.505 455.348 455.203 455.208 455.18 455.095 455 454.83 454.71 454.498 454.373 454.143 453.87 453.673 453.343 453.1 452.798 452.563 452.645 452.72 452.73 452.615 452.513 452.4 452.34 452.22 452.083 451.97 451.878 451.81 451.688 451.443 451.263 451.26 451.255 451.363 451.445 451.243 451.293 451.565 451.7 451.415 451.44 451.62 451.793 451.945 452.075 452.183 452.268 452.405 452.38 452.398 452.423 452.483 452.575 452.625 452.623 452.633 452.563 452.483 452.383 452.308 452.278 452.31 452.173 452.015 451.748 451.663 451.518 451.385 451.31 451.153 451.003 450.91 450.758 450.668 450.578 450.398 450.253 450.005 449.715 449.445 449.163 448.94 448.785 448.62 448.335 448.083 447.8 447.503 447.265 447.14 446.825 446.568 446.215 445.87 445.473 445.048 444.608 444.213 443.953 443.57 443.168 442.765 442.36 441.963 441.483 441.005 440.498 440.023 439.59 439.093 438.573 438.095 437.773 437.495 437.245 436.983 436.333 435.78 436.478 437.433 438.208 438.64 438.845 439.208 439.585 439.755 439.97 439.918 440.045 440.295 440.3 440.26 440.32 440.43 440.478 440.603 440.608 440.543 440.528 440.465 440.38 440.473 440.535 440.56 440.553 440.443 440.385 440.318 440.2 440.273 440.16 440.028 439.805 439.738 439.723 439.64 439.428 439.295 439.325 439.328 439.25 439.06 438.828 438.653 438.373 438.255 438.09 437.883 437.723 437.575 437.458 437.403 437.375 437.208 437.01 436.85 436.638 436.305 436.058 435.868 435.728 435.613 435.3 435.21 435.123 434.998 434.9 434.733 434.488 434.195 433.543 433.195 433.59 433.388 432.898 432.478 432.063 431.73 431.448 431.655 431.963 431.785 431.678 431.58 431.023 430.985 435.92
-9999 -9999 -9999 -9999 -9999 -9999 -9999 -9999 -9999 -9999 -9999 -9999 -9999 -9999 -9999 -9999 -9999 -9999 -9999 -9999 -9999 -9999 -9999 -9999 -9999 -9999 -9999 -9999 -9999 -9999 -9999 -9999 -9999 -9999 -9999 -9999 -9999 -9999 -9999 -9999 -9999 -9999 -9999 -9999 -9999 -9999 -9999 -9999 -9999 -9999 -9999 -9999 -9999 -9999 -9999 -9999 -9999 -9999 -9999 -9999 -9999 -9999 -9999 -9999 -9999 -9999 -9999 -9999 -9999 -9999 -9999 -9999 -9999 -9999 -9999 -9999 -9999 -9999 -9999 -9999 -9999 -9999 -9999 -9999 -9999 -9999 -9999 -9999 -9999 -9999 -9999 -9999 -9999 -9999 -9999 -9999 -9999 -9999 -9999 -9999 -9999 -9999 -9999 -9999 -9999 -9999 -9999 -9999 -9999 -9999 -9999 -9999 -9999 -9999 -9999 -9999 -9999 -9999 -9999 -9999 -9999 -9999 -9999 -9999 -9999 -9999 -9999 -9999 -9999 -9999 -9999 -9999 -9999 -9999 -9999 -9999 -9999 -9999 -9999 -9999 -9999 -9999 -9999 -9999 -9999 -9999 -9999 -9999 -9999 -9999 -9999 -9999 -9999 -9999 -9999 -9999 -9999 -9999 -9999 -9999 -9999 -9999 -9999 -9999 -9999 -9999 -9999 -9999 -9999 -9999 -9999 -9999 -9999 -9999 -9999 -9999 -9999 -9999 -9999 -9999 -9999 -9999 -9999 466.738 466.643 465.638 465.51 465.848 465.546 465.335 465.055 464.685 464.296 463.965 463.645 463.263 462.81 462.405 461.93 461.39 460.515 459.858 459.801 459.801 459.715 459.473 459.305 459.083 458.928 458.755 458.568 458.405 458.155 457.965 457.753 457.44 457.185 456.938 456.685 456.433 456.165 455.755 455.486 455.313 455.183 455.01 454.926 454.81 454.745 454.785 454.64 454.523 454.408 454.125 453.968 453.763 453.483 453.32 453.093 452.708 452.35 452.173 451.965 452.008 452.023 452.02 451.938 451.868 451.778 451.668 451.593 451.468 451.395 451.38 451.233 451.065 450.95 450.858 450.853 450.828 450.93 450.968 451.025 451.133 451.578 451.295 451.35 451.43 451.593 451.76 451.878 451.953 452.065 452.11 452.123 452.125 452.15 452.158 452.185 452.283 452.31 452.273 452.23 452.175 452.053 451.945 451.873 451.888 451.825 451.585 451.358 451.205 451.07 450.988 450.95 450.75 450.598 450.458 450.325 450.213 450.2 450.06 449.828 449.613 449.445 449.028 448.82 448.598 448.385 448.13 447.85 447.7 447.425 447.105 446.903 446.74 446.413 446.075 445.693 445.305 444.898 444.563 444.145 443.728 443.44 443.103 442.68 442.303 441.895 441.433 440.895 440.403 439.893 439.4 439.02 438.48 438.003 437.613 437.4 437.13 436.733 436.228 435.418 435.258 436.318 437.31 438.105 438.54 438.598 438.875 439.253 439.338 439.468 439.565 439.82 439.9 439.923 439.873 439.988 440.07 440.113 440.185 440.195 440.095 440.103 440.05 439.985 440.093 440.138 440.218 440.218 440.148 439.898 439.818 439.815 439.89 439.848 439.585 439.518 439.38 439.303 439.248 439.13 439.063 438.905 438.9 438.858 438.598 438.448 438.355 438.085 437.905 437.805 437.683 437.468 437.185 437.05 436.933 436.89 436.688 436.553 436.405 436.225 435.953 435.675 435.518 435.385 435.248 434.96 434.698 434.573 434.355 434.298 434.205 433.893 433.543 433.103 432.645 432.83 432.77 432.583 432.075 431.56 431.135 430.84 430.9 431.223 431.22 431.12 430.945 430.545 432.725 436.97
-9999 -9999 -9999 -9999 -9999 -9999 -9999 -9999 -9999 -9999 -9999 -9999 -9999 -9999 -9999 -9999 -9999 -9999 -9999 -9999 -9999 -9999 -9999 -9999 -9999 -9999 -9999 -9999 -9999 -9999 -9999 -9999 -9999 -9999 -9999 -9999 -9999 -9999 -9999 -9999 -9999 -9999 -9999 -9999 -9999 -9999 -9999 -9999 -9999 -9999 -9999 -9999 -9999 -9999 -9999 -9999 -9999 -9999 -9999 -9999 -9999 -9999 -9999 -9999 -9999 -9999 -9999 -9999 -9999 -9999 -9999 -9999 -9999 -9999 -9999 -9999 -9999 -9999 -9999 -9999 -9999 -9999 -9999 -9999 -9999 -9999 -9999 -9999 -9999 -9999 -9999 -9999 -9999 -9999 -9999 -9999 -9999 -9999 -9999 -9999 -9999 -9999 -9999 -9999 -9999 -9999 -9999 -9999 -9999 -9999 -9999 -9999 -9999 -9999 -9999 -9999 -9999 -9999 -9999 -9999 -9999 -9999 -9999 -9999 -9999 -9999 -9999 -9999 -9999 -9999 -9999 -9999 -9999 -9999 -9999 -9999 -9999 -9999 -9999 -9999 -9999 -9999 -9999 -9999 -9999 -9999 -9999 -9999 -9999 -9999 -9999 -9999 -9999 -9999 -9999 -9999 -9999 -9999 -9999 -9999 -9999 -9999 -9999 -9999 -9999 -9999 -9999 -9999 -9999 -9999 -9999 -9999 -9999 -9999 -9999 -9999 -9999 -9999 -9999 -9999 -9999 -9999 -9999 466.098 466.143 465.603 464.88 465.263 464.878 464.678 464.508 464.24 463.865 463.463 463.023 462.553 462.213 461.785 461.24 460.546 459.873 459.535 459.438 459.378 459.34 459.058 458.903 458.678 458.6 458.438 458.288 458.083 457.823 457.653 457.448 457.208 456.928 456.695 456.46 456.143 455.9 455.575 455.268 455.13 454.983 454.723 454.53 454.54 454.37 454.263 454.195 454.103 453.983 453.795 453.548 453.33 453.128 452.908 452.663 452.285 451.92 451.708 451.313 451.398 451.438 451.44 451.4 451.365 451.235 451.108 451.063 451.018 450.94 450.89 450.788 450.715 450.643 450.535 450.638 450.515 450.538 450.678 450.843 450.908 451.208 451.145 451.31 451.46 451.58 451.718 451.693 451.748 451.835 452.025 451.895 451.875 451.938 451.868 451.755 451.875 451.9 451.878 451.84 451.77 451.698 451.573 451.475 451.415 451.363 451.18 450.998 450.79 450.723 450.623 450.498 450.37 450.213 450.06 449.923 449.803 449.715 449.65 449.52 449.378 448.933 448.653 448.45 448.195 447.95 447.673 447.455 447.258 447.048 446.73 446.503 446.228 445.905 445.54 445.133 444.748 444.415 444.078 443.723 443.305 442.953 442.653 442.248 441.793 441.305 440.868 440.373 439.915 439.335 438.765 438.345 437.928 437.49 437.043 436.833 436.62 436.055 435.345 434.763 434.915 436.193 437.27 437.858 438.188 438.368 438.595 438.74 438.85 439.153 439.35 439.42 439.44 439.525 439.573 439.62 439.728 439.753 439.773 439.728 439.675 439.773 439.77 439.728 439.755 439.808 439.818 439.7 439.613 439.438 439.443 439.568 439.515 439.433 439.32 439.265 439.085 438.938 438.855 438.755 438.75 438.508 438.315 438.355 438.133 438.048 437.94 437.823 437.558 437.468 437.385 437.23 437.013 436.69 436.443 436.375 436.218 436.1 435.918 435.743 435.568 435.265 435.07 435.015 434.813 434.478 434.198 433.958 433.735 433.563 433.473 433.32 433.015 432.545 431.995 432.22 432.243 432.183 431.605 430.92 430.808 430.708 430.728 430.873 430.873 430.775 430.623 430.378 430.94 436.455
-9999 -9999 -9999 -9999 -9999 -9999 -9999 -9999 -9999 -9999 -9999 -9999 -9999 -9999 -9999 -9999 -9999 -9999 -9999 -9999 -9999 -9999 -9999 -9999 -9999 -9999 -9999 -9999 -9999 -9999 -9999 -9999 -9999 -9999 -9999 -9999 -9999 -9999 -9999 -9999 -9999 -9999 -9999 -9999 -9999 -9999 -9999 -9999 -9999 -9999 -9999 -9999 -9999 -9999 -9999 -9999 -9999 -9999 -9999 -9999 -9999 -9999 -9999 -9999 -9999 -9999 -9999 -9999 -9999 -9999 -9999 -9999 -9999 -9999 -9999 -9999 -9999 -9999 -9999 -9999 -9999 -9999 -9999 -9999 -9999 -9999 -9999 -9999 -9999 -9999 -9999 -9999 -9999 -9999 -9999 -9999 -9999 -9999 -9999 -9999 -9999 -9999 -9999 -9999 -9999 -9999 -9999 -9999 -9999 -9999 -9999 -9999 -9999 -9999 -9999 -9999 -9999 -9999 -9999 -9999 -9999 -9999 -9999 -9999 -9999 -9999 -9999 -9999 -9999 -9999 -9999 -9999 -9999 -9999 -9999 -9999 -9999 -9999 -9999 -9999 -9999 -9999 -9999 -9999 -9999 -9999 -9999 -9999 -9999 -9999 -9999 -9999 -9999 -9999 -9999 -9999 -9999 -9999 -9999 -9999 -9999 -9999 -9999 -9999 -9999 -9999 -9999 -9999 -9999 -9999 -9999 -9999 -9999 -9999 -9999 -9999 -9999 -9999 -9999 -9999 -9999 -9999 465.875 465.47 465.5 465.058 464.088 464.34 464.368 464.038 463.905 463.73 463.36 462.87 462.426 461.988 461.515 461.055 460.603 460.023 459.503 459.345 459.21 459.153 458.978 458.698 458.54 458.325 458.21 458.09 457.88 457.703 457.48 457.361 457.228 456.895 456.638 456.418 456.18 455.908 455.62 455.303 454.99 454.75 454.563 454.428 454.088 453.986 453.888 453.783 453.703 453.623 453.545 453.378 453.15 452.913 452.698 452.425 452.23 451.95 451.538 451.27 450.738 450.743 450.863 450.915 450.833 450.825 450.725 450.68 450.605 450.575 450.53 450.475 450.425 450.365 450.29 450.315 450.388 450.373 450.368 450.448 450.543 450.655 450.818 450.95 451.17 451.278 451.395 451.398 451.49 451.583 451.638 451.813 451.67 451.608 451.598 451.525 451.363 451.463 451.498 451.498 451.475 451.408 451.333 451.208 451.068 451.005 450.908 450.84 450.733 450.558 450.368 450.233 450.09 449.93 449.858 449.68 449.495 449.353 449.173 449.383 449.048 448.868 448.445 448.183 447.895 447.678 447.428 447.215 446.978 446.803 446.658 446.308 446.008 445.66 445.355 445.043 444.665 444.34 443.968 443.6 443.268 442.873 442.483 442.098 441.75 441.25 440.728 440.253 439.788 439.32 438.798 438.283 437.798 437.333 436.885 436.513 436.26 436.048 435.423 434.708 434.095 434.74 436.085 437.125 437.64 437.83 438.16 438.218 438.093 438.363 438.705 438.843 438.918 439.08 439.25 439.353 439.283 439.308 439.333 439.373 439.398 439.405 439.545 439.57 439.488 439.413 439.408 439.46 439.38 439.273 439.14 439.168 439.198 439.11 439.093 439.058 438.988 438.843 438.643 438.535 438.465 438.328 438.185 437.95 437.795 437.68 437.58 437.49 437.415 437.275 437.153 437.07 436.913 436.648 436.403 436.12 435.928 435.8 435.715 435.485 435.285 435.143 434.94 434.703 434.545 434.375 434.068 433.79 433.473 433.155 432.968 432.923 432.823 432.483 432.14 431.503 431.643 431.65 431.59 431.175 430.915 430.908 430.788 430.68 430.663 430.55 430.385 430.238 430.128 430.532 433.732
-9999 -9999 -9999 -9999 -9999 -9999 -9999 -9999 -9999 -9999 -9999 -9999 -9999 -9999 -9999 -9999 -9999 -9999 -9999 -9999 -9999 -9999 -9999 -9999 -9999 -9999 -9999 -9999 -9999 -9999 -9999 -9999 -9999 -9999 -9999 -9999 -9999 -9999 -9999 -9999 -9999 -9999 -9999 -9999 -9999 -9999 -9999 -9999 -9999 -9999 -9999 -9999 -9999 -9999 -9999 -9999 -9999 -9999 -9999 -9999 -9999 -9999 -9999 -9999 -9999 -9999 -9999 -9999 -9999 -9999 -9999 -9999 -9999 -9999 -9999 -9999 -9999 -9999 -9999 -9999 -9999 -9999 -9999 -9999 -9999 -9999 -9999 -9999 -9999 -9999 -9999 -9999 -9999 -9999 -9999 -9999 -9999 -9999 -9999 -9999 -9999 -9999 -9999 -9999 -9999 -9999 -9999 -9999 -9999 -9999 -9999 -9999 -9999 -9999 -9999 -9999 -9999 -9999 -9999 -9999 -9999 -9999 -9999 -9999 -9999 -9999 -9999 -9999 -9999 -9999 -9999 -9999 -9999 -9999 -9999 -9999 -9999 -9999 -9999 -9999 -9999 -9999 -9999 -9999 -9999 -9999 -9999 -9999 -9999 -9999 -9999 -9999 -9999 -9999 -9999 -9999 -9999 -9999 -9999 -9999 -9999 -9999 -9999 -9999 -9999 -9999 -9999 -9999 -9999 -9999 -9999 -9999 -9999 -9999 -9999 -9999 -9999 -9999 -9999 -9999 -9999 465.458 465.425 465.038 464.823 464.788 464.28 463.428 463.843 463.518 463.235 463.058 462.74 462.335 461.968 461.435 460.928 460.503 460.105 459.74 459.43 459.21 459.063 458.85 458.578 458.435 458.175 457.99 457.903 457.72 457.583 457.37 457.155 456.99 456.823 456.565 456.39 456.133 455.883 455.605 455.323 455.005 454.728 454.455 454.115 454.04 453.838 453.66 453.578 453.553 453.388 453.225 453.088 452.83 452.64 452.37 452.23 451.993 451.785 451.525 451.17 450.843 450.593 450.283 450.288 450.415 450.373 450.36 450.27 450.22 450.19 450.11 450.103 450.113 450.168 450.05 450.013 450.013 450.035 450.078 450.108 450.125 450.278 450.453 450.903 450.77 450.905 450.91 451.008 451.078 451.318 451.27 451.39 451.44 451.43 451.25 451.243 451.24 451.155 451.15 451.13 451.128 451.105 450.98 450.918 450.823 450.703 450.62 450.46 450.423 450.36 450.268 450.053 449.868 449.683 449.54 449.39 449.233 449.053 448.903 448.753 448.818 448.525 448.323 448.055 447.87 447.448 447.188 446.99 446.73 446.458 446.263 446.108 445.79 445.51 445.228 444.885 444.55 444.228 443.93 443.538 443.118 442.72 442.33 441.985 441.59 441.123 440.615 440.085 439.57 439.125 438.715 438.283 437.773 437.29 436.848 436.323 435.973 435.75 435.49 434.71 434.008 433.655 434.523 435.978 436.898 437.308 437.478 437.763 437.535 437.493 437.748 438.133 438.445 438.638 438.853 438.925 438.933 438.945 438.953 438.948 439.038 439.043 439.115 439.225 439.215 439.073 439.078 439.045 439.078 439.088 438.953 438.888 438.845 438.76 438.723 438.598 438.615 438.615 438.598 438.465 438.193 437.99 437.98 437.765 437.638 437.428 437.268 437.193 437.15 437.09 437.03 436.868 436.68 436.478 436.203 435.953 435.758 435.435 435.23 435.215 435.133 434.895 434.765 434.58 434.303 434.118 433.89 433.535 433.29 433.028 432.58 432.328 432.253 432.188 431.903 431.408 431.08 431 430.955 431.135 431.093 430.958 430.94 430.738 430.478 430.318 430.103 429.908 429.735 429.66 432.895 436.817
-9999 -9999 -9999 -9999 -9999 -9999 -9999 -9999 -9999 -9999 -9999 -9999 -9999 -9999 -9999 -9999 -9999 -9999 -9999 -9999 -9999 -9999 -9999 -9999 -9999 -9999 -9999 -9999 -9999 -9999 -9999 -9999 -9999 -9999 -9999 -9999 -9999 -9999 -9999 -9999 -9999 -9999 -9999 -9999 -9999 -9999 -9999 -9999 -9999 -9999 -9999 -9999 -9999 -9999 -9999 -9999 -9999 -9999 -9999 -9999 -9999 -9999 -9999 -9999 -9999 -9999 -9999 -9999 -9999 -9999 -9999 -9999 -9999 -9999 -9999 -9999 -9999 -9999 -9999 -9999 -9999 -9999 -9999 -9999 -9999 -9999 -9999 -9999 -9999 -9999 -9999 -9999 -9999 -9999 -9999 -9999 -9999 -9999 -9999 -9999 -9999 -9999 -9999 -9999 -9999 -9999 -9999 -9999 -9999 -9999 -9999 -9999 -9999 -9999 -9999 -9999 -9999 -9999 -9999 -9999 -9999 -9999 -9999 -9999 -9999 -9999 -9999 -9999 -9999 -9999 -9999 -9999 -9999 -9999 -9999 -9999 -9999 -9999 -9999 -9999 -9999 -9999 -9999 -9999 -9999 -9999 -9999 -9999 -9999 -9999 -9999 -9999 -9999 -9999 -9999 -9999 -9999 -9999 -9999 -9999 -9999 -9999 -9999 -9999 -9999 -9999 -9999 -9999 -9999 -9999 -9999 -9999 -9999 -9999 -9999 -9999 -9999 -9999 -9999 -9999 -9999 465.025 464.861 464.608 464.363 464.21 464.065 463.428 463.178 463.17 462.698 462.395 462.178 461.843 461.435 460.915 460.495 460.12 459.953 459.743 459.513 459.258 458.926 458.705 458.308 458.06 457.83 457.715 457.578 457.415 457.208 457.046 456.803 456.635 456.43 456.255 456.085 455.823 455.593 455.313 455.058 454.745 454.45 454.245 453.888 453.74 453.553 453.325 453.195 453.14 453.023 452.86 452.745 452.535 452.233 452.02 451.683 451.458 451.203 451.078 450.778 450.44 450.1 449.968 449.808 449.938 449.948 449.895 449.93 449.84 449.805 449.683 449.71 449.705 449.635 449.663 449.655 449.665 449.655 449.77 449.903 449.89 450.04 450.12 450.485 450.39 450.478 450.535 450.583 450.67 450.705 450.815 450.925 450.898 450.893 450.883 450.955 450.985 450.888 450.805 450.778 450.695 450.605 450.57 450.495 450.41 450.373 450.188 450.045 449.938 449.918 449.828 449.69 449.5 449.32 449.16 448.955 448.785 448.538 448.33 448.155 448.175 448.128 447.903 447.7 447.445 446.995 446.718 446.493 446.21 445.905 445.743 445.563 445.09 444.91 444.69 444.423 444.103 443.783 443.465 443.05 442.56 442.218 441.818 441.445 441.043 440.563 439.968 439.435 438.925 438.498 438.075 437.708 437.275 436.743 436.265 435.82 435.478 435.203 434.523 433.895 433.295 433.468 434.603 435.823 436.648 436.983 437.175 437.183 436.988 437.283 437.753 438.163 438.405 438.42 438.505 438.54 438.573 438.625 438.623 438.68 438.698 438.688 438.783 438.843 438.748 438.678 438.733 438.74 438.738 438.738 438.595 438.578 438.533 438.438 438.298 438.213 438.218 438.228 438.223 438.115 437.953 437.695 437.62 437.5 437.26 437.143 436.99 436.733 436.738 436.715 436.778 436.678 436.315 435.985 435.685 435.463 435.36 435.125 434.813 434.748 434.72 434.59 434.385 434.178 433.928 433.675 433.448 433.085 432.743 432.393 432.038 431.738 431.643 431.263 430.94 430.68 430.828 430.755 430.605 430.755 430.798 430.65 430.533 430.318 430.05 429.775 429.555 429.35 429.165 429.055 431.517 436.992
-9999 -9999 -9999 -9999 -9999 -9999 -9999 -9999 -9999 -9999 -9999 -9999 -9999 -9999 -9999 -9999 -9999 -9999 -9999 -9999 -9999 -9999 -9999 -9999 -9999 -9999 -9999 -9999 -9999 -9999 -9999 -9999 -9999 -9999 -9999 -9999 -9999 -9999 -9999 -9999 -9999 -9999 -9999 -9999 -9999 -9999 -9999 -9999 -9999 -9999 -9999 -9999 -9999 -9999 -9999 -9999 -9999 -9999 -9999 -9999 -9999 -9999 -9999 -9999 -9999 -9999 -9999 -9999 -9999 -9999 -9999 -9999 -9999 -9999 -9999 -9999 -9999 -9999 -9999 -9999 -9999 -9999 -9999 -9999 -9999 -9999 -9999 -9999 -9999 -9999 -9999 -9999 -9999 -9999 -9999 -9999 -9999 -9999 -9999 -9999 -9999 -9999 -9999 -9999 -9999 -9999 -9999 -9999 -9999 -9999 -9999 -9999 -9999 -9999 -9999 -9999 -9999 -9999 -9999 -9999 -9999 -9999 -9999 -9999 -9999 -9999 -9999 -9999 -9999 -9999 -9999 -9999 -9999 -9999 -9999 -9999 -9999 -9999 -9999 -9999 -9999 -9999 -9999 -9999 -9999 -9999 -9999 -9999 -9999 -9999 -9999 -9999 -9999 -9999 -9999 -9999 -9999 -9999 -9999 -9999 -9999 -9999 -9999 -9999 -9999 -9999 -9999 -9999 -9999 -9999 -9999 -9999 -9999 -9999 -9999 -9999 -9999 -9999 -9999 -9999 464.468 464.395 464.24 464.088 463.85 463.635 463.528 463.153 462.47 462.8 462.418 461.94 461.671 461.266 460.915 460.473 460.095 459.83 459.853 459.57 459.203 458.95 458.72 458.335 458.005 457.748 457.56 457.453 457.368 457.203 456.933 456.703 456.478 456.283 456.023 455.975 455.681 455.451 455.185 454.838 454.655 454.37 454.128 453.921 453.698 453.39 453.273 452.986 452.798 452.648 452.55 452.373 452.208 452.023 451.808 451.523 451.175 451.008 450.845 450.695 450.42 450.085 449.795 449.593 449.513 449.448 449.485 449.48 449.463 449.43 449.33 449.278 449.275 449.245 449.288 449.253 449.233 449.288 449.378 449.49 449.528 449.603 449.718 449.885 450.378 450.003 450.135 450.153 450.22 450.263 450.32 450.378 450.403 450.448 450.5 450.453 450.488 450.525 450.425 450.395 450.36 450.293 450.23 450.118 450.04 449.95 449.843 449.738 449.66 449.61 449.493 449.383 449.305 449.153 448.95 448.703 448.515 448.328 448.028 447.793 447.64 447.595 447.62 447.375 447.198 446.89 446.54 446.185 445.908 445.658 445.375 445.195 444.968 444.585 444.358 444.195 443.905 443.573 443.225 442.848 442.468 441.993 441.58 441.235 440.835 440.39 439.843 439.263 438.83 438.41 437.943 437.493 437.113 436.695 436.223 435.745 435.388 434.813 434.228 433.563 433.03 432.728 433.228 434.473 435.675 436.433 436.623 436.785 436.645 436.72 437.115 437.525 437.84 438.045 438.075 438.053 438.09 438.18 438.255 438.3 438.393 438.263 438.343 438.45 438.535 438.463 438.39 438.458 438.473 438.413 438.358 438.17 438.225 438.195 438.083 437.945 437.903 437.888 437.835 437.763 437.663 437.538 437.325 437.218 437.075 436.92 436.77 436.663 436.508 436.353 436.218 436.198 436.19 435.938 435.57 435.193 434.995 434.993 434.798 434.433 434.32 434.35 434.198 433.973 433.77 433.545 433.235 432.955 432.603 432.198 431.733 431.428 431.123 430.753 430.518 430.448 430.525 430.468 430.483 430.3 430.335 430.31 430.198 430.005 429.758 429.475 429.143 428.895 428.783 428.538 428.5 430.525 436.125
-9999 -9999 -9999 -9999 -9999 -9999 -9999 -9999 -9999 -9999 -9999 -9999 -9999 -9999 -9999 -9999 -9999 -9999 -9999 -9999 -9999 -9999 -9999 -9999 -9999 -9999 -9999 -9999 -9999 -9999 -9999 -9999 -9999 -9999 -9999 -9999 -9999 -9999 -9999 -9999 -9999 -9999 -9999 -9999 -9999 -9999 -9999 -9999 -9999 -9999 -9999 -9999 -9999 -9999 -9999 -9999 -9999 -9999 -9999 -9999 -9999 -9999 -9999 -9999 -9999 -9999 -9999 -9999 -9999 -9999 -9999 -9999 -9999 -9999 -9999 -9999 -9999 -9999 -9999 -9999 -9999 -9999 -9999 -9999 -9999 -9999 -9999 -9999 -9999 -9999 -9999 -9999 -9999 -9999 -9999 -9999 -9999 -9999 -9999 -9999 -9999 -9999 -9999 -9999 -9999 -9999 -9999 -9999 -9999 -9999 -9999 -9999 -9999 -9999 -9999 -9999 -9999 -9999 -9999 -9999 -9999 -9999 -9999 -9999 -9999 -9999 -9999 -9999 -9999 -9999 -9999 -9999 -9999 -9999 -9999 -9999 -9999 -9999 -9999 -9999 -9999 -9999 -9999 -9999 -9999 -9999 -9999 -9999 -9999 -9999 -9999 -9999 -9999 -9999 -9999 -9999 -9999 -9999 -9999 -9999 -9999 -9999 -9999 -9999 -9999 -9999 -9999 -9999 -9999 -9999 -9999 -9999 -9999 -9999 -9999 -9999 -9999 -9999 -9999 463.718 463.726 463.68 463.638 463.498 463.323 463.085 462.951 462.775 462.08 462.158 462.085 461.588 461.188 460.826 460.428 460.02 459.78 459.573 459.421 459.133 458.903 458.793 458.505 458.108 457.728 457.615 457.435 457.193 457.043 456.843 456.603 456.323 456.085 455.85 455.595 455.425 455.21 455.025 454.773 454.523 454.273 454.1 453.863 453.655 453.398 453.135 452.87 452.643 452.34 452.265 452.103 451.98 451.708 451.54 451.295 450.953 450.615 450.483 450.328 450.203 450.003 449.71 449.4 449.048 449.09 449.038 449.028 449.028 448.98 448.973 448.903 448.885 448.895 448.893 448.93 448.868 448.895 448.878 448.975 449.178 449.265 449.273 449.408 449.585 449.798 449.705 449.84 449.855 449.875 449.908 449.938 450.008 450.005 450.005 450.055 449.993 449.975 450.01 450.028 450.02 449.98 449.893 449.825 449.718 449.663 449.588 449.49 449.343 449.235 449.135 449 448.903 448.843 448.708 448.565 448.288 448.108 447.885 447.638 447.358 447.188 447.04 447.218 446.815 446.765 446.44 445.993 445.67 445.368 445.168 444.933 444.693 444.465 444.113 443.893 443.69 443.375 442.98 442.598 442.145 441.75 441.405 441 440.598 440.205 439.75 439.165 438.6 438.19 437.785 437.36 436.875 436.455 436.06 435.663 435.213 434.768 434.058 433.335 432.778 432.37 432.333 432.873 434.23 435.37 436.055 436.338 436.353 436.255 436.415 436.748 437.028 437.24 437.408 437.533 437.545 437.648 437.793 437.865 437.975 437.883 437.88 438 438.02 438.033 438.048 438.068 438.118 438.09 438.058 437.903 437.778 437.885 437.835 437.738 437.653 437.588 437.508 437.433 437.313 437.23 437.118 436.933 436.708 436.668 436.488 436.425 436.288 436.09 435.905 435.795 435.753 435.698 435.328 435.128 434.913 434.613 434.45 434.375 434.06 433.973 433.955 433.76 433.605 433.425 433.105 432.8 432.493 432.058 431.565 431.17 430.755 430.51 430.32 430.23 430.263 430.26 430.14 430.128 429.92 429.893 429.84 429.713 429.475 429.145 428.738 428.335 428.175 428.123 428.033 427.898 429.522 434.252
-9999 -9999 -9999 -9999 -9999 -9999 -9999 -9999 -9999 -9999 -9999 -9999 -9999 -9999 -9999 -9999 -9999 -9999 -9999 -9999 -9999 -9999 -9999 -9999 -9999 -9999 -9999 -9999 -9999 -9999 -9999 -9999 -9999 -9999 -9999 -9999 -9999 -9999 -9999 -9999 -9999 -9999 -9999 -9999 -9999 -9999 -9999 -9999 -9999 -9999 -9999 -9999 -9999 -9999 -9999 -9999 -9999 -9999 -9999 -9999 -9999 -9999 -9999 -9999 -9999 -9999 -9999 -9999 -9999 -9999 -9999 -9999 -9999 -9999 -9999 -9999 -9999 -9999 -9999 -9999 -9999 -9999 -9999 -9999 -9999 -9999 -9999 -9999 -9999 -9999 -9999 -9999 -9999 -9999 -9999 -9999 -9999 -9999 -9999 -9999 -9999 -9999 -9999 -9999 -9999 -9999 -9999 -9999 -9999 -9999 -9999 -9999 -9999 -9999 -9999 -9999 -9999 -9999 -9999 -9999 -9999 -9999 -9999 -9999 -9999 -9999 -9999 -9999 -9999 -9999 -9999 -9999 -9999 -9999 -9999 -9999 -9999 -9999 -9999 -9999 -9999 -9999 -9999 -9999 -9999 -9999 -9999 -9999 -9999 -9999 -9999 -9999 -9999 -9999 -9999 -9999 -9999 -9999 -9999 -9999 -9999 -9999 -9999 -9999 -9999 -9999 -9999 -9999 -9999 -9999 -9999 -9999 -9999 -9999 -9999 -9999 -9999 -9999 -9999 463.268 463.158 463.076 463.018 462.875 462.73 462.568 462.463 462.183 461.94 461.745 461.528 461.153 460.8 460.455 460.105 459.805 459.488 459.35 459.193 458.926 458.775 458.718 458.503 458 457.645 457.443 457.175 456.995 456.658 456.438 456.185 455.94 455.663 455.36 455.128 454.925 454.768 454.515 454.318 454.118 453.9 453.703 453.62 453.41 453.055 452.72 452.398 452.308 451.986 451.843 451.655 451.46 451.225 451.035 450.788 450.498 450.275 450.083 449.93 449.753 449.575 449.29 448.908 448.6 448.705 448.725 448.635 448.673 448.613 448.583 448.46 448.465 448.5 448.538 448.57 448.6 448.6 448.63 448.85 448.89 448.955 449.053 449.215 449.303 449.543 449.428 449.5 449.53 449.518 449.52 449.515 449.553 449.583 449.6 449.638 449.57 449.598 449.618 449.588 449.563 449.525 449.49 449.38 449.29 449.258 449.175 449.1 448.94 448.835 448.715 448.67 448.448 448.37 448.273 448.073 447.885 447.655 447.43 447.205 447.035 446.828 446.623 446.433 446.298 446.063 445.855 445.515 445.208 444.913 444.76 444.49 444.198 443.913 443.553 443.47 443.203 442.75 442.363 441.93 441.515 441.088 440.775 440.4 439.998 439.653 439.093 438.493 437.98 437.538 437.145 436.698 436.195 435.715 435.35 434.965 434.6 434.118 433.398 432.71 432.073 431.88 431.99 432.943 434.075 435.1 435.72 435.973 435.953 435.93 436.1 436.313 436.383 436.538 436.72 436.785 436.88 437.098 437.363 437.455 437.495 437.43 437.49 437.648 437.645 437.668 437.623 437.683 437.755 437.715 437.645 437.51 437.495 437.438 437.348 437.375 437.415 437.19 437.148 437.15 436.928 436.778 436.693 436.52 436.328 436.258 436.113 436.063 435.935 435.785 435.54 435.393 435.38 435.18 435.198 434.895 434.575 434.313 434.105 434.008 433.825 433.55 433.475 433.345 433.175 432.895 432.59 432.288 432.008 431.62 431.158 430.695 430.345 430.203 430.1 430.025 430.1 429.98 429.818 429.77 429.583 429.505 429.39 429.265 428.968 428.478 428.065 427.63 427.42 427.18 427.05 427.058 429.987 434.045
-9999 -9999 -9999 -9999 -9999 -9999 -9999 -9999 -9999 -9999 -9999 -9999 -9999 -9999 -9999 -9999 -9999 -9999 -9999 -9999 -9999 -9999 -9999 -9999 -9999 -9999 -9999 -9999 -9999 -9999 -9999 -9999 -9999 -9999 -9999 -9999 -9999 -9999 -9999 -9999 -9999 -9999 -9999 -9999 -9999 -9999 -9999 -9999 -9999 -9999 -9999 -9999 -9999 -9999 -9999 -9999 -9999 -9999 -9999 -9999 -9999 -9999 -9999 -9999 -9999 -9999 -9999 -9999 -9999 -9999 -9999 -9999 -9999 -9999 -9999 -9999 -9999 -9999 -9999 -9999 -9999 -9999 -9999 -9999 -9999 -9999 -9999 -9999 -9999 -9999 -9999 -9999 -9999 -9999 -9999 -9999 -9999 -9999 -9999 -9999 -9999 -9999 -9999 -9999 -9999 -9999 -9999 -9999 -9999 -9999 -9999 -9999 -9999 -9999 -9999 -9999 -9999 -9999 -9999 -9999 -9999 -9999 -9999 -9999 -9999 -9999 -9999 -9999 -9999 -9999 -9999 -9999 -9999 -9999 -9999 -9999 -9999 -9999 -9999 -9999 -9999 -9999 -9999 -9999 -9999 -9999 -9999 -9999 -9999 -9999 -9999 -9999 -9999 -9999 -9999 -9999 -9999 -9999 -9999 -9999 -9999 -9999 -9999 -9999 -9999 -9999 -9999 -9999 -9999 -9999 -9999 -9999 -9999 -9999 -9999 -9999 -9999 -9999 462.798 462.758 462.721 462.633 462.515 462.338 462.2 462.058 461.99 461.833 461.56 461.5 461.365 460.94 460.563 460.233 459.918 459.568 459.255 459.055 458.875 458.77 458.573 458.365 458.093 457.778 457.44 457.228 456.973 456.703 456.435 456.16 455.843 455.555 455.26 454.89 454.65 454.423 454.23 454.093 453.945 453.743 453.538 453.335 453.155 452.938 452.575 452.26 452.048 451.93 451.623 451.435 451.26 451.035 450.778 450.558 450.345 450.048 449.82 449.65 449.495 449.308 449.12 448.978 448.575 448.198 448.325 448.353 448.273 448.275 448.26 448.175 448.133 448.105 448.128 448.24 448.248 448.35 448.315 448.408 448.508 448.63 448.68 448.818 448.94 449.04 449.208 449.138 449.16 449.135 449.173 449.16 449.183 449.16 449.188 449.158 449.168 449.17 449.19 449.2 449.2 449.163 449.11 449.053 448.98 448.918 448.843 448.75 448.613 448.515 448.423 448.34 448.238 448.14 448.008 447.788 447.588 447.458 447.2 446.973 446.765 446.613 446.418 446.168 445.923 445.815 445.398 445.245 444.96 444.715 444.515 444.335 444.008 443.713 443.43 443.07 443.013 442.61 442.158 441.73 441.295 440.855 440.458 440.153 439.76 439.315 438.913 438.435 437.973 437.395 436.88 436.378 435.95 435.455 435.003 434.618 434.2 433.878 433.415 432.763 432.093 431.545 431.483 431.813 432.945 433.858 434.755 435.295 435.565 435.638 435.605 435.618 435.738 435.84 435.915 435.998 435.958 436.048 436.383 436.83 437.025 436.988 437.08 437.228 437.225 437.23 437.348 437.26 437.283 437.39 437.26 437.063 437.025 437.078 437.03 436.973 436.885 436.948 436.848 436.805 436.748 436.483 436.315 436.225 436.178 436.038 435.863 435.768 435.705 435.563 435.44 435.18 434.978 434.885 434.755 434.613 434.46 434.318 434.058 433.713 433.483 433.473 433.138 433.058 432.84 432.573 432.293 432.03 431.808 431.463 431.15 430.775 430.448 430.26 430.088 429.938 429.85 429.798 429.593 429.45 429.41 429.338 429.128 428.983 428.77 428.42 427.88 427.225 426.943 426.78 426.548 426.535 426.57 429.527 434.43
-9999 -9999 -9999 -9999 -9999 -9999 -9999 -9999 -9999 -9999 -9999 -9999 -9999 -9999 -9999 -9999 -9999 -9999 -9999 -9999 -9999 -9999 -9999 -9999 -9999 -9999 -9999 -9999 -9999 -9999 -9999 -9999 -9999 -9999 -9999 -9999 -9999 -9999 -9999 -9999 -9999 -9999 -9999 -9999 -9999 -9999 -9999 -9999 -9999 -9999 -9999 -9999 -9999 -9999 -9999 -9999 -9999 -9999 -9999 -9999 -9999 -9999 -9999 -9999 -9999 -9999 -9999 -9999 -9999 -9999 -9999 -9999 -9999 -9999 -9999 -9999 -9999 -9999 -9999 -9999 -9999 -9999 -9999 -9999 -9999 -9999 -9999 -9999 -9999 -9999 -9999 -9999 -9999 -9999 -9999 -9999 -9999 -9999 -9999 -9999 -9999 -9999 -9999 -9999 -9999 -9999 -9999 -9999 -9999 -9999 -9999 -9999 -9999 -9999 -9999 -9999 -9999 -9999 -9999 -9999 -9999 -9999 -9999 -9999 -9999 -9999 -9999 -9999 -9999 -9999 -9999 -9999 -9999 -9999 -9999 -9999 -9999 -9999 -9999 -9999 -9999 -9999 -9999 -9999 -9999 -9999 -9999 -9999 -9999 -9999 -9999 -9999 -9999 -9999 -9999 -9999 -9999 -9999 -9999 -9999 -9999 -9999 -9999 -9999 -9999 -9999 -9999 -9999 -9999 -9999 -9999 -9999 -9999 -9999 -9999 -9999 -9999 462.528 462.456 462.353 462.268 462.08 462.005 461.878 461.638 461.538 461.583 461.468 461.103 461.055 460.888 460.555 460.243 459.903 459.613 459.3 459.075 458.88 458.69 458.548 458.398 458.08 457.955 457.658 457.33 457.06 456.755 456.485 456.278 455.926 455.708 455.338 455 454.598 454.28 454.01 453.848 453.73 453.57 453.421 453.203 452.883 452.618 452.4 452.113 451.833 451.643 451.415 451.165 451.02 450.828 450.625 450.41 450.145 449.918 449.705 449.458 449.24 449.075 448.865 448.688 448.555 448.373 448.035 447.865 447.938 447.925 447.93 447.915 447.848 447.795 447.743 447.783 447.86 447.865 447.933 447.965 448.038 448.165 448.335 448.41 448.448 448.6 448.67 448.98 448.85 448.783 448.763 448.795 448.858 448.83 448.845 448.875 448.808 448.83 448.865 448.87 448.845 448.858 448.758 448.743 448.675 448.573 448.475 448.425 448.39 448.235 448.133 448.015 447.928 447.8 447.653 447.51 447.345 447.163 447.025 446.81 446.543 446.455 446.165 445.938 445.695 445.403 445.053 444.955 444.695 444.45 444.25 444.035 443.828 443.555 443.32 442.965 442.633 442.418 442.083 441.623 441.16 440.675 440.193 439.828 439.473 439.05 438.613 438.128 437.74 437.258 436.775 436.228 435.7 435.19 434.738 434.298 433.888 433.513 433.255 432.808 432.095 431.35 431.105 431.298 431.918 432.703 433.523 434.335 434.885 435.168 435.29 435.308 435.23 435.158 435.2 435.21 435.158 435.18 435.305 435.663 436.148 436.355 436.503 436.858 436.958 436.803 436.96 437.065 436.978 436.985 436.99 436.875 436.77 436.788 436.773 436.548 436.568 436.523 436.573 436.523 436.43 436.31 436.135 435.92 435.798 435.735 435.655 435.498 435.348 435.213 435.133 435.035 434.77 434.485 434.388 434.293 434.205 434.01 433.81 433.635 433.275 433.193 432.983 432.668 432.48 432.355 432.133 431.943 431.715 431.485 431.208 430.91 430.613 430.343 430.168 429.943 429.753 429.605 429.54 429.355 429.208 429.083 429.013 428.663 428.405 428.175 427.675 427.04 426.543 426.37 426.2 426.01 426.015 426.213 427.325 431.837
-9999 -9999 -9999 -9999 -9999 -9999 -9999 -9999 -9999 -9999 -9999 -9999 -9999 -9999 -9999 -9999 -9999 -9999 -9999 -9999 -9999 -9999 -9999 -9999 -9999 -9999 -9999 -9999 -9999 -9999 -9999 -9999 -9999 -9999 -9999 -9999 -9999 -9999 -9999 -9999 -9999 -9999 -9999 -9999 -9999 -9999 -9999 -9999 -9999 -9999 -9999 -9999 -9999 -9999 -9999 -9999 -9999 -9999 -9999 -9999 -9999 -9999 -9999 -9999 -9999 -9999 -9999 -9999 -9999 -9999 -9999 -9999 -9999 -9999 -9999 -9999 -9999 -9999 -9999 -9999 -9999 -9999 -9999 -9999 -9999 -9999 -9999 -9999 -9999 -9999 -9999 -9999 -9999 -9999 -9999 -9999 -9999 -9999 -9999 -9999 -9999 -9999 -9999 -9999 -9999 -9999 -9999 -9999 -9999 -9999 -9999 -9999 -9999 -9999 -9999 -9999 -9999 -9999 -9999 -9999 -9999 -9999 -9999 -9999 -9999 -9999 -9999 -9999 -9999 -9999 -9999 -9999 -9999 -9999 -9999 -9999 -9999 -9999 -9999 -9999 -9999 -9999 -9999 -9999 -9999 -9999 -9999 -9999 -9999 -9999 -9999 -9999 -9999 -9999 -9999 -9999 -9999 -9999 -9999 -9999 -9999 -9999 -9999 -9999 -9999 -9999 -9999 -9999 -9999 -9999 -9999 -9999 -9999 -9999 -9999 -9999 -9999 462.305 462.143 461.951 461.698 461.53 461.43 461.388 461.26 461.128 461.113 460.96 460.718 460.718 460.375 459.868 459.826 459.56 459.273 458.921 458.718 458.603 458.368 458.028 457.688 457.546 457.405 457.053 456.76 456.608 456.395 456.19 455.921 455.603 455.32 455.02 454.705 454.453 454.138 453.953 453.7 453.588 453.38 453.205 452.928 452.633 452.393 452.118 451.798 451.53 451.25 450.838 450.655 450.43 450.25 450.055 449.885 449.7 449.535 449.345 449.125 448.905 448.728 448.47 448.28 448.143 448.083 447.67 447.275 447.513 447.488 447.575 447.555 447.503 447.45 447.405 447.378 447.38 447.428 447.528 447.69 447.735 447.95 448.118 448.035 448.148 448.265 448.288 448.47 448.443 448.403 448.41 448.423 448.453 448.525 448.528 448.448 448.443 448.45 448.448 448.46 448.475 448.42 448.388 448.4 448.295 448.198 448.07 447.993 447.863 447.815 447.73 447.625 447.48 447.3 447.17 447.088 446.878 446.713 446.51 446.313 446.078 445.953 445.718 445.47 445.218 444.93 444.713 444.625 444.325 443.998 443.69 443.548 443.31 443.078 442.885 442.553 442.21 441.875 441.528 441.14 440.61 440.135 439.62 439.255 438.883 438.43 437.948 437.49 436.988 436.465 436.11 435.638 435.058 434.473 433.89 433.39 432.963 432.68 432.47 432.203 431.565 430.865 430.67 431.123 431.778 432.418 433.138 433.845 434.463 434.848 435.065 435.028 434.855 434.648 434.543 434.44 434.34 434.333 434.595 435.12 435.64 435.973 436.19 436.405 436.418 436.515 436.65 436.713 436.703 436.69 436.64 436.543 436.43 436.473 436.453 436.335 436.288 436.123 436.18 436.135 435.978 435.898 435.763 435.525 435.303 435.31 435.235 435.158 434.908 434.783 434.693 434.615 434.385 434.07 433.93 433.855 433.76 433.663 433.505 433.148 432.898 432.845 432.73 432.433 432.13 431.828 431.718 431.598 431.333 431.125 430.925 430.78 430.603 430.308 430.04 429.728 429.563 429.358 429.14 428.868 428.788 428.575 428.378 428.143 427.823 427.463 426.965 426.315 426.025 425.898 425.868 425.795 425.833 426.583 431.19 433.312
-9999 -9999 -9999 -9999 -9999 -9999 -9999 -9999 -9999 -9999 -9999 -9999 -9999 -9999 -9999 -9999 -9999 -9999 -9999 -9999 -9999 -9999 -9999 -9999 -9999 -9999 -9999 -9999 -9999 -9999 -9999 -9999 -9999 -9999 -9999 -9999 -9999 -9999 -9999 -9999 -9999 -9999 -9999 -9999 -9999 -9999 -9999 -9999 -9999 -9999 -9999 -9999 -9999 -9999 -9999 -9999 -9999 -9999 -9999 -9999 -9999 -9999 -9999 -9999 -9999 -9999 -9999 -9999 -9999 -9999 -9999 -9999 -9999 -9999 -9999 -9999 -9999 -9999 -9999 -9999 -9999 -9999 -9999 -9999 -9999 -9999 -9999 -9999 -9999 -9999 -9999 -9999 -9999 -9999 -9999 -9999 -9999 -9999 -9999 -9999 -9999 -9999 -9999 -9999 -9999 -9999 -9999 -9999 -9999 -9999 -9999 -9999 -9999 -9999 -9999 -9999 -9999 -9999 -9999 -9999 -9999 -9999 -9999 -9999 -9999 -9999 -9999 -9999 -9999 -9999 -9999 -9999 -9999 -9999 -9999 -9999 -9999 -9999 -9999 -9999 -9999 -9999 -9999 -9999 -9999 -9999 -9999 -9999 -9999 -9999 -9999 -9999 -9999 -9999 -9999 -9999 -9999 -9999 -9999 -9999 -9999 -9999 -9999 -9999 -9999 -9999 -9999 -9999 -9999 -9999 -9999 -9999 -9999 -9999 -9999 -9999 462.173 462.006 461.808 461.471 461.178 461.01 460.958 460.96 460.858 460.7 460.55 460.448 460.393 460.353 460.09 459.655 459.35 459.228 458.913 458.578 458.255 457.83 457.438 457.045 456.778 456.538 456.405 456.108 455.873 455.671 455.486 455.43 455.15 454.86 454.593 454.458 454.361 454.138 453.895 453.698 453.378 453.23 453.046 452.805 452.54 452.225 451.905 451.688 451.353 451.083 450.775 450.4 450.133 449.975 449.74 449.45 449.318 449.218 449.155 449.015 448.805 448.583 448.378 448.065 447.818 447.688 447.65 447.398 446.908 446.99 447.088 447.193 447.268 447.18 447.083 447.045 446.97 446.955 447.045 447.228 447.335 447.483 447.505 447.665 447.733 447.785 447.84 447.89 448.165 448.123 448.04 448.023 448.083 448.093 448.123 448.163 448.135 448.125 448.1 448.133 448.09 448.115 448.085 448.05 448.018 447.91 447.788 447.703 447.593 447.43 447.358 447.26 447.15 446.983 446.805 446.695 446.638 446.433 446.248 446.135 445.848 445.62 445.405 445.22 444.973 444.833 444.548 444.233 443.965 444.055 443.473 443.2 443.028 442.818 442.563 442.375 441.905 441.533 441.328 440.935 440.59 440.078 439.608 439.158 438.705 438.25 437.84 437.35 436.725 436.108 435.59 435.305 434.908 434.333 433.663 433.145 432.69 432.135 432.055 432.105 431.715 431.09 430.348 430.32 430.973 431.623 432.268 432.875 433.488 434.083 434.52 434.685 434.708 434.703 434.568 434.198 433.895 433.79 433.758 434.215 434.853 435.33 435.648 435.953 435.98 436.07 436.21 436.298 436.328 436.29 436.288 436.35 436.283 436.158 436.123 436.073 436.055 435.95 435.858 435.79 435.743 435.625 435.583 435.458 435.183 434.905 434.888 434.868 434.793 434.573 434.4 434.288 434.17 434.025 433.703 433.473 433.455 433.38 433.328 433.178 432.798 432.615 432.4 432.283 431.955 431.62 431.415 431.04 430.895 430.765 430.703 430.563 430.48 430.28 430.053 429.79 429.435 429.22 428.99 428.89 428.578 428.305 427.995 427.545 427.42 427.22 426.865 426.525 426.09 425.75 425.578 425.38 425.263 425.478 426.525 429.295 432.757
-9999 -9999 -9999 -9999 -9999 -9999 -9999 -9999 -9999 -9999 -9999 -9999 -9999 -9999 -9999 -9999 -9999 -9999 -9999 -9999 -9999 -9999 -9999 -9999 -9999 -9999 -9999 -9999 -9999 -9999 -9999 -9999 -9999 -9999 -9999 -9999 -9999 -9999 -9999 -9999 -9999 -9999 -9999 -9999 -9999 -9999 -9999 -9999 -9999 -9999 -9999 -9999 -9999 -9999 -9999 -9999 -9999 -9999 -9999 -9999 -9999 -9999 -9999 -9999 -9999 -9999 -9999 -9999 -9999 -9999 -9999 -9999 -9999 -9999 -9999 -9999 -9999 -9999 -9999 -9999 -9999 -9999 -9999 -9999 -9999 -9999 -9999 -9999 -9999 -9999 -9999 -9999 -9999 -9999 -9999 -9999 -9999 -9999 -9999 -9999 -9999 -9999 -9999 -9999 -9999 -9999 -9999 -9999 -9999 -9999 -9999 -9999 -9999 -9999 -9999 -9999 -9999 -9999 -9999 -9999 -9999 -9999 -9999 -9999 -9999 -9999 -9999 -9999 -9999 -9999 -9999 -9999 -9999 -9999 -9999 -9999 -9999 -9999 -9999 -9999 -9999 -9999 -9999 -9999 -9999 -9999 -9999 -9999 -9999 -9999 -9999 -9999 -9999 -9999 -9999 -9999 -9999 -9999 -9999 -9999 -9999 -9999 -9999 -9999 -9999 -9999 -9999 -9999 -9999 -9999 -9999 -9999 -9999 -9999 -9999 461.918 461.813 461.631 461.386 461.128 460.833 460.678 460.533 460.51 460.403 460.323 460.125 460.035 460.008 459.853 459.705 459.408 459.003 458.868 458.625 458.43 458.185 457.625 456.97 456.693 456.5 456.288 456.23 456.03 455.773 455.478 455.328 455.095 454.76 454.26 454.015 453.848 453.736 453.55 453.528 453.31 453.083 452.85 452.643 452.39 452.123 451.815 451.508 451.228 450.913 450.65 450.35 450.043 449.685 449.553 449.318 448.988 448.82 448.798 448.758 448.615 448.42 448.183 447.91 447.58 447.335 447.218 447.183 447.135 446.718 446.345 446.688 446.815 446.87 446.795 446.713 446.625 446.6 446.595 446.703 446.885 447.015 447.158 447.22 447.285 447.358 447.485 447.533 447.575 447.688 447.798 447.7 447.633 447.708 447.71 447.76 447.735 447.775 447.753 447.77 447.768 447.77 447.778 447.66 447.638 447.613 447.463 447.32 447.28 447.108 446.985 446.9 446.765 446.653 446.535 446.37 446.22 446.078 445.918 445.758 445.663 445.365 445.175 444.93 444.69 444.51 444.338 444.113 443.848 443.578 443.593 443.038 442.73 442.45 442.253 442.008 441.763 441.473 441.265 441.043 440.493 440.043 439.66 439.113 438.683 438.155 437.503 436.96 436.413 435.923 435.493 434.988 434.588 434.115 433.63 433.03 432.485 431.953 431.56 431.745 431.625 431.253 430.655 429.815 429.998 430.788 431.61 432.188 432.658 433.108 433.623 434.033 434.22 434.39 434.61 434.38 434.158 433.88 433.733 433.8 434.193 434.745 435.09 435.373 435.565 435.61 435.788 435.753 435.82 435.895 435.89 435.805 435.943 435.895 435.868 435.805 435.768 435.768 435.645 435.428 435.445 435.395 435.185 435.165 435.01 434.803 434.553 434.468 434.46 434.455 434.21 433.99 433.898 433.753 433.62 433.31 433.103 433.11 433.113 433.03 432.85 432.495 432.145 431.895 431.733 431.525 431.128 430.853 430.608 430.46 430.408 430.323 430.173 430.005 429.878 429.613 429.398 429.125 428.83 428.61 428.505 428.155 427.915 427.468 427.09 426.79 426.678 426.49 426.163 425.815 425.438 425.17 425 424.973 425.203 425.66 430.387 433.432
-9999 -9999 -9999 -9999 -9999 -9999 -9999 -9999 -9999 -9999 -9999 -9999 -9999 -9999 -9999 -9999 -9999 -9999 -9999 -9999 -9999 -9999 -9999 -9999 -9999 -9999 -9999 -9999 -9999 -9999 -9999 -9999 -9999 -9999 -9999 -9999 -9999 -9999 -9999 -9999 -9999 -9999 -9999 -9999 -9999 -9999 -9999 -9999 -9999 -9999 -9999 -9999 -9999 -9999 -9999 -9999 -9999 -9999 -9999 -9999 -9999 -9999 -9999 -9999 -9999 -9999 -9999 -9999 -9999 -9999 -9999 -9999 -9999 -9999 -9999 -9999 -9999 -9999 -9999 -9999 -9999 -9999 -9999 -9999 -9999 -9999 -9999 -9999 -9999 -9999 -9999 -9999 -9999 -9999 -9999 -9999 -9999 -9999 -9999 -9999 -9999 -9999 -9999 -9999 -9999 -9999 -9999 -9999 -9999 -9999 -9999 -9999 -9999 -9999 -9999 -9999 -9999 -9999 -9999 -9999 -9999 -9999 -9999 -9999 -9999 -9999 -9999 -9999 -9999 -9999 -9999 -9999 -9999 -9999 -9999 -9999 -9999 -9999 -9999 -9999 -9999 -9999 -9999 -9999 -9999 -9999 -9999 -9999 -9999 -9999 -9999 -9999 -9999 -9999 -9999 -9999 -9999 -9999 -9999 -9999 -9999 -9999 -9999 -9999 -9999 -9999 -9999 -9999 -9999 -9999 -9999 -9999 -9999 -9999 -9999 461.511 461.381 461.128 460.941 460.721 460.468 460.275 460.13 460.043 460 459.918 459.738 459.658 459.565 459.455 459.263 458.985 458.723 458.59 458.343 458.078 457.76 457.513 457.323 457.068 456.923 456.623 456.345 456.168 456.005 455.798 455.508 455.118 454.688 454.395 454.135 453.928 453.748 453.453 453.288 453.048 452.72 452.453 452.25 451.935 451.728 451.415 451.113 450.87 450.563 450.253 449.958 449.723 449.26 449.078 448.973 448.748 448.508 448.37 448.348 448.203 447.985 447.738 447.433 447.165 446.97 446.833 446.778 446.695 446.625 446.045 446.135 446.458 446.5 446.44 446.358 446.295 446.26 446.288 446.448 446.648 446.843 446.835 446.875 447.003 447.125 447.173 447.213 447.245 447.35 447.498 447.265 447.29 447.338 447.36 447.358 447.325 447.378 447.375 447.405 447.428 447.41 447.38 447.293 447.253 447.198 447.07 446.9 446.82 446.683 446.583 446.443 446.308 446.165 446.025 445.843 445.68 445.545 445.408 445.258 445.118 444.88 444.713 444.418 444.238 444.068 443.845 443.648 443.365 443.103 442.893 442.705 442.328 442.045 441.788 441.545 441.275 440.973 440.785 440.483 440.05 439.513 439.143 438.57 437.96 437.3 436.523 436.03 435.673 435.37 435.003 434.403 433.803 433.405 433.035 432.425 431.873 431.465 431.173 431.285 431.133 430.678 430.095 429.49 429.455 430.343 431.438 432.098 432.398 432.668 433.198 433.623 433.843 434.12 434.35 434.333 434.09 434.015 433.935 433.953 434.323 434.685 434.803 434.92 435.158 435.368 435.415 435.31 435.253 435.345 435.53 435.523 435.58 435.56 435.548 435.47 435.455 435.408 435.283 435.063 435.095 434.99 434.88 434.658 434.483 434.38 434.173 434.023 433.97 433.995 433.833 433.558 433.425 433.353 433.213 432.99 432.815 432.838 432.765 432.603 432.485 432.218 431.778 431.393 431.303 431.22 430.76 430.385 430.153 429.868 429.773 429.91 429.88 429.595 429.353 429.215 429.01 428.778 428.435 428.163 428.035 427.77 427.52 427.055 426.798 426.61 426.385 426.103 425.865 425.513 425.09 424.845 424.708 424.64 424.745 425.508 429.06 428.967
-9999 -9999 -9999 -9999 -9999 -9999 -9999 -9999 -9999 -9999 -9999 -9999 -9999 -9999 -9999 -9999 -9999 -9999 -9999 -9999 -9999 -9999 -9999 -9999 -9999 -9999 -9999 -9999 -9999 -9999 -9999 -9999 -9999 -9999 -9999 -9999 -9999 -9999 -9999 -9999 -9999 -9999 -9999 -9999 -9999 -9999 -9999 -9999 -9999 -9999 -9999 -9999 -9999 -9999 -9999 -9999 -9999 -9999 -9999 -9999 -9999 -9999 -9999 -9999 -9999 -9999 -9999 -9999 -9999 -9999 -9999 -9999 -9999 -9999 -9999 -9999 -9999 -9999 -9999 -9999 -9999 -9999 -9999 -9999 -9999 -9999 -9999 -9999 -9999 -9999 -9999 -9999 -9999 -9999 -9999 -9999 -9999 -9999 -9999 -9999 -9999 -9999 -9999 -9999 -9999 -9999 -9999 -9999 -9999 -9999 -9999 -9999 -9999 -9999 -9999 -9999 -9999 -9999 -9999 -9999 -9999 -9999 -9999 -9999 -9999 -9999 -9999 -9999 -9999 -9999 -9999 -9999 -9999 -9999 -9999 -9999 -9999 -9999 -9999 -9999 -9999 -9999 -9999 -9999 -9999 -9999 -9999 -9999 -9999 -9999 -9999 -9999 -9999 -9999 -9999 -9999 -9999 -9999 -9999 -9999 -9999 -9999 -9999 -9999 -9999 -9999 -9999 -9999 -9999 -9999 -9999 -9999 -9999 -9999 461.238 461.131 460.916 460.693 460.496 460.246 460.043 459.883 459.793 459.685 459.555 459.488 459.395 459.285 459.135 459.043 458.9 458.613 458.348 458.178 457.958 457.703 457.465 457.213 457.046 456.8 456.608 456.383 456.06 455.758 455.64 455.48 455.325 455.075 454.703 454.398 454.123 453.878 453.676 453.29 453.015 452.758 452.575 452.323 452.148 451.705 451.41 451.105 450.618 450.293 449.91 449.765 449.625 449.378 449.01 448.703 448.645 448.46 448.263 448.075 447.918 447.745 447.545 447.343 447.008 446.753 446.55 446.443 446.37 446.298 446.29 445.863 445.638 446.035 446.083 446.083 446.028 445.95 445.93 445.955 446.2 446.375 446.498 446.535 446.64 446.72 446.788 446.798 446.87 446.855 446.92 446.968 446.878 446.908 446.94 447.038 447 447.003 446.928 446.968 446.99 446.945 446.955 446.92 446.865 446.75 446.685 446.598 446.443 446.38 446.273 446.125 446 445.895 445.713 445.575 445.36 445.188 445.055 444.955 444.78 444.643 444.435 444.203 443.983 443.768 443.595 443.358 443.155 442.888 442.635 442.365 442.31 441.8 441.625 441.39 441.165 440.828 440.418 440.243 439.938 439.505 438.94 438.25 437.613 437 436.225 435.67 435.353 435.085 434.758 434.333 433.755 433.003 432.398 432.06 431.673 431.445 430.98 430.683 430.793 430.415 429.963 429.588 429.16 429.17 430.06 431.163 431.9 432.233 432.513 432.953 433.3 433.61 433.935 434.12 434.38 434.288 434.24 434.315 434.213 434.41 434.55 434.45 434.713 434.918 434.988 435.04 434.938 434.965 435.093 435.278 435.195 435.148 435.083 435.145 435.145 435.053 434.97 434.825 434.673 434.69 434.593 434.465 434.258 434.13 433.968 433.865 433.69 433.483 433.41 433.37 433.208 432.995 432.98 433.005 432.83 432.55 432.418 432.425 432.265 432.085 431.855 431.538 431.08 430.803 430.825 430.508 429.978 429.668 429.39 429.24 429.293 429.33 429.143 429.01 428.91 428.525 428.325 428.053 427.83 427.6 427.46 427.103 426.815 426.488 426.305 426.06 425.813 425.568 425.228 424.633 424.465 424.378 424.34 424.305 424.743 429.085 431.772
-9999 -9999 -9999 -9999 -9999 -9999 -9999 -9999 -9999 -9999 -9999 -9999 -9999 -9999 -9999 -9999 -9999 -9999 -9999 -9999 -9999 -9999 -9999 -9999 -9999 -9999 -9999 -9999 -9999 -9999 -9999 -9999 -9999 -9999 -9999 -9999 -9999 -9999 -9999 -9999 -9999 -9999 -9999 -9999 -9999 -9999 -9999 -9999 -9999 -9999 -9999 -9999 -9999 -9999 -9999 -9999 -9999 -9999 -9999 -9999 -9999 -9999 -9999 -9999 -9999 -9999 -9999 -9999 -9999 -9999 -9999 -9999 -9999 -9999 -9999 -9999 -9999 -9999 -9999 -9999 -9999 -9999 -9999 -9999 -9999 -9999 -9999 -9999 -9999 -9999 -9999 -9999 -9999 -9999 -9999 -9999 -9999 -9999 -9999 -9999 -9999 -9999 -9999 -9999 -9999 -9999 -9999 -9999 -9999 -9999 -9999 -9999 -9999 -9999 -9999 -9999 -9999 -9999 -9999 -9999 -9999 -9999 -9999 -9999 -9999 -9999 -9999 -9999 -9999 -9999 -9999 -9999 -9999 -9999 -9999 -9999 -9999 -9999 -9999 -9999 -9999 -9999 -9999 -9999 -9999 -9999 -9999 -9999 -9999 -9999 -9999 -9999 -9999 -9999 -9999 -9999 -9999 -9999 -9999 -9999 -9999 -9999 -9999 -9999 -9999 -9999 -9999 -9999 -9999 -9999 -9999 -9999 -9999 461.018 460.876 460.663 460.493 460.293 460.081 459.818 459.656 459.515 459.405 459.293 459.115 459.048 459.028 458.925 458.801 458.688 458.565 458.27 457.963 457.788 457.698 457.43 457.215 456.95 456.765 456.518 456.348 456.028 455.735 455.495 455.335 455.171 455.025 454.793 454.5 454.175 453.875 453.66 453.408 453.1 452.808 452.533 452.238 452.053 451.708 451.378 451.18 450.825 450.365 449.925 449.578 449.105 448.93 448.82 448.458 448.335 448.22 448.118 447.89 447.675 447.445 447.338 447.165 446.955 446.618 446.33 446.09 446.043 445.958 445.948 445.928 445.568 445.033 445.533 445.7 445.71 445.68 445.615 445.653 445.735 445.86 446.068 446.165 446.275 446.33 446.398 446.448 446.458 446.46 446.475 446.6 446.618 446.54 446.553 446.563 446.608 446.585 446.533 446.56 446.55 446.51 446.48 446.51 446.483 446.403 446.338 446.25 446.108 445.958 445.893 445.775 445.68 445.573 445.4 445.25 445.115 444.94 444.848 444.618 444.458 444.27 444.12 443.898 443.713 443.53 443.298 443.09 442.875 442.655 442.413 442.175 441.878 441.648 441.593 441.105 440.965 440.728 440.423 440.025 439.76 439.32 438.785 438.24 437.508 436.635 436.058 435.498 435.178 434.87 434.543 434.23 433.785 433.243 432.358 431.698 431.603 431.523 431.318 430.773 430.373 430.138 429.82 429.6 429.323 429.02 429.003 429.828 430.81 431.405 431.888 432.39 432.673 433.043 433.323 433.743 433.955 434.1 434.125 434.243 434.39 434.343 434.113 434.085 434.17 434.413 434.483 434.583 434.77 434.698 434.698 434.745 434.72 434.785 434.625 434.7 434.838 434.748 434.658 434.568 434.425 434.263 434.268 434.215 434.07 433.853 433.745 433.675 433.428 433.285 433.078 432.908 432.953 432.915 432.723 432.743 432.623 432.453 432.233 432.005 431.965 431.86 431.62 431.435 431.245 430.838 430.43 430.328 430.175 429.663 429.228 428.943 428.78 428.75 428.845 428.748 428.598 428.455 428.21 428.06 427.705 427.433 427.255 427.048 426.91 426.438 426.105 425.913 425.778 425.548 425.288 424.983 424.59 424.185 424.028 423.955 423.92 425.315 430.755 430.132
-9999 -9999 -9999 -9999 -9999 -9999 -9999 -9999 -9999 -9999 -9999 -9999 -9999 -9999 -9999 -9999 -9999 -9999 -9999 -9999 -9999 -9999 -9999 -9999 -9999 -9999 -9999 -9999 -9999 -9999 -9999 -9999 -9999 -9999 -9999 -9999 -9999 -9999 -9999 -9999 -9999 -9999 -9999 -9999 -9999 -9999 -9999 -9999 -9999 -9999 -9999 -9999 -9999 -9999 -9999 -9999 -9999 -9999 -9999 -9999 -9999 -9999 -9999 -9999 -9999 -9999 -9999 -9999 -9999 -9999 -9999 -9999 -9999 -9999 -9999 -9999 -9999 -9999 -9999 -9999 -9999 -9999 -9999 -9999 -9999 -9999 -9999 -9999 -9999 -9999 -9999 -9999 -9999 -9999 -9999 -9999 -9999 -9999 -9999 -9999 -9999 -9999 -9999 -9999 -9999 -9999 -9999 -9999 -9999 -9999 -9999 -9999 -9999 -9999 -9999 -9999 -9999 -9999 -9999 -9999 -9999 -9999 -9999 -9999 -9999 -9999 -9999 -9999 -9999 -9999 -9999 -9999 -9999 -9999 -9999 -9999 -9999 -9999 -9999 -9999 -9999 -9999 -9999 -9999 -9999 -9999 -9999 -9999 -9999 -9999 -9999 -9999 -9999 -9999 -9999 -9999 -9999 -9999 -9999 -9999 -9999 -9999 -9999 -9999 -9999 -9999 -9999 -9999 -9999 -9999 -9999 -9999 -9999 460.635 460.438 460.206 460.033 459.858 459.638 459.443 459.286 459.105 459 458.898 458.86 458.796 458.678 458.555 458.418 458.238 458.135 457.875 457.518 457.385 457.385 457.15 456.97 456.77 456.533 456.238 455.973 455.725 455.458 455.223 455.065 454.87 454.733 454.473 454.18 453.888 453.578 453.365 453.145 452.855 452.62 452.335 452.063 451.708 451.318 450.963 450.738 450.495 450.263 450.1 449.688 449.263 448.8 448.368 447.948 447.683 447.51 447.653 447.515 447.32 447.015 446.858 446.76 446.52 446.248 445.965 445.69 445.643 445.57 445.56 445.548 444.993 444.583 445.19 445.31 445.338 445.345 445.318 445.318 445.458 445.545 445.788 445.828 445.913 446.003 446.068 446.118 446.13 446.13 446.143 446.15 446.418 446.233 446.198 446.173 446.168 446.155 446.165 446.148 446.13 446.06 446.078 446.05 445.993 445.915 445.878 445.785 445.655 445.6 445.43 445.3 445.178 445.03 444.86 444.758 444.613 444.505 444.318 444.138 443.985 443.755 443.595 443.438 443.218 443.01 442.823 442.6 442.39 442.178 441.955 441.688 441.388 441.163 441.173 440.653 440.47 440.213 440.025 439.5 439.263 438.635 438.098 437.378 436.528 435.828 435.455 435.153 434.828 434.545 434.255 433.855 433.22 432.575 431.8 431.518 431.438 431.293 430.945 430.448 430.043 429.703 429.148 428.843 428.93 428.708 428.855 429.418 430.4 431.023 431.57 432.033 432.348 432.703 433.015 433.468 433.66 433.745 433.775 433.868 433.985 434.02 433.715 433.645 433.715 433.84 434.098 434.328 434.313 434.235 434.28 434.343 434.303 434.285 434.195 434.308 434.363 434.313 434.265 434.135 434.025 433.863 433.863 433.85 433.69 433.485 433.288 433.133 433.055 432.9 432.695 432.605 432.655 432.515 432.398 432.393 432.248 432.068 431.92 431.608 431.453 431.388 431.163 430.955 430.778 430.47 430.088 429.823 429.728 429.383 428.948 428.603 428.403 428.29 428.323 428.273 428.17 428.073 427.833 427.563 427.185 427 426.87 426.63 426.31 426.018 425.778 425.63 425.39 425.173 424.933 424.683 424.435 424.025 423.698 423.573 423.575 425.275 429.127 430.327
-9999 -9999 -9999 -9999 -9999 -9999 -9999 -9999 -9999 -9999 -9999 -9999 -9999 -9999 -9999 -9999 -9999 -9999 -9999 -9999 -9999 -9999 -9999 -9999 -9999 -9999 -9999 -9999 -9999 -9999 -9999 -9999 -9999 -9999 -9999 -9999 -9999 -9999 -9999 -9999 -9999 -9999 -9999 -9999 -9999 -9999 -9999 -9999 -9999 -9999 -9999 -9999 -9999 -9999 -9999 -9999 -9999 -9999 -9999 -9999 -9999 -9999 -9999 -9999 -9999 -9999 -9999 -9999 -9999 -9999 -9999 -9999 -9999 -9999 -9999 -9999 -9999 -9999 -9999 -9999 -9999 -9999 -9999 -9999 -9999 -9999 -9999 -9999 -9999 -9999 -9999 -9999 -9999 -9999 -9999 -9999 -9999 -9999 -9999 -9999 -9999 -9999 -9999 -9999 -9999 -9999 -9999 -9999 -9999 -9999 -9999 -9999 -9999 -9999 -9999 -9999 -9999 -9999 -9999 -9999 -9999 -9999 -9999 -9999 -9999 -9999 -9999 -9999 -9999 -9999 -9999 -9999 -9999 -9999 -9999 -9999 -9999 -9999 -9999 -9999 -9999 -9999 -9999 -9999 -9999 -9999 -9999 -9999 -9999 -9999 -9999 -9999 -9999 -9999 -9999 -9999 -9999 -9999 -9999 -9999 -9999 -9999 -9999 -9999 -9999 -9999 -9999 -9999 -9999 -9999 -9999 -9999 460.283 460.241 460.091 459.841 459.706 459.551 459.318 459.168 459.008 458.788 458.698 458.57 458.478 458.415 458.358 458.21 458.025 457.85 457.645 457.465 457.35 457.1 456.943 456.803 456.665 456.505 456.27 455.968 455.685 455.48 455.243 454.973 454.745 454.523 454.365 454.12 453.873 453.578 453.288 453.065 452.818 452.588 452.403 452.115 451.805 451.423 451.171 450.775 450.435 450.133 449.913 449.69 449.405 449.095 448.783 448.42 448.065 447.828 447.48 447.278 447.165 447.008 446.668 446.48 446.31 446.223 445.928 445.59 445.305 445.153 445.098 445.055 445.013 444.585 444.235 444.665 444.863 444.953 444.97 444.94 444.953 445.158 445.268 445.408 445.505 445.558 445.645 445.69 445.74 445.688 445.75 445.793 445.8 446.115 445.805 445.805 445.77 445.798 445.76 445.713 445.713 445.685 445.678 445.613 445.553 445.51 445.415 445.305 445.23 445.203 445.09 445.008 444.823 444.678 444.483 444.338 444.23 444.115 443.968 443.83 443.7 443.478 443.263 443.15 443.008 442.72 442.545 442.375 442.118 441.913 441.715 441.49 441.208 440.953 440.675 440.413 440.175 439.928 439.753 439.515 439.013 438.623 438.018 437.283 436.415 435.683 435.335 435.09 434.783 434.495 434.248 433.94 433.46 432.59 431.848 431.583 431.31 431.068 430.848 430.388 429.98 429.538 429.565 428.96 429.065 428.285 428.395 428.543 429.003 429.943 430.66 431.173 431.61 431.97 432.29 432.583 432.975 433.26 433.285 433.333 433.455 433.573 433.54 433.328 433.248 433.233 433.433 433.728 433.903 433.868 433.81 433.883 433.965 433.93 433.773 433.875 433.978 434.015 433.955 433.89 433.73 433.695 433.533 433.503 433.48 433.328 433.07 432.795 432.718 432.578 432.555 432.515 432.29 432.23 432.14 432.015 431.995 431.828 431.74 431.563 431.283 431 430.888 430.743 430.5 430.293 430.058 429.783 429.368 429.245 429.013 428.7 428.403 428.083 427.89 427.845 427.778 427.675 427.618 427.395 427.13 426.62 426.333 426.233 426.188 425.933 425.75 425.288 425.163 425.04 424.835 424.583 424.39 424.198 423.853 423.465 423.2 423.35 426.82 430.97 432.5
-9999 -9999 -9999 -9999 -9999 -9999 -9999 -9999 -9999 -9999 -9999 -9999 -9999 -9999 -9999 -9999 -9999 -9999 -9999 -9999 -9999 -9999 -9999 -9999 -9999 -9999 -9999 -9999 -9999 -9999 -9999 -9999 -9999 -9999 -9999 -9999 -9999 -9999 -9999 -9999 -9999 -9999 -9999 -9999 -9999 -9999 -9999 -9999 -9999 -9999 -9999 -9999 -9999 -9999 -9999 -9999 -9999 -9999 -9999 -9999 -9999 -9999 -9999 -9999 -9999 -9999 -9999 -9999 -9999 -9999 -9999 -9999 -9999 -9999 -9999 -9999 -9999 -9999 -9999 -9999 -9999 -9999 -9999 -9999 -9999 -9999 -9999 -9999 -9999 -9999 -9999 -9999 -9999 -9999 -9999 -9999 -9999 -9999 -9999 -9999 -9999 -9999 -9999 -9999 -9999 -9999 -9999 -9999 -9999 -9999 -9999 -9999 -9999 -9999 -9999 -9999 -9999 -9999 -9999 -9999 -9999 -9999 -9999 -9999 -9999 -9999 -9999 -9999 -9999 -9999 -9999 -9999 -9999 -9999 -9999 -9999 -9999 -9999 -9999 -9999 -9999 -9999 -9999 -9999 -9999 -9999 -9999 -9999 -9999 -9999 -9999 -9999 -9999 -9999 -9999 -9999 -9999 -9999 -9999 -9999 -9999 -9999 -9999 -9999 -9999 -9999 -9999 -9999 -9999 -9999 -9999 460.038 460.028 459.853 459.651 459.528 459.291 459.173 459.026 458.908 458.798 458.611 458.458 458.395 458.165 458.068 457.968 457.935 457.743 457.513 457.32 457.123 457.048 456.785 456.595 456.493 456.325 456.18 455.99 455.705 455.443 455.185 454.985 454.71 454.415 454.236 454.018 453.775 453.503 453.223 452.985 452.763 452.523 452.363 452.138 451.84 451.49 451.183 450.923 450.525 450.205 449.81 449.535 449.293 449.018 448.818 448.5 448.171 447.883 447.573 447.25 446.993 446.78 446.593 446.285 446.133 445.963 445.815 445.54 445.203 444.915 444.76 444.685 444.568 444.448 444.093 443.508 444.008 444.428 444.528 444.555 444.565 444.563 444.855 444.945 445.105 445.135 445.223 445.243 445.35 445.38 445.373 445.34 445.408 445.368 445.648 445.425 445.413 445.418 445.39 445.328 445.285 445.245 445.253 445.245 445.158 445.095 444.985 444.915 444.773 444.685 444.675 444.558 444.415 444.323 444.22 444.02 443.875 443.695 443.618 443.458 443.288 443.11 442.99 442.813 442.623 442.513 442.248 442.058 441.86 441.68 441.463 441.26 441.018 440.738 440.505 440.23 439.903 440.015 439.435 439.18 438.945 438.545 438.228 437.53 436.6 435.803 435.325 435.038 434.84 434.545 434.243 433.98 433.61 432.98 432.165 431.51 431.045 430.745 430.378 429.948 429.67 429.763 429.47 428.698 428.378 428.538 427.943 428.103 428.263 428.59 429.385 430.148 430.698 431.193 431.495 431.78 432.035 432.453 432.72 432.863 432.948 432.978 433.083 433.103 432.993 432.855 432.805 433.078 433.35 433.53 433.488 433.423 433.528 433.573 433.508 433.55 433.62 433.648 433.625 433.593 433.498 433.358 433.205 433.138 433.1 433.053 432.943 432.683 432.44 432.325 432.218 432.203 432.12 431.955 431.8 431.655 431.56 431.575 431.485 431.283 431.1 430.865 430.573 430.393 430.313 429.933 429.773 429.63 429.345 428.943 428.733 428.628 428.41 428.118 427.803 427.533 427.433 427.35 427.21 427.11 427.028 426.705 426.188 425.793 425.74 425.645 425.458 425.283 425.09 424.758 424.455 424.31 424.255 424.088 423.873 423.598 423.268 422.868 423.345 426.693 431.765 431.645
-9999 -9999 -9999 -9999 -9999 -9999 -9999 -9999 -9999 -9999 -9999 -9999 -9999 -9999 -9999 -9999 -9999 -9999 -9999 -9999 -9999 -9999 -9999 -9999 -9999 -9999 -9999 -9999 -9999 -9999 -9999 -9999 -9999 -9999 -9999 -9999 -9999 -9999 -9999 -9999 -9999 -9999 -9999 -9999 -9999 -9999 -9999 -9999 -9999 -9999 -9999 -9999 -9999 -9999 -9999 -9999 -9999 -9999 -9999 -9999 -9999 -9999 -9999 -9999 -9999 -9999 -9999 -9999 -9999 -9999 -9999 -9999 -9999 -9999 -9999 -9999 -9999 -9999 -9999 -9999 -9999 -9999 -9999 -9999 -9999 -9999 -9999 -9999 -9999 -9999 -9999 -9999 -9999 -9999 -9999 -9999 -9999 -9999 -9999 -9999 -9999 -9999 -9999 -9999 -9999 -9999 -9999 -9999 -9999 -9999 -9999 -9999 -9999 -9999 -9999 -9999 -9999 -9999 -9999 -9999 -9999 -9999 -9999 -9999 -9999 -9999 -9999 -9999 -9999 -9999 -9999 -9999 -9999 -9999 -9999 -9999 -9999 -9999 -9999 -9999 -9999 -9999 -9999 -9999 -9999 -9999 -9999 -9999 -9999 -9999 -9999 -9999 -9999 -9999 -9999 -9999 -9999 -9999 -9999 -9999 -9999 -9999 -9999 -9999 -9999 -9999 -9999 -9999 -9999 -9999 -9999 459.725 459.626 459.396 459.323 459.176 458.976 458.798 458.661 458.568 458.451 458.325 458.15 458.103 457.958 457.858 457.72 457.486 457.238 457.023 456.945 456.866 456.785 456.41 456.203 456.083 456.043 455.85 455.63 455.393 455.113 454.94 454.753 454.46 454.213 454.03 453.798 453.473 453.22 452.955 452.66 452.443 452.238 452.055 451.83 451.535 451.24 451 450.69 450.395 450.033 449.653 449.24 448.938 448.63 448.348 448.163 447.868 447.588 447.32 446.99 446.693 446.435 446.185 445.878 445.62 445.535 445.393 445.145 444.85 444.483 444.305 444.218 444.068 443.893 443.688 443.065 443.23 443.84 444.058 444.15 444.15 444.228 444.46 444.56 444.685 444.758 444.848 444.883 444.955 445.008 445.01 444.975 445.03 445.048 445.173 445.048 445.028 445.013 445.04 444.923 444.888 444.84 444.835 444.823 444.753 444.665 444.543 444.418 444.323 444.233 444.175 444.045 443.923 443.835 443.715 443.543 443.41 443.22 443.1 443.03 442.845 442.665 442.565 442.373 442.223 441.995 441.79 441.595 441.393 441.183 440.968 440.728 440.47 440.27 440.06 439.783 439.543 439.21 439.223 438.638 438.415 438.055 437.765 437.098 436.05 435.513 435.178 434.83 434.59 434.283 433.89 433.7 433.32 432.743 431.978 431.333 430.813 430.22 429.478 429.295 429.053 428.65 428.48 428.278 427.913 428.05 427.718 427.773 427.908 428.235 429.075 429.69 430.27 430.708 430.905 431.315 431.6 431.95 432.26 432.438 432.53 432.65 432.708 432.683 432.568 432.463 432.348 432.525 432.873 433.128 433.193 433.155 433.11 433.075 433.158 433.233 433.248 433.18 433.183 433.163 433.093 432.93 432.78 432.73 432.72 432.708 432.543 432.38 432.258 431.988 431.86 431.84 431.715 431.54 431.363 431.353 431.1 431.043 431.04 430.88 430.68 430.455 430.1 429.863 429.835 429.613 429.323 429.198 428.945 428.603 428.223 428.128 427.988 427.8 427.498 427.2 427.065 426.96 426.81 426.618 426.45 426.23 425.883 425.525 425.38 425.27 425.103 424.828 424.62 424.525 424.36 424.05 423.693 423.498 423.49 423.333 423.033 422.7 422.503 426.238 428.917 424.695
-9999 -9999 -9999 -9999 -9999 -9999 -9999 -9999 -9999 -9999 -9999 -9999 -9999 -9999 -9999 -9999 -9999 -9999 -9999 -9999 -9999 -9999 -9999 -9999 -9999 -9999 -9999 -9999 -9999 -9999 -9999 -9999 -9999 -9999 -9999 -9999 -9999 -9999 -9999 -9999 -9999 -9999 -9999 -9999 -9999 -9999 -9999 -9999 -9999 -9999 -9999 -9999 -9999 -9999 -9999 -9999 -9999 -9999 -9999 -9999 -9999 -9999 -9999 -9999 -9999 -9999 -9999 -9999 -9999 -9999 -9999 -9999 -9999 -9999 -9999 -9999 -9999 -9999 -9999 -9999 -9999 -9999 -9999 -9999 -9999 -9999 -9999 -9999 -9999 -9999 -9999 -9999 -9999 -9999 -9999 -9999 -9999 -9999 -9999 -9999 -9999 -9999 -9999 -9999 -9999 -9999 -9999 -9999 -9999 -9999 -9999 -9999 -9999 -9999 -9999 -9999 -9999 -9999 -9999 -9999 -9999 -9999 -9999 -9999 -9999 -9999 -9999 -9999 -9999 -9999 -9999 -9999 -9999 -9999 -9999 -9999 -9999 -9999 -9999 -9999 -9999 -9999 -9999 -9999 -9999 -9999 -9999 -9999 -9999 -9999 -9999 -9999 -9999 -9999 -9999 -9999 -9999 -9999 -9999 -9999 -9999 -9999 -9999 -9999 -9999 -9999 -9999 -9999 -9999 -9999 459.703 459.453 459.306 459.118 458.988 458.836 458.661 458.476 458.328 458.258 458.186 458.018 457.905 457.783 457.62 457.535 457.363 457.235 457.093 456.883 456.6 456.438 456.225 455.948 455.878 455.805 455.725 455.535 455.28 455.04 454.868 454.695 454.505 454.225 454.005 453.72 453.558 453.26 452.938 452.663 452.4 452.095 451.953 451.723 451.47 451.248 451.008 450.65 450.325 450.018 449.703 449.37 449 448.643 448.24 447.915 447.63 447.488 447.178 446.953 446.653 446.39 446.125 445.883 445.685 445.268 445.163 445.025 444.735 444.435 444.048 443.815 443.628 443.51 443.32 443.11 442.413 442.365 443.128 443.548 443.71 443.743 443.868 444.05 444.248 444.31 444.358 444.46 444.508 444.563 444.655 444.665 444.638 444.65 444.635 444.73 444.695 444.638 444.618 444.603 444.535 444.535 444.478 444.47 444.435 444.34 444.255 444.123 444.025 443.903 443.795 443.698 443.613 443.493 443.363 443.26 443.12 442.943 442.78 442.673 442.56 442.415 442.28 442.195 442.008 441.78 441.588 441.395 441.175 440.938 440.723 440.468 440.268 440.03 439.808 439.598 439.35 439.118 438.785 438.578 438.338 437.993 437.595 437.295 436.72 435.76 435.195 434.86 434.605 434.31 434 433.515 433.145 432.86 432.293 431.563 430.993 430.62 430.23 429.11 428.45 428.325 428.195 428.253 428.263 427.658 427.413 427.508 427.468 427.58 427.73 428.755 429.638 429.988 430.1 430.42 430.86 431.185 431.565 431.82 431.958 432.088 432.275 432.398 432.345 432.198 432.088 431.933 432.113 432.515 432.743 432.833 432.728 432.643 432.693 432.78 432.778 432.893 432.83 432.78 432.82 432.68 432.49 432.36 432.353 432.428 432.34 432.18 432.065 431.863 431.705 431.42 431.348 431.273 431.148 430.908 430.873 430.665 430.745 430.7 430.48 430.178 429.93 429.655 429.398 429.293 429.263 428.9 428.805 428.54 428.245 427.795 427.608 427.603 427.383 427.23 426.953 426.65 426.443 426.408 426.183 426.003 425.77 425.438 425.13 425.025 424.9 424.683 424.495 424.258 424.173 424.018 423.843 423.653 423.193 422.75 422.813 422.768 422.53 422.15 422.108 422.865 424.655
-9999 -9999 -9999 -9999 -9999 -9999 -9999 -9999 -9999 -9999 -9999 -9999 -9999 -9999 -9999 -9999 -9999 -9999 -9999 -9999 -9999 -9999 -9999 -9999 -9999 -9999 -9999 -9999 -9999 -9999 -9999 -9999 -9999 -9999 -9999 -9999 -9999 -9999 -9999 -9999 -9999 -9999 -9999 -9999 -9999 -9999 -9999 -9999 -9999 -9999 -9999 -9999 -9999 -9999 -9999 -9999 -9999 -9999 -9999 -9999 -9999 -9999 -9999 -9999 -9999 -9999 -9999 -9999 -9999 -9999 -9999 -9999 -9999 -9999 -9999 -9999 -9999 -9999 -9999 -9999 -9999 -9999 -9999 -9999 -9999 -9999 -9999 -9999 -9999 -9999 -9999 -9999 -9999 -9999 -9999 -9999 -9999 -9999 -9999 -9999 -9999 -9999 -9999 -9999 -9999 -9999 -9999 -9999 -9999 -9999 -9999 -9999 -9999 -9999 -9999 -9999 -9999 -9999 -9999 -9999 -9999 -9999 -9999 -9999 -9999 -9999 -9999 -9999 -9999 -9999 -9999 -9999 -9999 -9999 -9999 -9999 -9999 -9999 -9999 -9999 -9999 -9999 -9999 -9999 -9999 -9999 -9999 -9999 -9999 -9999 -9999 -9999 -9999 -9999 -9999 -9999 -9999 -9999 -9999 -9999 -9999 -9999 -9999 -9999 -9999 -9999 -9999 -9999 -9999 459.528 459.453 459.261 459.028 458.866 458.736 458.496 458.323 458.218 458.041 457.973 457.846 457.736 457.638 457.488 457.343 457.225 457.116 456.938 456.743 456.478 456.275 456.128 456.013 455.775 455.483 455.5 455.408 455.3 455.06 454.778 454.628 454.453 454.283 454.018 453.778 453.515 453.293 453.01 452.698 452.388 452.06 451.825 451.645 451.368 451.19 450.983 450.665 450.375 450.033 449.713 449.425 449.03 448.683 448.31 447.943 447.54 447.21 446.955 446.743 446.555 446.305 446.043 445.758 445.553 445.345 445.025 444.793 444.61 444.32 443.963 443.625 443.33 443.03 442.875 442.628 442.398 441.75 441.58 442.58 443.103 443.253 443.408 443.475 443.718 443.828 443.91 443.988 444.07 444.173 444.218 444.235 444.258 444.31 444.315 444.278 444.49 444.293 444.218 444.218 444.208 444.16 444.153 444.088 444.073 444.008 443.908 443.84 443.733 443.675 443.568 443.423 443.335 443.278 443.1 442.978 442.845 442.673 442.573 442.433 442.328 442.18 441.998 441.885 441.73 441.555 441.368 441.195 440.92 440.72 440.483 440.273 439.983 439.783 439.555 439.335 439.123 438.913 438.653 438.368 438.095 438 437.49 437.208 436.82 436.348 435.573 435.08 434.67 434.345 433.938 433.498 433.018 432.515 432.023 431.563 430.915 430.68 429.788 429.03 428.388 428.125 427.83 427.703 427.898 427.675 427.243 427.025 427.685 427.108 427.238 427.45 428.145 428.938 429.338 429.845 430.068 430.465 430.825 431.245 431.375 431.49 431.67 431.88 432.033 431.988 431.788 431.638 431.608 431.795 432.138 432.36 432.355 432.198 432.19 432.325 432.353 432.39 432.593 432.493 432.35 432.365 432.275 432.105 432.005 432.02 432.008 431.873 431.753 431.653 431.438 431.375 431.023 430.87 430.838 430.78 430.545 430.303 430.188 430.21 430.228 429.99 429.768 429.508 429.208 428.928 428.835 428.805 428.493 428.308 428.148 427.905 427.49 427.21 427.133 427.018 426.838 426.61 426.293 426.005 425.908 425.748 425.55 425.27 424.965 424.748 424.648 424.508 424.3 424.088 423.895 423.81 423.678 423.555 423.338 423.263 422.943 422.595 422.238 422.27 421.91 422.9 425.282 426.62
