ncols 414
nrows 29
xllcorner    385134
yllcorner    476526
cellsize     2
NODATA_value -9999
-9999 -9999 -9999 -9999 -9999 -9999 -9999 -9999 -9999 -9999 -9999 -9999 -9999 -9999 -9999 -9999 -9999 -9999 -9999 -9999 -9999 -9999 -9999 -9999 -9999 -9999 -9999 -9999 -9999 -9999 -9999 -9999 -9999 -9999 -9999 -9999 -9999 -9999 -9999 -9999 414.652 414.556 414.449 414.404 414.352 414.234 414.129 413.986 413.876 413.699 413.524 413.339 413.119 413.029 412.894 412.831 412.734 412.649 412.561 412.369 412.116 411.914 411.679 411.434 411.209 410.924 410.656 410.496 410.391 410.329 410.271 410.246 409.979 409.631 409.429 409.194 408.829 408.841 409.051 409.262 409.761 410.286 410.427 410.479 410.461 410.389 410.286 410.276 410.199 410.126 410.081 409.956 409.746 409.529 409.324 409.134 408.956 408.896 408.774 408.534 408.169 407.946 407.727 407.494 407.371 407.271 407.124 406.941 406.757 406.626 406.484 406.234 405.956 405.694 405.454 405.164 404.886 404.556 404.091 403.289 402.311 401.389 400.394 399.216 398.861 398.941 398.739 398.739 398.674 398.982 399.219 399.269 399.389 399.667 399.914 399.954 399.919 399.996 400.209 400.331 400.409 400.444 400.456 400.434 400.389 400.381 400.172 399.801 399.686 399.719 399.519 399.281 399.126 398.891 398.614 398.389 398.134 397.824 397.574 397.376 397.132 396.886 396.736 396.607 396.404 396.204 395.994 395.749 395.656 395.664 395.564 395.379 395.184 394.944 394.806 394.691 394.469 394.194 393.759 393.269 392.614 391.864 391.632 391.672 391.609 391.574 391.494 391.299 391.044 390.842 390.632 390.519 390.429 390.292 390.129 389.922 389.714 389.467 389.279 388.964 388.709 388.384 388.107 387.884 387.642 387.327 387.027 386.754 386.464 386.137 385.812 385.447 385.252 385.092 384.899 384.774 384.589 384.399 384.229 384.089 384.082 384.077 383.977 383.849 383.612 383.427 383.202 382.987 382.804 382.549 382.367 382.192 382.109 381.997 381.949 381.952 382.037 382.032 381.952 382.114 382.242 382.399 382.429 382.277 382.077 381.812 381.467 381.237 381.132 381.119 381.089 381.074 381.062 380.999 380.949 380.742 380.437 380.167 379.867 379.617 379.364 379.172 378.987 378.814 378.607 378.354 378.047 377.834 377.622 377.359 377.114 376.894 376.702 376.584 376.514 376.317 376.384 376.132 375.939 375.732 375.657 375.622 375.507 375.422 375.237 375.007 374.794 374.582 374.389 374.189 374.037 373.827 373.537 373.272 373.014 372.922 372.779 372.739 372.722 372.634 372.577 372.532 372.519 372.412 372.322 372.332 372.369 372.252 372.152 372.107 371.977 371.814 371.732 371.622 371.607 371.659 371.542 371.454 371.247 371.149 371.017 370.859 370.757 370.642 370.557 370.529 369.374 368.502 368.449 368.784 368.794 368.617 368.614 368.622 368.694 368.829 368.769 368.709 368.824 368.827 368.692 368.662 368.712 368.897 368.987 369.049 369.237 369.387 369.452 369.377 369.197 369.027 368.919 368.872 368.897 369.082 368.787 368.214 368.082 368.109 368.032 367.949 367.877 367.607 367.657 367.754 367.629 367.534 367.459 367.382 367.389 367.447 367.312 367.272 367.207 367.217 367.404 367.327 367.229 367.219 367.254 367.524 367.759 367.954 368.019 368.069 368.342 368.654 368.709 368.459 368.239 368.064 367.874 367.807 367.832 367.842 367.769 367.862 368.072 368.289 368.142 367.964 367.887 367.959 368.249 368.564 368.774 368.904 368.967 369.062 369.209 369.249 369.052 368.614
-9999 -9999 -9999 -9999 -9999 -9999 -9999 -9999 -9999 -9999 -9999 -9999 -9999 -9999 -9999 -9999 -9999 -9999 -9999 -9999 -9999 -9999 -9999 -9999 -9999 -9999 -9999 -9999 -9999 -9999 -9999 -9999 -9999 -9999 -9999 -9999 -9999 -9999 -9999 414.269 414.227 414.107 414.034 413.971 413.919 413.816 413.737 413.596 413.579 413.341 413.146 412.986 412.766 412.724 412.689 412.596 412.441 412.292 412.161 412.014 411.727 411.464 411.184 410.862 410.542 410.239 409.871 409.649 409.609 409.554 409.574 409.621 409.486 409.171 408.974 408.739 408.344 407.941 408.191 408.784 409.444 409.794 409.949 410.024 409.931 409.884 409.751 409.759 409.696 409.659 409.559 409.466 409.329 409.081 408.852 408.634 408.507 408.436 408.301 408.049 407.784 407.589 407.386 407.191 407.034 406.924 406.764 406.574 406.417 406.266 406.069 405.819 405.519 405.244 405.021 404.771 404.482 404.199 403.841 403.232 402.396 401.466 400.454 399.111 398.479 398.446 398.119 398.084 398.049 398.194 398.602 398.616 398.729 399.019 399.186 399.244 399.196 399.232 399.494 399.739 399.879 399.901 399.956 399.919 399.829 399.769 399.539 399.289 399.126 399.052 398.899 398.729 398.566 398.334 398.104 397.956 397.792 397.536 397.211 397.001 396.769 396.519 396.399 396.167 395.889 395.714 395.546 395.284 395.159 395.034 394.904 394.734 394.474 394.151 394.009 393.889 393.641 393.326 392.969 392.501 391.906 391.066 390.549 390.717 390.709 390.719 390.619 390.404 390.189 389.892 389.644 389.507 389.457 389.317 389.127 388.927 388.714 388.492 388.287 388.007 387.654 387.399 387.209 387.042 386.814 386.537 386.304 386.062 385.792 385.419 385.109 384.879 384.684 384.544 384.399 384.257 384.159 383.787 383.509 383.434 383.387 383.314 383.189 383.017 382.854 382.679 382.437 382.192 381.987 381.739 381.537 381.322 381.137 381.007 380.952 380.884 380.899 380.924 380.852 380.857 380.989 381.254 381.469 381.452 381.337 381.169 380.897 380.514 380.292 380.222 380.109 380.082 379.987 379.952 380.024 379.979 379.757 379.552 379.329 379.032 378.774 378.554 378.372 378.187 378.027 377.764 377.547 377.337 377.097 376.907 376.692 376.567 376.299 376.164 376.039 375.967 375.917 375.702 375.542 375.404 375.277 375.177 375.072 374.989 374.809 374.689 374.522 374.239 374.039 373.864 373.712 373.567 373.004 372.634 372.487 372.532 372.384 372.659 372.657 372.582 372.512 372.447 372.354 372.247 372.032 371.977 371.844 371.792 371.722 371.657 371.577 371.439 371.407 371.322 371.247 371.272 371.237 371.134 370.962 370.934 370.879 370.799 370.667 370.549 370.549 370.559 369.714 368.537 368.399 368.929 369.074 368.977 368.997 368.967 368.919 368.907 368.899 368.927 368.942 368.852 368.969 369.199 369.474 369.634 369.709 369.804 369.954 370.159 370.162 370.002 369.854 369.664 369.569 369.422 369.392 369.469 369.077 368.519 368.624 368.489 368.517 368.574 368.482 368.072 367.687 367.907 367.954 367.937 368.014 367.912 367.932 368.054 368.134 367.972 367.944 367.877 367.997 368.072 368.127 368.242 368.374 368.567 368.827 369.042 369.134 369.239 369.507 369.634 369.609 369.482 369.197 368.994 368.812 368.692 368.597 368.584 368.517 368.447 368.369 368.622 368.684 368.677 368.657 368.707 368.874 369.122 369.404 369.692 369.849 369.944 369.964 370.012 369.607 369.447
-9999 -9999 -9999 -9999 -9999 -9999 -9999 -9999 -9999 -9999 -9999 -9999 -9999 -9999 -9999 -9999 -9999 -9999 -9999 -9999 -9999 -9999 -9999 -9999 -9999 -9999 -9999 -9999 -9999 -9999 -9999 -9999 -9999 -9999 -9999 -9999 -9999 -9999 414.079 414.001 413.857 413.709 413.641 413.549 413.471 413.376 413.314 413.186 413.076 412.939 412.751 412.612 412.477 412.504 412.391 412.269 412.141 412.019 411.771 411.559 411.294 411.047 410.699 410.359 409.956 409.569 409.189 408.899 408.789 408.696 408.724 408.799 408.661 408.637 408.566 408.364 407.986 407.481 407.574 408.531 409.144 409.314 409.441 409.494 409.479 409.316 409.072 409.007 409.049 409.029 409.026 408.951 408.824 408.619 408.439 408.316 408.194 408.086 407.854 407.639 407.399 407.206 407.016 406.854 406.654 406.516 406.419 406.196 406.064 405.884 405.659 405.364 405.044 404.824 404.581 404.329 404.104 403.894 403.566 403.084 402.374 401.417 400.471 399.509 398.284 397.889 397.572 397.594 397.511 397.504 397.949 398.114 398.124 398.299 398.434 398.526 398.501 398.482 398.709 399.069 399.296 399.331 399.406 399.329 399.176 399.086 398.896 398.697 398.521 398.439 398.276 398.121 398.004 397.799 397.516 397.409 397.281 397.066 396.831 396.621 396.389 396.084 395.844 395.604 395.366 395.174 395.016 394.806 394.609 394.414 394.206 393.946 393.654 393.362 393.144 393.021 392.784 392.361 392.109 391.674 391.104 390.324 389.659 389.649 389.782 389.702 389.574 389.342 389.204 388.949 388.664 388.474 388.367 388.252 388.079 387.912 387.702 387.567 387.357 387.119 386.779 386.537 386.459 386.212 385.992 385.762 385.519 385.357 385.084 384.719 384.427 384.239 384.037 383.829 383.639 383.382 383.174 382.952 382.819 382.769 382.729 382.584 382.449 382.284 382.117 381.919 381.672 381.442 381.264 381.012 380.734 380.387 380.174 380.029 380.007 379.939 379.949 379.927 379.894 379.882 379.917 380.047 380.237 380.477 380.459 380.352 380.137 379.854 379.759 379.567 379.309 379.197 379.124 379.042 379.017 379.082 378.952 378.757 378.577 378.429 378.182 378.027 377.787 377.589 377.444 377.247 377.134 376.944 376.699 376.437 376.259 376.009 375.784 375.689 375.689 375.684 375.589 375.327 375.102 374.984 374.834 374.772 374.649 374.522 374.377 374.224 373.929 373.824 373.714 373.599 373.414 373.022 372.604 372.734 372.624 372.267 372.249 372.234 372.212 372.137 372.097 371.994 371.982 371.894 371.864 371.784 371.662 371.507 371.462 371.474 371.392 371.389 371.357 371.304 371.244 371.249 371.247 371.112 371.017 370.954 370.862 370.824 370.812 370.714 370.677 370.617 370.169 368.637 368.677 369.129 369.337 369.262 369.194 369.179 369.139 369.162 369.199 369.239 369.384 369.534 369.789 370.004 370.112 370.184 370.284 370.429 370.602 370.799 370.779 370.609 370.429 370.237 370.127 370.022 369.897 369.789 369.292 369.097 369.232 369.147 369.177 369.222 369.044 368.569 368.074 368.317 368.454 368.527 368.614 368.702 368.749 368.957 368.957 368.787 368.724 368.729 368.802 368.852 368.959 369.114 369.372 369.772 370.089 370.069 370.217 370.409 370.674 370.667 370.629 370.424 370.179 369.929 369.742 369.604 369.624 369.452 369.254 369.182 369.242 369.137 369.092 369.309 369.392 369.542 369.789 370.059 370.174 370.492 370.777 370.909 370.997 370.937 370.352 370.409
-9999 -9999 -9999 -9999 -9999 -9999 -9999 -9999 -9999 -9999 -9999 -9999 -9999 -9999 -9999 -9999 -9999 -9999 -9999 -9999 -9999 -9999 -9999 -9999 -9999 -9999 -9999 -9999 -9999 -9999 -9999 -9999 -9999 -9999 -9999 -9999 -9999 -9999 413.816 413.644 413.451 413.322 413.221 413.146 412.986 412.919 412.864 412.786 412.639 412.521 412.384 412.251 412.254 412.179 412.116 411.899 411.846 411.651 411.394 411.151 410.846 410.656 410.309 409.879 409.444 408.969 408.616 408.309 408.034 408.084 408.042 407.977 408.019 408.172 408.262 408.112 407.599 407.486 407.977 408.379 408.679 408.822 408.944 408.981 408.919 408.732 408.244 408.049 408.111 408.084 408.297 408.309 408.246 408.132 408.056 407.894 407.776 407.636 407.434 407.249 407.071 406.941 406.699 406.496 406.234 405.899 405.774 405.824 405.684 405.419 405.134 404.944 404.714 404.426 404.151 403.906 403.704 403.514 403.204 402.789 402.146 401.181 400.329 399.491 398.574 397.866 397.251 397.181 397.052 396.854 397.254 397.534 397.389 397.636 397.794 397.806 397.857 397.922 398.061 398.414 398.727 398.844 398.776 398.619 398.499 398.366 398.194 398.026 397.841 397.729 397.501 397.419 397.384 397.214 396.822 396.641 396.691 396.634 396.479 396.259 395.979 395.569 395.271 395.031 394.734 394.581 394.486 394.314 394.024 393.746 393.487 393.107 392.792 392.564 392.404 392.224 391.917 391.419 391.202 390.841 390.316 389.716 388.866 388.497 388.639 388.607 388.377 388.142 387.999 387.872 387.732 387.617 387.394 387.199 387.124 386.979 386.839 386.649 386.477 386.219 385.849 385.682 385.562 385.344 385.099 384.939 384.727 384.509 384.284 383.994 383.737 383.457 383.289 383.074 382.854 382.687 382.502 382.354 382.257 382.229 382.159 381.984 381.807 381.679 381.464 381.144 380.762 380.512 380.272 380.079 379.757 379.634 379.467 379.309 379.214 379.099 379.077 378.977 378.877 378.782 378.727 378.854 379.064 379.302 379.499 379.387 379.174 378.994 378.919 378.817 378.592 378.462 378.344 378.244 378.209 378.227 378.187 378.002 377.897 377.839 377.579 377.452 377.194 377.092 376.994 376.792 376.597 376.424 376.267 376.102 375.942 375.802 375.587 375.462 375.484 375.362 375.209 375.027 374.859 374.724 374.469 374.382 374.389 374.112 373.884 373.757 373.654 373.244 373.054 372.872 372.727 372.617 372.774 372.752 372.329 372.047 371.857 371.787 371.812 371.834 371.799 371.814 371.807 371.827 371.789 371.894 371.977 372.102 372.069 371.952 371.854 371.859 371.587 371.587 371.789 371.849 371.824 371.562 371.859 371.734 371.509 371.462 371.509 371.324 371.422 371.384 370.384 368.874 369.184 369.337 369.467 369.452 369.449 369.477 369.584 369.919 370.052 370.112 370.282 370.452 370.562 370.659 370.717 370.774 370.882 371.032 371.192 371.269 371.264 371.147 371.002 370.847 370.737 370.727 370.642 370.362 370.074 370.107 370.069 370.002 369.989 369.892 369.642 369.192 368.724 369.079 369.252 369.287 369.424 369.709 369.749 369.884 369.904 369.749 369.799 369.734 369.664 369.589 369.727 369.902 370.124 370.552 370.849 370.937 371.134 371.407 371.609 371.642 371.677 371.544 371.262 370.894 370.764 370.612 370.484 370.317 370.099 370.019 370.092 369.977 369.862 370.054 370.194 370.299 370.544 370.744 371.064 371.424 371.667 371.809 371.897 371.944 370.987 370.982
-9999 -9999 -9999 -9999 -9999 -9999 -9999 -9999 -9999 -9999 -9999 -9999 -9999 -9999 -9999 -9999 -9999 -9999 -9999 -9999 -9999 -9999 -9999 -9999 -9999 -9999 -9999 -9999 -9999 -9999 -9999 -9999 -9999 -9999 -9999 -9999 -9999 413.724 413.596 413.322 413.071 412.931 412.781 412.681 412.594 412.491 412.391 412.307 412.194 412.161 412.084 412.034 411.904 411.854 411.721 411.569 411.439 411.264 411.019 410.751 410.511 410.246 409.939 409.531 409.072 408.649 408.066 407.566 407.254 407.764 407.789 407.634 407.607 407.727 407.864 407.836 407.781 407.789 407.987 408.139 408.301 408.424 408.479 408.549 408.414 408.009 407.311 406.911 407.086 406.999 407.344 407.586 407.586 407.561 407.507 407.431 407.286 407.136 407.007 406.839 406.694 406.589 406.396 406.141 405.849 405.114 404.727 405.054 405.094 404.864 404.667 404.477 404.304 404.007 403.694 403.479 403.292 403.049 402.766 402.369 401.784 400.936 400.144 399.354 398.706 398.164 397.579 396.696 396.431 396.237 396.329 396.826 396.814 396.819 397.114 397.109 397.181 397.309 397.494 397.796 398.141 398.281 398.111 397.901 397.859 397.769 397.554 397.374 397.161 396.891 396.786 396.706 396.711 396.561 396.264 396.047 396.169 396.134 395.964 395.729 395.394 395.071 394.699 394.369 394.126 393.884 393.779 393.634 393.326 392.991 392.641 392.269 391.911 391.659 391.477 391.232 390.917 390.626 390.349 389.956 389.507 388.982 388.204 387.472 387.454 387.362 387.197 386.989 386.922 386.787 386.714 386.679 386.504 386.349 386.242 386.079 385.887 385.732 385.577 385.274 385.009 384.824 384.649 384.432 384.247 384.072 383.897 383.642 383.404 383.134 382.864 382.739 382.627 382.467 382.352 382.132 381.837 381.597 381.497 381.514 381.519 381.337 381.062 380.897 380.679 380.349 380.077 379.819 379.587 379.324 379.167 379.084 378.992 378.897 378.812 378.777 378.644 378.637 378.564 378.424 378.194 378.124 378.197 378.367 378.584 378.492 378.374 378.354 378.262 378.259 378.084 377.919 377.724 377.562 377.419 377.374 377.357 377.237 377.112 377.042 376.974 376.764 376.587 376.557 376.327 376.192 376.139 376.099 376.074 376.027 375.942 375.817 375.532 375.309 375.189 374.979 374.792 374.594 374.222 374.152 374.184 374.114 373.742 373.557 373.329 373.262 372.959 372.742 372.647 372.609 372.672 372.737 372.764 372.499 372.414 372.357 372.532 372.942 372.864 373.192 372.962 372.854 372.859 372.814 373.027 373.002 373.284 373.162 373.059 372.877 372.829 372.572 372.459 372.099 372.382 372.454 372.239 372.259 371.889 371.719 371.529 371.484 371.462 371.389 371.069 370.937 370.732 369.732 369.597 369.779 369.904 369.999 370.057 370.147 370.437 370.592 370.772 370.932 371.129 371.227 371.302 371.352 371.327 371.364 371.477 371.564 371.667 371.789 371.807 371.792 371.644 371.514 371.472 371.379 371.227 371.144 370.977 371.004 370.932 370.984 370.839 370.622 370.309 369.932 369.534 369.909 369.927 370.224 370.484 370.624 370.762 370.819 370.867 370.939 370.832 370.737 370.747 370.682 370.704 370.794 371.072 371.347 371.612 371.767 371.934 372.217 372.432 372.534 372.644 372.512 372.234 371.854 371.722 371.684 371.597 371.272 370.892 370.659 370.619 370.654 370.532 370.632 370.787 370.954 371.197 371.464 371.767 372.112 372.444 372.687 372.814 372.654 371.834 371.709
-9999 -9999 -9999 -9999 -9999 -9999 -9999 -9999 -9999 -9999 -9999 -9999 -9999 -9999 -9999 -9999 -9999 -9999 -9999 -9999 -9999 -9999 -9999 -9999 -9999 -9999 -9999 -9999 -9999 -9999 -9999 -9999 -9999 -9999 -9999 -9999 413.609 413.536 413.227 412.974 412.681 412.499 412.344 412.241 412.146 412.049 411.982 411.914 411.784 411.759 411.732 411.669 411.539 411.369 411.324 411.151 411.072 410.864 410.644 410.374 410.137 409.846 409.501 409.064 408.641 408.216 407.746 407.354 407.346 407.556 407.426 407.241 407.112 407.241 407.314 407.274 407.406 407.451 407.607 407.744 407.879 407.977 408.014 408.076 407.901 407.369 406.636 406.146 406.044 406.194 406.531 406.914 406.979 406.956 406.884 406.792 406.684 406.661 406.514 406.436 406.289 406.132 405.981 405.804 405.566 404.909 404.371 404.374 404.561 404.441 404.219 404.049 403.896 403.542 403.239 402.931 402.701 402.511 402.181 401.804 401.274 400.576 399.879 399.181 398.534 397.999 397.426 396.579 395.984 395.936 395.886 395.979 396.116 396.234 396.354 396.352 396.512 396.762 396.999 397.306 397.584 397.744 397.496 397.294 397.241 397.084 396.931 396.729 396.451 396.174 396.001 395.889 396.007 395.857 395.619 395.436 395.494 395.426 395.257 395.069 394.797 394.454 394.049 393.686 393.366 393.144 392.982 392.841 392.549 392.139 391.669 391.364 391.079 390.882 390.634 390.284 390.031 389.814 389.469 389.059 388.607 388.051 387.354 386.517 386.112 386.117 385.917 385.787 385.662 385.574 385.539 385.642 385.454 385.234 385.172 385.042 384.817 384.644 384.437 384.249 384.129 383.899 383.724 383.552 383.399 383.179 382.952 382.774 382.507 382.352 382.199 382.042 381.969 381.954 381.737 381.364 381.144 380.969 380.897 380.847 380.767 380.689 380.527 380.267 379.944 379.667 379.437 379.257 379.107 379.012 378.902 378.927 378.784 378.694 378.612 378.574 378.479 378.424 378.287 378.159 377.924 377.814 377.674 377.637 377.839 377.877 377.767 377.647 377.657 377.627 377.522 377.399 377.247 377.102 376.949 376.767 376.539 376.587 376.537 376.444 376.302 376.024 375.854 375.722 375.652 375.632 375.544 375.552 375.639 375.879 375.884 375.694 375.369 375.154 374.792 374.582 374.187 373.837 373.547 373.482 373.322 373.269 373.319 373.059 372.989 372.814 372.909 372.937 372.734 372.884 373.099 373.279 373.574 373.282 373.222 373.447 373.424 373.289 373.294 373.209 373.204 373.159 373.179 373.157 373.247 373.097 373.097 373.019 372.892 372.622 372.459 372.414 372.539 372.424 372.379 372.234 372.067 371.997 371.904 371.784 371.719 371.767 371.772 371.574 371.429 371.279 371.039 370.859 370.834 370.662 370.599 370.832 371.024 371.449 371.449 371.612 371.792 371.864 371.879 371.949 372.014 371.999 372.007 372.052 372.124 372.202 372.264 372.372 372.372 372.337 372.314 372.247 372.169 372.059 371.927 371.684 371.662 371.777 371.659 371.644 371.647 371.524 371.332 370.972 370.597 370.519 370.972 371.327 371.724 371.804 371.842 371.932 371.919 371.964 372.039 371.954 372.087 372.102 371.892 371.937 371.997 372.309 372.544 372.567 372.787 373.062 373.217 373.412 373.459 373.447 373.299 373.012 372.842 372.717 372.562 372.344 372.039 371.684 371.457 371.347 371.457 371.867 372.074 372.072 372.214 372.362 372.642 372.859 373.177 373.294 373.482 373.522 373.382 373.194
-9999 -9999 -9999 -9999 -9999 -9999 -9999 -9999 -9999 -9999 -9999 -9999 -9999 -9999 -9999 -9999 -9999 -9999 -9999 -9999 -9999 -9999 -9999 -9999 -9999 -9999 -9999 -9999 -9999 -9999 -9999 -9999 -9999 -9999 -9999 -9999 413.469 413.144 412.881 412.614 412.319 412.049 411.969 411.861 411.727 411.614 411.561 411.486 411.501 411.314 411.357 411.361 411.169 410.982 410.926 410.769 410.659 410.511 410.239 409.961 409.809 409.572 409.086 408.564 408.021 407.559 407.391 407.346 407.286 407.159 406.971 406.809 406.614 406.664 406.649 406.759 406.894 407.001 407.196 407.417 407.529 407.602 407.624 407.614 407.394 406.804 406.306 405.887 405.354 405.471 406.034 406.424 406.454 406.417 406.349 406.297 406.286 406.276 406.156 406.026 405.881 405.694 405.524 405.376 405.186 404.869 404.426 404.219 404.204 403.941 403.776 403.596 403.364 403.091 402.794 402.449 402.219 401.964 401.684 401.309 400.831 400.209 399.624 399.039 398.366 397.821 397.174 396.639 396.169 396.019 395.369 394.924 395.339 395.804 395.756 395.697 395.739 396.076 396.396 396.719 396.977 397.129 396.991 396.821 396.641 396.461 396.251 396.056 395.639 395.179 394.854 394.829 395.011 395.154 395.049 394.901 394.806 394.711 394.551 394.384 394.119 393.794 393.339 392.889 392.579 392.324 392.151 391.954 391.669 391.216 390.739 390.389 390.211 390.014 389.734 389.439 389.214 388.941 388.551 388.102 387.609 386.999 386.352 385.702 385.197 385.027 384.819 384.654 384.454 384.184 384.027 384.022 384.009 383.777 383.547 383.512 383.262 383.042 382.967 382.949 382.939 382.917 382.749 382.794 382.774 382.509 382.194 382.027 381.757 381.679 381.489 381.409 381.312 381.237 380.984 380.689 380.599 380.512 380.462 380.399 380.314 380.169 380.022 379.747 379.379 379.249 379.044 378.957 378.914 378.857 378.809 378.842 378.774 378.694 378.689 378.454 378.427 378.324 378.152 378.002 377.604 377.042 376.974 376.924 376.992 376.939 376.949 376.799 376.764 376.839 376.819 376.837 376.849 376.822 376.522 376.434 376.177 376.122 376.099 375.899 375.792 375.672 375.592 375.542 375.544 375.544 375.472 375.557 375.457 375.494 375.697 375.532 374.987 374.179 373.854 373.692 373.654 373.594 373.707 373.754 373.569 373.432 373.362 373.217 373.332 373.132 373.437 373.649 374.059 374.492 374.772 374.854 375.007 375.044 374.754 374.274 374.054 373.849 373.837 373.669 373.522 373.474 373.294 373.179 373.109 373.112 373.237 373.297 373.087 372.742 372.742 372.942 373.132 372.767 372.642 372.604 372.559 372.522 372.522 372.724 372.632 372.727 372.984 372.992 372.872 372.599 372.729 372.837 372.804 372.712 372.754 372.874 372.882 372.867 372.662 372.657 372.714 372.712 372.659 372.664 372.752 372.769 372.804 372.839 372.887 372.939 372.994 373.019 372.962 372.959 372.954 372.869 372.789 372.649 372.547 372.302 372.277 372.409 372.379 372.329 372.344 372.254 372.192 372.174 372.144 371.672 371.842 372.259 372.627 372.802 372.864 372.949 373.287 373.114 372.982 373.017 372.982 373.069 373.034 372.982 373.114 373.302 373.439 373.564 373.652 373.812 374.037 374.227 374.387 374.367 374.334 374.277 374.244 374.249 374.074 373.484 373.107 372.982 372.732 372.579 372.649 372.964 373.077 373.199 373.377 373.494 373.657 373.797 373.979 374.087 374.244 374.344 374.027 373.924
-9999 -9999 -9999 -9999 -9999 -9999 -9999 -9999 -9999 -9999 -9999 -9999 -9999 -9999 -9999 -9999 -9999 -9999 -9999 -9999 -9999 -9999 -9999 -9999 -9999 -9999 -9999 -9999 -9999 -9999 -9999 -9999 -9999 -9999 -9999 413.549 413.221 412.846 412.529 412.199 411.917 411.671 411.549 411.411 411.261 411.136 410.996 410.959 410.946 410.891 410.939 410.934 410.786 410.572 410.439 410.309 410.134 410.044 409.831 409.566 409.464 409.309 408.809 408.181 407.584 406.941 406.996 407.039 406.901 406.729 406.549 406.389 406.301 406.284 406.289 406.346 406.549 406.691 406.922 407.172 407.216 407.251 407.227 407.086 406.759 406.409 406.254 405.969 405.669 405.644 405.881 405.911 405.894 405.826 405.854 405.844 405.857 405.852 405.744 405.564 405.389 405.271 405.112 404.924 404.701 404.466 404.224 404.016 403.797 403.529 403.324 403.121 402.894 402.641 402.357 402.061 401.819 401.466 401.211 400.841 400.426 399.866 399.304 398.831 398.286 397.607 397.007 396.494 396.129 395.654 394.909 394.167 394.201 394.784 395.034 395.061 395.029 395.389 395.774 396.059 396.326 396.469 396.424 396.269 396.029 395.786 395.586 395.311 394.672 394.026 393.727 393.797 393.944 394.074 394.186 394.246 394.079 393.914 393.721 393.536 393.274 392.961 392.516 392.061 391.737 391.496 391.241 391.052 390.709 390.219 389.944 389.669 389.477 389.172 388.882 388.667 388.379 388.056 387.579 387.099 386.551 385.729 385.161 384.794 384.594 384.332 383.997 383.617 383.354 383.087 382.902 382.797 382.699 382.624 382.492 382.429 382.247 382.097 382.029 381.937 382.029 382.057 381.969 381.812 381.859 381.479 381.342 381.229 381.049 380.919 380.754 380.667 380.662 380.677 380.532 380.387 380.227 380.107 380.029 379.954 379.799 379.642 379.439 379.324 379.144 379.049 378.967 378.892 378.854 378.924 378.854 378.794 378.772 378.679 378.527 378.272 378.179 377.944 377.709 377.522 377.407 376.864 376.837 376.862 377.012 376.887 376.809 376.719 376.622 376.559 376.502 376.442 376.454 376.377 376.332 376.372 376.187 376.087 376.019 375.977 375.814 375.659 375.822 375.844 375.802 375.624 375.567 375.519 375.412 375.302 375.299 375.014 374.194 373.734 373.907 374.009 374.129 374.092 374.269 374.269 374.402 374.317 374.404 374.374 374.869 374.837 375.457 375.637 375.957 375.847 375.747 375.687 375.354 375.294 375.137 374.922 374.769 374.544 374.484 374.357 374.247 374.092 373.929 373.569 373.379 373.279 373.314 373.359 373.179 372.949 373.067 373.342 373.344 373.104 373.007 373.144 373.112 373.179 373.334 373.627 373.687 373.889 373.987 374.087 374.152 374.034 373.989 373.982 373.927 373.834 373.709 373.744 373.804 373.749 373.664 373.627 373.639 373.589 373.634 373.609 373.584 373.572 373.574 373.589 373.674 373.752 373.739 373.739 373.699 373.592 373.562 373.534 373.492 373.237 373.099 372.919 372.769 372.949 372.962 372.949 373.054 372.984 372.827 372.762 372.832 372.694 373.047 373.147 373.707 373.964 374.007 374.217 374.624 374.679 374.454 374.262 374.422 374.234 374.079 374.129 374.267 374.602 374.742 374.827 374.747 374.862 375.104 375.229 375.429 375.477 375.429 375.287 375.384 375.372 375.314 374.889 374.239 373.937 373.674 373.524 373.442 373.714 373.944 374.139 374.259 374.434 374.617 374.762 374.902 375.042 375.127 375.204 374.907 374.852
-9999 -9999 -9999 -9999 -9999 -9999 -9999 -9999 -9999 -9999 -9999 -9999 -9999 -9999 -9999 -9999 -9999 -9999 -9999 -9999 -9999 -9999 -9999 -9999 -9999 -9999 -9999 -9999 -9999 -9999 -9999 -9999 -9999 -9999 413.339 413.219 412.969 412.526 412.159 411.824 411.486 411.276 411.174 410.941 410.629 410.366 410.279 410.349 410.384 410.234 410.297 410.311 410.286 410.109 410.001 409.914 409.764 409.549 409.316 409.061 408.989 409.009 408.751 408.174 407.329 406.774 406.821 406.794 406.569 406.326 406.086 405.977 405.944 405.964 406.031 406.151 406.254 406.384 406.589 406.804 406.607 406.721 406.779 406.584 406.299 405.996 405.964 405.974 405.844 405.826 405.774 405.566 405.401 405.306 405.336 405.322 405.341 405.336 405.234 405.134 404.914 404.741 404.604 404.446 404.254 404.021 403.792 403.594 403.349 403.134 402.889 402.641 402.424 402.174 401.931 401.609 401.359 400.982 400.704 400.409 400.061 399.644 399.154 398.714 398.119 397.486 396.882 396.334 395.914 395.281 394.496 393.514 393.311 393.869 394.251 394.284 394.181 394.329 394.781 395.176 395.531 395.774 395.734 395.529 395.244 394.901 394.699 394.419 393.737 393.039 392.672 392.709 392.704 392.981 393.316 393.406 393.241 393.011 392.809 392.542 392.326 392.056 391.621 391.146 390.884 390.579 390.299 390.064 389.714 389.394 389.149 388.867 388.589 388.306 388.042 387.784 387.474 387.009 386.379 385.684 385.079 384.501 384.184 384.104 383.972 383.664 383.477 383.097 382.744 382.444 382.292 382.122 382.002 381.824 381.607 381.579 381.494 381.232 381.137 380.979 381.067 380.864 380.512 380.224 380.157 380.282 380.289 380.132 380.012 379.924 379.887 379.892 380.004 380.054 380.029 379.954 379.787 379.662 379.582 379.502 379.397 379.322 379.264 379.139 379.017 378.992 378.967 378.922 378.937 378.924 378.924 378.787 378.632 378.457 378.117 377.822 377.804 377.657 377.612 377.549 377.539 377.062 377.017 377.152 377.322 377.212 377.164 377.069 376.982 376.799 376.594 376.487 376.472 376.384 376.337 376.392 376.294 376.042 376.077 376.159 376.029 376.092 376.234 376.187 376.119 375.927 375.827 375.757 375.569 375.269 375.089 374.832 374.747 374.552 374.347 374.619 374.729 374.867 375.012 375.172 375.499 375.702 375.822 375.727 375.882 375.887 375.867 375.952 376.052 375.989 375.949 375.972 375.957 375.847 375.617 375.509 375.404 375.249 375.147 375.037 374.832 374.602 374.367 374.059 373.777 373.657 373.669 373.704 373.564 373.364 373.547 373.872 373.797 373.594 373.569 373.792 373.962 374.017 374.152 374.154 374.347 374.539 374.607 374.672 374.759 374.669 374.629 374.582 374.524 374.507 374.492 374.419 374.592 374.612 374.654 374.674 374.649 374.569 374.484 374.487 374.362 374.344 374.389 374.377 374.459 374.519 374.457 374.424 374.359 374.194 374.117 374.144 374.094 373.862 373.627 373.399 373.312 373.724 373.707 373.639 373.664 373.787 373.702 373.647 373.714 373.472 373.689 374.072 374.634 374.882 375.067 375.239 375.379 375.539 375.552 375.549 375.514 375.299 375.054 374.962 375.347 375.472 375.607 375.622 375.532 375.684 375.724 375.842 375.969 375.972 376.004 376.022 376.077 376.064 375.972 375.807 375.454 375.237 374.927 374.317 374.277 374.664 374.974 375.139 375.269 375.497 375.647 375.829 375.914 376.037 376.107 376.002 375.844 375.854
-9999 -9999 -9999 -9999 -9999 -9999 -9999 -9999 -9999 -9999 -9999 -9999 -9999 -9999 -9999 -9999 -9999 -9999 -9999 -9999 -9999 -9999 -9999 -9999 -9999 -9999 -9999 -9999 -9999 -9999 -9999 -9999 -9999 -9999 413.164 412.906 412.556 412.216 411.911 411.534 411.044 410.766 410.649 410.296 409.944 409.704 409.644 409.771 409.704 409.474 409.334 409.424 409.637 409.641 409.509 409.394 409.257 408.991 408.516 408.266 408.389 408.654 408.519 408.047 407.561 407.076 406.746 406.446 406.116 405.871 405.581 405.491 405.479 405.501 405.539 405.676 405.809 405.999 406.209 406.174 406.154 406.181 406.197 405.989 405.689 405.621 405.679 405.709 405.651 405.569 405.439 405.227 404.952 404.761 404.829 404.844 404.749 404.736 404.586 404.484 404.311 404.206 404.131 403.924 403.769 403.539 403.329 403.096 402.909 402.676 402.474 402.227 401.996 401.749 401.509 401.234 400.974 400.694 400.439 400.114 399.794 399.439 399.056 398.589 397.961 397.364 396.769 396.229 395.576 394.819 394.104 393.297 392.741 393.211 393.512 393.479 393.409 393.429 393.809 394.194 394.524 394.799 394.779 394.591 394.274 393.904 393.619 393.484 393.119 392.456 391.789 391.569 391.561 392.059 392.419 392.431 392.191 391.982 391.711 391.456 391.214 390.899 390.544 390.149 389.954 389.724 389.474 389.214 388.956 388.651 388.286 387.846 387.434 387.232 386.816 386.579 386.324 385.316 384.857 384.319 383.966 383.816 383.644 383.544 383.347 382.987 382.752 382.487 382.047 381.669 381.417 381.204 380.882 380.734 380.604 380.484 380.322 379.834 379.744 379.872 379.669 379.279 379.184 379.149 379.344 379.529 379.714 379.684 379.602 379.644 379.467 379.317 379.239 379.474 379.459 379.427 379.404 379.397 379.359 379.297 379.289 379.252 379.199 379.129 379.074 379.047 379.007 378.982 378.972 378.929 378.854 378.637 378.277 378.119 377.992 377.734 377.664 377.662 377.729 378.039 377.999 377.577 377.509 377.544 377.552 377.429 377.304 377.284 377.212 377.092 376.977 376.982 376.872 376.879 376.864 376.844 376.637 376.457 376.619 376.564 376.449 376.389 376.332 376.214 376.142 376.067 375.947 375.869 375.759 375.512 375.507 375.384 375.219 375.277 375.369 375.479 375.577 375.909 375.904 375.907 375.644 375.724 375.852 376.014 376.194 376.379 376.517 376.667 376.777 376.739 376.757 376.769 376.627 376.529 376.417 376.264 376.057 375.899 375.777 375.604 375.384 375.082 374.809 374.572 374.377 374.264 374.182 374.157 373.959 373.834 374.154 374.414 374.364 374.214 374.177 374.249 374.407 374.482 374.652 374.732 374.892 375.007 375.094 375.192 375.234 375.232 375.224 375.264 375.202 375.152 375.124 375.249 375.387 375.529 375.589 375.637 375.589 375.484 375.392 375.282 375.277 375.187 375.164 375.102 375.182 375.269 375.239 375.172 375.029 374.857 374.792 374.912 374.874 374.669 374.407 374.217 374.559 374.852 374.569 374.507 374.662 374.987 374.897 374.944 374.962 374.689 374.877 375.052 375.197 375.432 375.692 375.834 375.962 376.092 376.147 376.127 376.084 375.922 375.757 375.747 375.937 376.107 376.184 376.197 376.177 376.184 376.232 376.322 376.424 376.464 376.534 376.554 376.564 376.652 376.704 376.412 376.142 376.064 375.937 375.539 375.644 375.919 376.004 376.077 376.172 376.302 376.537 376.767 376.829 376.869 376.867 376.632 376.674 376.752
-9999 -9999 -9999 -9999 -9999 -9999 -9999 -9999 -9999 -9999 -9999 -9999 -9999 -9999 -9999 -9999 -9999 -9999 -9999 -9999 -9999 -9999 -9999 -9999 -9999 -9999 -9999 -9999 -9999 -9999 -9999 -9999 -9999 413.129 412.917 412.616 412.341 411.987 411.641 411.169 410.617 410.164 409.869 409.591 409.294 408.994 408.909 409.156 409.136 408.864 408.589 408.669 408.944 409.049 408.977 408.816 408.614 408.302 407.661 407.691 407.954 408.314 408.227 407.836 407.427 407.051 406.602 406.139 405.714 405.424 405.151 404.979 404.996 404.964 404.984 405.099 405.269 405.514 405.739 405.759 405.564 405.534 405.599 405.362 405.211 405.211 405.239 405.271 405.219 405.124 404.964 404.781 404.501 404.206 404.214 404.204 404.019 403.971 403.852 403.792 403.724 403.649 403.604 403.454 403.246 403.036 402.771 402.619 402.417 402.229 401.994 401.802 401.609 401.399 401.232 400.984 400.761 400.401 400.227 399.891 399.619 399.311 398.917 398.359 397.786 397.214 396.661 396.029 395.239 394.374 393.556 392.951 392.189 392.526 392.771 392.719 392.721 392.804 393.061 393.309 393.539 393.786 393.732 393.304 392.989 392.634 392.362 392.329 392.209 391.822 391.089 390.564 390.542 391.084 391.444 391.311 391.047 390.814 390.561 390.249 389.924 389.656 389.429 389.206 388.977 388.826 388.656 388.431 388.107 387.422 386.709 386.056 385.441 385.269 385.079 384.584 384.431 383.651 383.561 383.387 383.324 383.244 383.154 383.047 382.842 382.457 382.084 381.782 381.334 381.114 380.757 380.544 380.649 380.594 380.362 380.169 380.244 380.169 380.364 380.377 380.212 379.942 379.559 379.352 379.242 379.194 379.097 379.097 379.079 378.994 378.907 378.774 378.719 378.839 378.819 378.782 378.867 379.019 379.012 378.977 379.084 379.107 379.077 379.094 379.144 379.047 378.984 378.947 378.919 378.792 378.549 378.222 378.109 378.099 378.057 377.819 377.749 377.884 378.267 378.299 378.142 377.882 377.804 377.829 377.687 377.622 377.539 377.499 377.414 377.282 377.249 377.189 377.067 377.002 376.977 376.909 376.804 376.684 376.477 376.444 376.429 376.377 376.367 376.272 376.192 376.117 376.032 375.952 375.789 375.649 375.779 375.884 375.917 375.902 376.122 376.119 375.924 375.674 375.747 375.927 376.007 376.124 376.299 376.499 376.742 376.997 377.152 377.337 377.469 377.519 377.549 377.567 377.429 377.267 377.094 376.942 376.719 376.532 376.394 376.164 375.932 375.644 375.434 375.194 375.014 374.857 374.719 374.684 374.637 374.409 374.732 374.792 374.787 374.722 374.712 374.782 374.837 374.952 375.167 375.322 375.404 375.557 375.667 375.727 375.799 375.842 375.912 375.919 375.919 375.922 375.977 376.162 376.282 376.387 376.459 376.442 376.417 376.352 376.357 376.399 376.337 376.104 375.917 375.819 375.892 376.009 376.007 375.849 375.697 375.557 375.527 375.574 375.567 375.484 375.412 375.424 375.224 375.382 375.469 375.447 375.572 375.512 375.589 375.492 375.502 375.417 375.577 375.692 375.777 375.852 375.979 376.179 376.287 376.474 376.534 376.542 376.467 376.399 376.334 376.324 376.457 376.607 376.717 376.729 376.697 376.692 376.757 376.792 376.867 376.952 376.939 376.974 377.059 377.069 377.057 376.964 376.739 376.652 376.714 376.572 376.549 376.549 376.664 376.762 376.894 377.034 377.187 377.309 377.452 377.542 377.544 377.297 377.094 377.092
-9999 -9999 -9999 -9999 -9999 -9999 -9999 -9999 -9999 -9999 -9999 -9999 -9999 -9999 -9999 -9999 -9999 -9999 -9999 -9999 -9999 -9999 -9999 -9999 -9999 -9999 -9999 -9999 -9999 -9999 -9999 -9999 413.119 412.974 412.674 412.369 412.064 411.771 411.306 410.764 410.051 409.561 409.249 408.946 408.634 408.379 408.434 408.694 408.531 408.086 407.819 407.734 408.281 408.444 408.414 408.259 407.986 407.879 407.734 407.736 407.954 408.019 407.826 407.549 407.154 406.744 406.289 405.784 405.336 405.019 404.811 404.681 404.581 404.534 404.484 404.586 404.786 405.014 405.184 405.246 405.141 405.024 404.991 404.859 404.679 404.697 404.732 404.616 404.504 404.451 404.234 404.072 403.869 403.519 403.436 403.471 403.341 403.269 403.117 403.072 403.014 403.004 402.926 402.826 402.651 402.429 402.239 402.066 401.889 401.711 401.516 401.331 401.184 400.971 400.797 400.614 400.426 400.134 399.949 399.679 399.464 399.179 398.732 398.191 397.536 396.911 396.352 395.839 395.014 393.831 393.007 392.044 391.542 391.704 391.971 391.871 391.896 392.164 392.419 392.551 392.494 392.551 392.511 392.144 391.844 391.526 391.321 391.224 390.917 390.609 390.224 389.744 389.574 389.969 390.126 390.054 389.834 389.604 389.346 389.049 388.769 388.496 388.306 388.191 388.024 387.836 387.656 387.279 386.816 384.881 384.214 383.929 383.709 383.359 383.154 383.007 382.786 382.619 382.426 382.292 382.139 382.234 382.434 382.477 382.189 381.794 381.469 381.159 380.974 380.842 380.749 380.602 380.507 380.342 380.424 380.612 380.739 380.732 380.717 380.714 380.587 380.352 380.084 380.074 380.002 379.817 379.627 379.542 379.582 379.489 378.762 378.612 378.574 378.489 378.444 378.442 378.479 378.439 378.439 378.417 378.407 378.517 378.542 378.652 378.642 378.584 378.574 378.504 378.399 378.307 378.222 378.197 378.199 378.154 378.094 377.967 377.999 378.329 378.324 378.242 378.119 378.022 377.897 377.872 377.732 377.687 377.682 377.617 377.492 377.402 377.344 377.279 377.167 377.072 377.004 377.027 376.814 376.557 376.259 376.302 376.384 376.364 376.292 376.234 376.182 376.139 376.057 376.104 376.062 376.227 376.154 376.114 376.027 375.944 375.909 375.982 375.989 376.044 376.244 376.317 376.389 376.644 376.767 376.947 377.179 377.512 377.792 378.112 378.297 378.402 378.482 378.437 378.299 378.099 377.882 377.689 377.444 377.222 377.009 376.759 376.572 376.352 376.134 375.924 375.782 375.562 375.302 375.249 375.207 374.954 375.129 375.204 375.204 375.257 375.162 375.199 375.237 375.439 375.647 375.814 375.844 375.989 376.149 376.229 376.344 376.417 376.499 376.592 376.617 376.602 376.724 376.879 376.974 377.154 377.249 377.219 377.197 377.154 377.194 377.214 377.159 376.997 376.694 376.544 376.677 376.714 376.674 376.562 376.374 376.187 376.179 376.292 376.197 376.124 376.242 376.282 376.004 376.124 376.144 376.074 376.039 375.984 376.044 375.977 375.962 375.857 376.069 376.182 376.249 376.229 376.327 376.489 376.634 376.779 376.849 376.857 376.837 376.859 376.784 376.804 376.897 377.067 377.224 377.269 377.279 377.287 377.334 377.337 377.429 377.547 377.494 377.497 377.572 377.609 377.589 377.467 377.299 377.092 377.039 376.937 376.992 377.082 377.182 377.432 377.594 377.724 377.982 378.192 378.404 378.552 378.632 378.319 377.792 377.564
-9999 -9999 -9999 -9999 -9999 -9999 -9999 -9999 -9999 -9999 -9999 -9999 -9999 -9999 -9999 -9999 -9999 -9999 -9999 -9999 -9999 -9999 -9999 -9999 -9999 -9999 -9999 -9999 -9999 -9999 -9999 413.009 412.944 412.786 412.484 412.174 411.816 411.451 410.871 410.199 409.609 409.109 408.732 408.447 408.329 408.336 408.376 408.514 408.369 407.982 407.811 407.864 408.116 408.021 407.862 407.759 407.649 407.721 407.819 407.764 407.736 407.689 407.466 407.117 406.781 406.379 405.901 405.424 404.954 404.602 404.419 404.304 404.221 404.151 404.094 404.144 404.401 404.479 404.607 404.637 404.526 404.334 404.171 404.159 404.012 403.949 403.876 403.749 403.604 403.484 403.311 403.199 403.066 402.789 402.774 402.701 402.671 402.479 402.357 402.346 402.271 402.271 402.161 402.011 401.939 401.829 401.694 401.599 401.431 401.249 401.099 400.917 400.757 400.584 400.339 400.154 399.994 399.854 399.559 399.424 399.204 398.914 398.479 397.917 397.151 396.419 395.781 395.264 394.596 393.572 392.581 391.179 390.814 391.039 391.216 391.271 391.072 391.316 391.624 391.864 391.714 391.509 391.461 391.326 391.094 390.804 390.574 390.216 389.757 389.489 389.096 388.539 388.369 388.591 388.639 388.624 388.509 388.322 388.061 387.899 387.704 387.444 387.266 386.879 386.869 386.281 386.139 385.486 384.019 383.297 382.909 382.864 382.831 382.661 382.369 382.354 382.306 382.261 382.167 381.826 381.806 381.757 381.632 381.544 381.502 381.384 381.062 380.917 380.937 381.057 381.144 380.879 380.839 381.149 381.589 381.809 382.037 382.139 381.802 381.472 381.242 380.862 380.677 380.727 380.689 380.467 380.209 380.084 380.029 379.957 379.759 379.362 379.232 379.327 379.017 378.829 378.807 378.714 378.702 378.657 378.652 378.524 378.492 378.422 378.354 378.299 378.289 378.252 378.277 378.294 378.274 378.299 378.402 378.502 378.737 378.742 378.752 378.832 378.734 378.499 378.622 378.559 378.459 378.284 378.252 378.267 378.229 377.934 377.867 377.902 377.842 377.849 377.687 377.527 377.419 377.407 377.224 377.304 377.004 377.029 376.657 376.744 376.759 376.667 376.547 376.492 376.409 376.379 376.269 376.189 376.114 376.112 376.174 376.154 376.217 376.257 376.407 376.572 376.637 376.712 376.752 376.962 377.142 377.377 377.714 378.147 378.577 378.924 379.089 379.267 379.349 379.352 379.202 378.967 378.684 378.394 378.074 377.787 377.557 377.374 377.279 377.129 376.889 376.644 376.499 376.237 375.907 375.769 375.669 375.452 375.482 375.652 375.482 375.497 375.562 375.569 375.654 375.802 376.057 376.257 376.349 376.514 376.729 376.872 377.009 377.109 377.184 377.179 377.282 377.389 377.469 377.657 377.712 377.787 377.964 377.987 377.939 377.932 377.937 377.954 377.889 377.692 377.374 377.294 377.399 377.429 377.347 377.294 377.147 376.997 377.042 377.174 377.082 376.854 376.684 376.679 376.489 376.584 376.529 376.429 376.519 376.419 376.324 376.354 376.314 376.179 376.414 376.499 376.464 376.494 376.629 376.784 376.892 377.034 377.112 377.224 377.302 377.352 377.299 377.339 377.534 377.682 377.809 377.872 377.902 377.979 377.989 378.044 378.132 378.187 378.157 378.139 378.202 378.267 378.269 378.119 377.929 377.722 377.524 377.449 377.539 377.684 377.889 378.107 378.369 378.569 378.834 379.084 379.389 379.522 379.649 379.397 378.704 378.079
-9999 -9999 -9999 -9999 -9999 -9999 -9999 -9999 -9999 -9999 -9999 -9999 -9999 -9999 -9999 -9999 -9999 -9999 -9999 -9999 -9999 -9999 -9999 -9999 -9999 -9999 -9999 -9999 -9999 -9999 -9999 412.872 412.697 412.447 412.189 411.804 411.369 411.052 410.409 409.689 409.237 408.559 408.259 408.144 408.227 408.286 408.292 408.306 408.244 408.149 408.069 408.171 407.996 407.704 407.551 407.556 407.411 407.487 407.539 407.484 407.371 407.206 407.036 406.716 406.391 405.944 405.514 405.066 404.661 404.289 404.029 403.884 403.779 403.697 403.616 403.611 403.754 403.854 403.929 403.911 403.779 403.629 403.471 403.354 403.199 403.071 402.911 402.859 402.746 402.551 402.339 402.254 402.146 401.939 401.896 401.882 401.774 401.654 401.554 401.501 401.484 401.484 401.477 401.401 401.359 401.281 401.191 401.149 400.984 400.784 400.651 400.491 400.354 400.176 399.969 399.696 399.487 399.394 399.204 399.009 398.732 398.441 398.016 397.477 396.651 395.797 395.244 394.824 394.364 393.556 392.441 391.126 390.394 390.564 390.449 390.724 390.489 390.566 390.681 390.882 390.869 390.769 390.696 390.607 390.441 390.119 389.861 389.599 388.589 387.676 387.136 386.971 387.021 387.171 387.209 387.109 387.054 386.789 386.424 386.219 385.977 385.841 385.609 385.504 385.331 385.026 384.911 384.191 382.914 382.559 382.617 382.639 382.674 382.469 382.471 382.607 382.702 382.607 382.686 382.359 382.089 381.996 381.732 381.607 381.617 381.682 381.754 381.769 381.632 381.879 382.107 382.137 382.142 382.424 382.764 382.957 383.064 383.037 382.817 382.527 382.152 381.462 381.394 381.647 381.817 381.404 381.272 380.952 380.837 380.624 380.639 380.509 380.377 380.259 380.009 379.764 379.649 379.612 379.509 379.094 379.377 379.422 379.442 379.334 379.097 378.889 378.689 378.499 378.604 378.902 378.867 378.969 379.014 379.009 378.832 378.627 378.514 378.447 378.264 378.214 378.122 378.024 378.044 378.177 378.272 378.144 378.077 377.962 377.834 377.714 377.562 377.507 377.467 377.349 377.222 377.172 377.029 376.939 376.844 376.729 376.612 376.509 376.407 376.322 376.339 376.329 376.374 376.329 376.264 376.332 376.399 376.539 376.654 376.732 376.724 376.719 376.949 377.092 377.144 377.229 377.269 377.439 377.702 377.972 378.379 378.867 379.287 379.629 379.839 380.054 380.167 380.132 380.004 379.762 379.437 379.092 378.724 378.474 378.279 378.147 378.027 377.907 377.677 377.399 377.222 376.909 376.587 376.274 376.134 375.924 375.944 376.094 375.589 375.727 375.874 375.879 375.974 376.197 376.439 376.692 376.887 377.052 377.269 377.472 377.627 377.764 377.834 377.942 378.039 378.192 378.249 378.414 378.534 378.634 378.767 378.759 378.749 378.732 378.767 378.792 378.634 378.457 378.137 378.047 378.084 378.134 378.134 378.077 377.864 377.702 377.799 377.987 377.857 377.557 377.229 376.992 376.804 376.954 376.932 376.964 376.962 377.047 377.024 376.847 376.772 376.637 376.804 376.882 376.879 376.872 376.924 377.062 377.222 377.362 377.477 377.692 377.689 377.832 377.934 378.039 378.162 378.312 378.392 378.522 378.597 378.712 378.754 378.794 378.899 378.917 378.949 378.922 378.852 378.964 378.989 378.802 378.524 378.189 377.987 377.917 378.059 378.232 378.454 378.737 379.079 379.417 379.697 379.929 380.327 380.609 380.764 380.589 379.649 378.684
-9999 -9999 -9999 -9999 -9999 -9999 -9999 -9999 -9999 -9999 -9999 -9999 -9999 -9999 -9999 -9999 -9999 -9999 -9999 -9999 -9999 -9999 -9999 -9999 -9999 -9999 -9999 -9999 -9999 -9999 412.712 412.599 412.374 412.094 411.759 411.302 410.821 410.414 409.989 409.186 408.554 408.274 408.146 407.989 407.857 407.866 408.011 408.021 408.004 407.959 407.919 407.911 407.769 407.456 407.259 407.184 407.184 407.246 407.234 407.111 406.939 406.696 406.454 406.179 405.856 405.504 405.156 404.786 404.404 403.994 403.651 403.419 403.257 403.172 403.056 403.009 403.074 403.134 403.154 403.126 402.977 402.862 402.741 402.579 402.401 402.281 402.171 401.994 401.841 401.674 401.534 401.379 401.349 401.219 401.109 400.989 400.852 400.724 400.661 400.639 400.646 400.656 400.679 400.776 400.762 400.699 400.624 400.464 400.341 400.236 400.132 399.956 399.819 399.677 399.396 399.134 398.834 398.667 398.591 398.406 398.096 397.754 397.301 396.681 395.884 395.211 394.711 394.294 393.831 393.224 392.264 391.129 389.979 389.906 389.956 390.061 389.989 389.969 389.954 389.999 390.012 390.031 390.069 390.031 389.854 389.547 389.266 388.714 387.511 386.609 386.229 386.186 386.214 386.051 385.986 385.899 385.789 385.669 385.701 385.496 385.189 385.236 385.121 385.189 385.099 384.996 384.814 384.304 383.224 382.564 382.576 382.626 383.059 383.111 383.049 383.149 383.104 383.056 382.991 382.879 382.676 382.669 382.626 382.497 382.559 382.614 382.584 382.499 382.544 382.489 382.719 382.894 383.142 383.317 383.452 383.627 383.737 384.119 383.782 383.289 382.969 382.847 382.584 382.379 382.124 382.032 381.789 381.652 381.517 381.279 381.232 381.109 381.174 381.072 380.944 380.729 380.719 380.609 380.554 380.124 380.277 380.224 380.317 379.969 379.709 379.639 379.647 379.429 379.327 379.229 379.097 378.989 378.914 378.794 378.649 378.572 378.457 378.362 378.242 378.182 378.082 378.014 378.177 378.272 378.259 378.229 378.092 377.897 377.732 377.582 377.547 377.524 377.587 377.502 377.394 377.309 377.187 377.114 377.029 376.914 376.824 376.739 376.674 376.662 376.657 376.684 376.782 376.777 376.822 376.857 376.924 376.994 377.149 377.309 377.242 377.144 377.364 377.472 377.542 377.634 377.742 377.952 378.369 378.712 379.092 379.572 380.029 380.384 380.677 380.834 380.909 380.822 380.639 380.434 380.152 379.794 379.474 379.242 379.079 378.947 378.804 378.644 378.422 378.164 377.907 377.642 377.294 376.892 376.627 376.422 376.309 376.302 376.077 375.984 376.109 376.224 376.339 376.549 376.892 377.172 377.387 377.584 377.787 378.019 378.214 378.384 378.604 378.759 378.872 378.982 379.094 379.262 379.482 379.549 379.599 379.584 379.539 379.572 379.594 379.572 379.462 379.232 378.972 378.902 378.922 378.979 378.999 378.924 378.762 378.532 378.664 378.869 378.679 378.117 377.457 377.184 377.174 377.287 377.397 377.539 377.632 377.642 377.514 377.307 377.127 377.032 377.067 377.197 377.119 377.089 377.252 377.454 377.617 377.784 377.902 378.067 378.139 378.244 378.429 378.614 378.814 378.954 379.142 379.299 379.362 379.482 379.572 379.617 379.704 379.757 379.799 379.799 379.759 379.734 379.694 379.532 379.192 378.769 378.509 378.409 378.507 378.717 379.007 379.417 379.827 380.252 380.627 380.932 381.294 381.539 381.719 381.584 380.597 379.279
-9999 -9999 -9999 -9999 -9999 -9999 -9999 -9999 -9999 -9999 -9999 -9999 -9999 -9999 -9999 -9999 -9999 -9999 -9999 -9999 -9999 -9999 -9999 -9999 -9999 -9999 -9999 -9999 -9999 412.169 412.264 412.017 411.684 411.404 410.969 410.469 409.886 409.616 409.241 408.586 408.111 407.919 407.799 407.724 407.556 407.491 407.539 407.576 407.599 407.572 407.607 407.604 407.479 407.194 406.926 406.882 406.829 406.852 406.831 406.686 406.464 406.216 405.969 405.679 405.357 405.119 404.852 404.494 404.071 403.596 403.167 402.816 402.661 402.544 402.451 402.359 402.474 402.431 402.389 402.346 402.204 402.091 401.969 401.786 401.624 401.491 401.341 401.146 401.001 400.801 400.651 400.519 400.451 400.346 400.241 400.064 399.949 399.849 399.829 399.779 399.811 399.857 399.921 400.009 400.094 400.014 399.941 399.829 399.766 399.699 399.591 399.279 399.014 398.866 398.607 398.249 397.904 397.599 397.487 397.309 397.091 396.727 396.271 395.614 394.991 394.489 394.081 393.614 393.169 392.711 391.977 391.174 390.136 389.461 389.399 389.449 389.396 389.344 389.341 389.314 389.304 389.411 389.459 389.362 389.146 388.956 388.619 387.971 387.239 386.732 386.454 386.234 386.119 386.146 385.906 385.836 385.804 385.844 385.909 385.931 385.846 385.674 385.809 385.806 385.699 385.477 385.219 385.121 384.882 383.591 382.956 383.161 383.449 383.736 383.799 383.994 383.871 384.064 384.251 384.286 384.376 384.466 384.419 384.357 383.957 384.002 383.754 383.484 383.662 384.044 383.802 383.899 383.874 384.219 384.172 384.414 384.402 384.252 384.092 383.714 383.059 382.724 382.769 382.577 382.319 382.367 382.377 382.282 382.162 381.939 381.769 381.684 381.462 381.292 381.129 380.942 380.779 380.672 380.489 380.417 380.332 380.139 380.067 379.997 379.739 379.544 379.392 379.244 379.039 379.142 379.097 378.947 378.852 378.767 378.639 378.557 378.394 378.274 378.194 378.107 378.029 378.047 378.204 378.302 378.442 378.467 378.234 377.959 377.834 377.762 377.754 377.659 377.714 377.694 377.594 377.524 377.602 377.674 377.614 377.454 377.312 377.214 377.114 377.107 377.179 377.289 377.354 377.529 377.587 377.529 377.577 377.669 377.649 377.799 377.814 377.674 377.819 378.007 378.149 378.249 378.364 378.717 379.069 379.399 379.799 380.289 380.759 381.139 381.439 381.617 381.637 381.532 381.334 381.082 380.832 380.569 380.324 380.062 379.889 379.722 379.567 379.382 379.124 378.854 378.737 378.494 378.079 377.519 377.089 376.767 376.597 376.512 376.409 376.294 376.344 376.579 376.684 377.034 377.397 377.674 377.874 378.087 378.334 378.637 378.907 379.107 379.342 379.572 379.652 379.814 379.929 380.099 380.309 380.399 380.462 380.449 380.372 380.397 380.404 380.389 380.234 380.004 379.784 379.712 379.757 379.784 379.814 379.679 379.524 379.379 379.414 379.519 378.929 378.034 377.682 377.522 377.549 377.702 377.982 378.282 378.364 378.324 378.094 377.812 377.454 377.364 377.339 377.522 377.377 377.432 377.699 377.997 378.214 378.339 378.437 378.527 378.632 378.702 378.939 379.184 379.422 379.599 379.859 380.119 380.209 380.384 380.437 380.514 380.557 380.594 380.642 380.662 380.754 380.699 380.582 380.362 379.887 379.359 379.089 378.929 378.972 379.259 379.724 380.182 380.629 381.122 381.507 381.832 382.137 382.357 382.467 382.342 381.217 379.777
-9999 -9999 -9999 -9999 -9999 -9999 -9999 -9999 -9999 -9999 -9999 -9999 -9999 -9999 -9999 -9999 -9999 -9999 -9999 -9999 -9999 -9999 -9999 -9999 -9999 -9999 -9999 -9999 -9999 411.674 411.547 411.287 410.937 410.507 410.176 409.424 408.814 408.709 408.346 408.044 407.746 407.677 407.636 407.484 407.299 407.109 407.124 407.146 407.177 407.191 407.216 407.232 407.141 406.894 406.649 406.644 406.544 406.434 406.371 406.156 405.996 405.769 405.566 405.224 404.926 404.599 404.316 404.004 403.509 403.047 402.559 402.201 402.054 401.854 401.737 401.636 401.716 401.679 401.611 401.451 401.309 401.216 401.154 401.049 400.859 400.639 400.446 400.239 400.072 399.914 399.792 399.672 399.487 399.386 399.306 399.269 399.047 398.982 398.961 398.936 398.996 399.016 399.056 399.144 399.196 399.164 399.134 399.096 399.069 398.971 398.806 398.439 397.934 397.559 397.197 396.789 396.471 396.311 396.114 395.792 395.509 395.376 395.034 394.482 393.951 393.644 393.279 392.839 392.409 392.096 391.429 390.762 390.039 389.576 389.179 388.894 388.766 388.566 388.701 388.654 388.456 388.452 388.561 388.632 388.459 388.129 387.721 387.326 387.019 386.829 386.764 386.686 386.301 386.224 386.219 386.411 386.376 386.364 386.401 386.371 386.279 386.081 386.007 385.956 385.801 385.674 385.617 385.569 385.391 385.251 384.856 384.769 385.059 384.924 385.031 385.194 385.119 385.116 385.236 385.454 385.281 385.456 385.371 385.129 385.197 385.042 385.099 385.067 385.167 385.202 385.757 385.252 385.354 385.292 385.459 385.284 385.367 385.112 384.854 384.344 383.334 383.109 383.392 383.434 383.414 383.437 383.299 383.247 383.082 382.794 382.632 382.467 382.222 382.074 381.884 381.607 381.257 380.932 380.809 380.684 380.459 380.159 379.952 379.837 379.749 379.609 379.484 379.357 379.134 379.142 379.129 379.027 378.859 378.724 378.592 378.547 378.534 378.487 378.604 378.472 378.404 378.284 378.294 378.399 378.542 378.522 378.489 378.239 378.224 378.224 378.267 378.092 377.992 377.944 377.884 378.107 378.392 378.539 378.489 378.317 377.992 377.852 377.737 377.784 378.027 378.117 378.117 378.252 378.279 378.194 378.229 378.284 378.209 378.314 378.349 378.237 378.369 378.679 378.767 378.909 379.097 379.472 379.782 380.137 380.497 380.987 381.509 381.889 382.172 382.334 382.352 382.237 382.087 381.889 381.684 381.434 381.129 380.844 380.624 380.462 380.317 380.172 379.952 379.807 379.634 379.277 378.734 378.112 377.614 377.139 377.014 376.927 376.764 376.522 376.617 376.917 377.092 377.422 377.822 378.124 378.342 378.574 378.897 379.274 379.599 379.852 380.052 380.269 380.442 380.572 380.712 380.869 381.012 381.117 381.192 381.179 381.174 381.142 381.092 381.064 380.942 380.689 380.552 380.574 380.574 380.627 380.559 380.424 380.322 380.244 380.222 380.004 378.992 378.167 378.059 377.887 377.964 378.224 378.757 379.097 379.214 379.212 378.924 378.522 377.999 377.757 377.529 377.664 377.637 377.847 378.314 378.634 378.819 379.004 379.014 379.052 379.134 379.257 379.409 379.729 379.974 380.239 380.524 380.809 381.022 381.254 381.292 381.374 381.409 381.469 381.547 381.637 381.702 381.644 381.554 381.292 380.769 380.122 379.617 379.484 379.502 379.869 380.462 380.939 381.479 381.942 382.337 382.634 382.837 383.057 383.179 382.914 381.539 380.112
-9999 -9999 -9999 -9999 -9999 -9999 -9999 -9999 -9999 -9999 -9999 -9999 -9999 -9999 -9999 -9999 -9999 -9999 -9999 -9999 -9999 -9999 -9999 -9999 -9999 -9999 -9999 -9999 410.816 410.894 410.899 410.719 410.357 409.836 409.389 408.729 408.186 407.989 407.732 407.434 407.284 407.386 407.359 407.134 407.036 406.869 406.721 406.704 406.671 406.731 406.757 406.789 406.667 406.431 406.269 406.216 406.109 405.966 405.766 405.557 405.471 405.326 405.089 404.716 404.349 404.034 403.689 403.344 402.929 402.436 401.849 401.421 401.194 400.999 400.904 400.829 400.826 400.799 400.776 400.641 400.499 400.409 400.364 400.281 400.071 399.806 399.564 399.382 399.174 398.996 398.769 398.669 398.361 398.186 398.249 398.354 398.026 397.994 397.984 398.011 398.074 397.999 398.014 397.949 397.857 397.959 398.056 398.086 397.996 397.841 397.549 397.201 396.684 396.094 395.607 395.324 395.129 394.922 394.681 394.284 393.989 393.786 393.554 393.216 392.822 392.514 392.314 391.866 391.531 391.234 390.684 390.136 389.651 389.294 389.181 388.784 388.624 388.224 387.944 387.934 387.706 387.591 387.579 387.669 387.591 387.366 387.179 387.304 387.477 387.239 387.139 387.021 386.569 386.547 386.679 386.679 386.711 386.676 386.641 386.612 386.484 386.281 386.184 386.154 385.991 385.917 385.944 386.159 385.911 386.064 385.879 386.004 385.871 385.816 385.599 385.514 385.484 385.574 385.391 385.401 385.446 385.444 385.449 385.497 385.562 385.627 385.667 385.672 385.734 385.809 385.924 385.879 385.997 386.104 386.082 385.952 385.704 385.422 385.219 384.849 384.299 384.322 384.592 384.614 384.567 384.659 384.507 384.274 384.194 384.159 384.037 383.929 383.597 383.199 382.727 382.372 382.012 381.654 381.234 381.124 380.917 380.777 380.532 380.199 379.924 379.744 379.632 379.492 379.362 379.242 379.187 379.124 378.992 379.027 379.012 379.034 379.052 379.152 379.102 379.032 378.989 378.997 378.989 378.804 378.677 378.544 378.579 378.679 378.842 378.917 378.912 378.617 378.317 378.249 378.329 378.709 379.062 379.249 379.247 378.947 378.752 378.694 378.517 378.687 378.997 378.989 378.902 378.924 378.932 378.849 378.824 378.842 378.904 378.907 379.097 379.152 379.117 379.394 379.522 379.582 379.769 380.184 380.567 380.859 381.212 381.729 382.207 382.582 382.869 382.992 382.989 382.947 382.847 382.744 382.597 382.379 382.082 381.747 381.469 381.272 381.154 381.012 380.874 380.727 380.427 379.877 379.214 378.574 377.974 377.602 377.632 377.549 377.152 376.894 376.929 377.262 377.419 377.717 378.139 378.467 378.727 379.069 379.432 379.832 380.227 380.527 380.807 381.012 381.187 381.299 381.392 381.587 381.767 381.904 381.947 381.929 381.912 381.852 381.784 381.724 381.567 381.402 381.339 381.327 381.362 381.352 381.314 381.227 381.107 381.017 380.867 380.339 379.137 378.614 378.504 378.362 378.529 379.017 379.632 379.997 380.132 380.139 379.914 379.464 378.777 378.232 377.874 378.104 378.167 378.504 379.054 379.412 379.634 379.719 379.659 379.624 379.667 379.769 379.992 380.314 380.592 380.859 381.277 381.584 381.804 382.072 382.192 382.299 382.372 382.394 382.462 382.544 382.572 382.552 382.547 382.269 381.759 381.042 380.264 379.967 380.044 380.534 381.247 381.747 382.354 382.777 383.147 383.407 383.644 383.797 383.809 383.579 382.034 380.634
-9999 -9999 -9999 -9999 -9999 -9999 -9999 -9999 -9999 -9999 -9999 -9999 -9999 -9999 -9999 -9999 -9999 -9999 -9999 -9999 -9999 -9999 -9999 -9999 -9999 -9999 -9999 410.584 410.169 410.304 410.569 410.517 410.089 409.519 408.939 408.394 408.029 407.991 407.792 407.214 406.841 406.854 407.174 406.936 406.744 406.596 406.329 406.216 406.169 406.169 406.156 406.164 406.099 405.954 405.899 405.769 405.676 405.536 405.417 405.171 405.001 404.814 404.512 404.146 403.821 403.459 403.086 402.699 402.204 401.724 401.181 400.641 400.299 400.126 399.951 399.936 399.901 399.901 399.874 399.834 399.774 399.609 399.547 399.344 399.141 398.744 398.424 398.396 398.096 397.626 397.151 396.846 396.556 396.529 396.684 396.521 396.534 396.444 396.466 396.526 396.547 396.449 396.331 396.232 396.196 396.221 396.459 396.547 396.561 396.299 395.982 395.672 395.269 394.757 394.276 393.914 393.696 393.599 393.456 393.112 392.799 392.441 392.246 391.987 391.644 391.369 391.121 390.964 390.866 390.612 390.111 389.644 389.239 389.134 388.979 388.864 388.281 388.171 387.591 387.607 387.591 387.507 387.366 387.299 387.274 387.231 387.422 387.697 387.669 387.544 387.299 387.199 387.007 386.929 386.941 386.876 386.922 387.069 386.984 386.922 386.849 386.944 386.607 386.431 386.431 386.529 386.434 386.404 386.477 386.334 386.154 386.069 385.966 385.922 385.854 385.849 385.846 385.931 385.917 385.884 385.971 386.019 386.079 386.102 386.257 386.404 386.494 386.554 386.584 386.842 387.267 386.877 386.919 386.962 386.922 386.799 386.514 386.069 385.544 385.037 384.474 384.734 385.059 385.154 385.219 385.277 385.154 384.964 384.927 384.899 384.859 384.797 384.667 384.412 383.967 383.404 382.902 382.487 382.079 382.169 382.149 381.892 381.647 381.359 380.799 380.407 380.312 380.054 379.927 379.717 379.664 379.749 379.812 379.832 379.774 379.884 380.074 380.037 379.977 379.902 379.802 379.757 379.627 379.327 378.964 378.817 378.912 379.379 379.649 379.659 379.519 379.192 378.794 378.637 378.877 379.322 379.634 379.719 379.742 379.554 379.437 379.424 379.364 379.377 379.522 379.607 379.562 379.547 379.537 379.494 379.534 379.574 379.539 379.722 379.859 379.844 379.859 380.104 380.269 380.347 380.509 380.874 381.212 381.487 381.927 382.487 382.934 383.282 383.557 383.674 383.687 383.677 383.692 383.664 383.557 383.364 383.012 382.689 382.432 382.172 381.979 381.884 381.769 381.502 380.982 380.332 379.659 378.987 378.269 378.144 378.294 378.002 377.532 377.334 377.287 377.504 377.722 378.122 378.492 378.887 379.187 379.542 379.949 380.334 380.822 381.164 381.484 381.752 381.892 381.969 382.124 382.329 382.527 382.697 382.767 382.784 382.634 382.534 382.489 382.399 382.229 382.114 382.069 382.079 382.124 382.079 382.002 381.967 381.867 381.637 381.269 380.314 379.254 378.929 379.059 379.022 379.252 379.852 380.509 380.867 381.039 381.067 380.892 380.372 379.602 378.719 378.429 378.612 378.864 379.244 379.859 380.247 380.392 380.427 380.387 380.329 380.364 380.529 380.752 381.097 381.299 381.729 382.029 382.332 382.559 382.814 383.049 383.222 383.304 383.314 383.374 383.437 383.477 383.502 383.437 383.194 382.747 381.774 380.912 380.487 380.644 381.317 382.124 382.739 383.237 383.634 384.014 384.229 384.389 384.512 384.509 384.144 382.717 381.477
-9999 -9999 -9999 -9999 -9999 -9999 -9999 -9999 -9999 -9999 -9999 -9999 -9999 -9999 -9999 -9999 -9999 -9999 -9999 -9999 -9999 -9999 -9999 -9999 -9999 -9999 410.949 410.552 409.717 409.892 410.462 410.284 409.997 409.451 408.746 408.292 408.209 408.129 407.911 407.507 407.114 407.061 407.112 406.839 406.564 406.239 406.021 405.841 405.769 405.714 405.634 405.614 405.461 405.374 405.379 405.297 405.216 405.121 404.951 404.709 404.491 404.284 403.994 403.641 403.297 402.904 402.471 402.026 401.446 400.857 400.249 399.732 399.391 399.151 398.969 398.889 398.896 398.954 398.891 398.781 398.671 398.616 398.441 398.064 397.667 397.359 397.129 396.977 396.706 396.194 395.667 395.264 395.249 395.086 395.001 394.946 394.879 394.826 394.876 394.949 394.814 394.714 394.539 394.616 394.577 394.661 394.859 395.012 395.029 394.852 394.576 394.251 393.829 393.371 392.951 392.542 392.346 392.227 392.119 391.934 391.686 391.352 391.184 391.102 390.951 390.784 390.464 390.371 390.271 390.014 389.564 389.136 388.841 388.754 388.609 388.246 387.711 387.706 387.882 387.881 387.882 387.649 387.589 387.646 387.737 387.829 387.764 387.727 387.699 387.659 387.576 387.512 387.471 387.326 387.561 387.427 387.649 387.439 387.169 387.056 387.141 386.881 386.741 386.504 386.436 386.496 386.507 386.591 386.586 386.552 386.531 386.544 386.607 386.534 386.446 386.441 386.434 386.471 386.489 386.471 386.564 386.626 386.716 386.837 386.939 387.104 387.237 387.342 387.437 387.614 388.142 387.829 387.772 387.737 387.647 387.477 387.047 386.427 385.687 385.077 384.632 385.084 385.334 385.529 385.772 385.897 385.839 385.794 385.667 385.637 385.604 385.579 385.497 385.179 384.689 384.269 383.714 383.212 382.799 382.999 382.809 382.954 382.904 382.592 382.224 381.949 381.527 381.332 381.124 381.112 381.077 380.994 380.984 381.037 381.022 381.012 381.177 381.152 381.077 380.842 380.649 380.439 380.254 379.884 379.452 379.169 379.402 379.982 380.274 380.292 380.117 379.799 379.309 379.027 379.274 379.882 380.164 380.252 380.284 380.202 379.974 379.904 380.039 380.009 380.049 380.067 380.109 380.124 380.102 380.094 380.217 380.249 380.174 380.269 380.369 380.412 380.529 380.719 380.889 381.029 381.259 381.567 381.777 382.072 382.614 383.137 383.599 383.962 384.204 384.359 384.372 384.432 384.532 384.544 384.439 384.132 383.794 383.517 383.324 383.079 382.847 382.694 382.474 382.129 381.492 380.702 380.039 379.374 378.662 378.749 378.877 378.549 377.989 377.677 377.647 377.812 378.062 378.667 379.089 379.387 379.762 380.102 380.537 380.969 381.427 381.829 382.157 382.414 382.569 382.689 382.832 383.024 383.212 383.352 383.474 383.447 383.357 383.249 383.162 383.029 382.919 382.844 382.837 382.844 382.857 382.764 382.672 382.654 382.439 381.974 380.902 380.079 379.567 379.382 379.604 379.742 380.102 380.887 381.529 381.812 381.947 381.909 381.689 381.189 380.412 379.454 378.959 379.079 379.579 379.892 380.479 380.904 381.102 381.127 381.142 381.132 381.187 381.274 381.489 381.804 382.064 382.452 382.852 383.119 383.434 383.664 383.857 384.007 384.094 384.157 384.209 384.287 384.329 384.342 384.302 384.067 383.397 382.149 381.362 381.209 381.474 382.247 383.064 383.729 384.194 384.487 384.814 385.037 385.119 385.139 385.079 384.877 383.702 382.584
-9999 -9999 -9999 -9999 -9999 -9999 -9999 -9999 -9999 -9999 -9999 -9999 -9999 -9999 -9999 -9999 -9999 -9999 -9999 -9999 -9999 -9999 -9999 -9999 -9999 -9999 410.902 410.762 410.084 409.927 410.324 410.047 409.772 409.349 408.836 408.352 408.159 408.046 407.861 407.704 407.459 407.311 407.112 406.649 406.251 405.906 405.661 405.534 405.449 405.306 405.209 405.159 405.007 404.896 404.899 404.831 404.734 404.659 404.459 404.184 403.924 403.719 403.389 403.019 402.667 402.249 401.759 401.289 400.554 399.776 399.179 398.804 398.606 398.289 397.959 397.836 397.739 397.674 397.607 397.539 397.454 397.284 396.944 396.591 396.306 396.052 395.862 395.634 395.144 394.636 394.297 394.047 393.852 393.829 393.471 393.352 393.352 393.297 393.357 393.391 393.301 393.186 393.271 393.266 393.227 393.396 393.596 393.711 393.639 393.466 393.329 392.991 392.496 391.999 391.529 391.269 391.172 391.051 390.944 390.861 390.706 390.634 390.542 390.426 390.231 390.077 389.911 389.776 389.501 389.211 389.046 388.874 388.636 388.119 387.794 387.849 387.956 388.376 388.246 388.241 388.191 388.107 388.009 388.084 388.104 388.204 388.172 388.249 388.064 388.116 388.066 387.852 387.729 387.614 387.604 387.352 387.214 387.196 387.181 387.201 387.184 387.124 387.026 386.829 386.836 386.879 386.811 386.779 386.896 386.977 386.991 387.054 387.102 387.126 387.074 387.126 387.141 387.246 387.259 387.241 387.264 387.349 387.419 387.532 387.662 387.817 387.999 388.197 388.367 388.477 388.602 388.602 388.594 388.499 388.374 388.039 387.414 386.557 385.812 385.207 385.154 385.507 385.677 385.962 386.249 386.397 386.459 386.447 386.324 386.252 386.202 386.167 386.094 385.792 385.329 384.917 384.352 383.887 383.572 383.899 384.274 384.367 384.234 384.139 383.974 383.847 383.274 382.984 383.057 382.922 382.822 382.619 382.459 382.479 382.442 382.094 382.049 382.084 381.972 381.817 381.629 381.299 380.904 380.604 379.884 379.727 379.829 380.629 380.899 380.847 380.622 380.274 379.632 379.499 379.902 380.604 380.904 380.997 380.992 380.877 380.739 380.632 380.577 380.679 380.867 380.814 380.862 380.844 380.789 380.772 380.704 380.652 380.677 380.654 380.794 380.964 381.212 381.377 381.344 381.577 381.912 382.327 382.569 382.969 383.394 383.882 384.312 384.604 384.857 385.019 385.084 385.222 385.347 385.337 385.224 384.969 384.604 384.369 384.192 383.967 383.747 383.494 383.147 382.689 381.954 381.134 380.447 379.749 379.122 379.367 379.402 379.079 378.512 378.094 377.824 378.112 378.424 379.217 379.822 380.042 380.307 380.652 381.152 381.627 382.062 382.487 382.789 383.002 383.184 383.332 383.517 383.677 383.862 383.977 384.077 384.054 383.962 383.862 383.782 383.652 383.577 383.527 383.537 383.574 383.559 383.462 383.367 383.262 382.892 381.887 380.929 380.472 380.092 380.132 380.414 380.632 380.984 381.732 382.402 382.744 382.844 382.742 382.479 381.822 380.989 380.132 379.669 379.449 380.097 380.552 381.122 381.567 381.749 381.797 381.797 381.824 381.887 381.967 382.259 382.579 382.824 383.197 383.647 384.047 384.264 384.537 384.647 384.829 384.939 385.027 385.044 385.064 385.199 385.199 385.104 384.784 383.779 382.662 382.099 382.159 382.497 383.077 384.037 384.599 384.987 385.247 385.539 385.674 385.762 385.772 385.779 385.507 384.899 383.929
-9999 -9999 -9999 -9999 -9999 -9999 -9999 -9999 -9999 -9999 -9999 -9999 -9999 -9999 -9999 -9999 -9999 -9999 -9999 -9999 -9999 -9999 -9999 -9999 -9999 410.546 410.744 410.654 410.437 410.167 409.907 409.657 409.394 408.994 408.626 408.336 408.094 407.836 407.646 407.489 407.269 407.004 406.714 406.369 405.996 405.651 405.284 405.104 405.026 404.924 404.784 404.671 404.579 404.466 404.399 404.266 404.206 404.174 403.974 403.754 403.449 403.114 402.737 402.286 401.934 401.501 400.854 400.146 399.364 398.691 398.289 398.029 397.736 397.354 397.047 396.836 396.654 396.661 396.757 396.716 396.534 396.196 395.794 395.429 395.144 394.776 394.546 394.066 393.564 393.259 392.969 392.839 392.644 392.474 392.331 392.119 392.081 392.054 392.007 391.974 391.966 391.996 392.074 391.931 392.024 392.286 392.379 392.394 392.199 392.034 391.986 391.729 391.292 390.956 390.681 390.654 390.559 390.511 390.374 390.294 390.177 390.132 390.047 389.896 389.781 389.679 389.556 389.524 389.324 389.269 388.991 388.259 387.899 387.761 388.084 388.301 388.386 388.757 388.711 388.589 388.629 388.519 388.551 388.539 388.427 388.344 388.112 387.819 387.792 387.711 387.656 387.641 387.684 387.634 387.546 387.489 387.387 387.354 387.352 387.394 387.419 387.386 387.292 387.176 387.189 387.221 387.241 387.194 387.249 387.329 387.416 387.624 387.764 387.921 387.871 387.824 387.941 388.069 388.051 388.009 387.996 388.072 388.167 388.264 388.369 388.544 388.734 388.982 389.192 389.334 389.589 389.314 389.282 389.139 388.902 388.499 387.589 386.609 385.937 385.432 385.684 385.842 386.047 386.564 386.852 387.022 387.112 387.107 387.022 386.952 386.897 386.767 386.647 386.254 385.732 385.244 384.804 384.414 384.134 384.382 384.844 385.142 385.147 385.077 384.964 384.854 384.782 384.699 384.497 384.507 384.432 384.277 383.912 383.834 383.722 383.427 383.024 382.944 382.837 382.619 382.414 382.099 381.672 381.229 380.677 380.557 380.907 381.527 381.649 381.519 381.169 380.574 379.954 380.129 380.852 381.417 381.689 381.762 381.747 381.679 381.619 381.532 381.532 381.652 381.774 381.799 381.797 381.727 381.639 381.594 381.552 381.544 381.492 381.454 381.417 381.519 381.707 381.872 382.029 382.157 382.562 383.037 383.434 383.749 384.187 384.612 385.052 385.344 385.582 385.689 385.787 385.987 386.102 386.092 385.959 385.717 385.417 385.209 385.044 384.769 384.559 384.189 383.774 383.222 382.367 381.534 380.824 380.054 379.837 380.132 379.984 379.662 379.137 378.667 378.097 378.447 378.849 379.704 380.547 380.744 380.977 381.294 381.877 382.314 382.687 383.069 383.382 383.614 383.729 383.894 384.169 384.429 384.562 384.629 384.734 384.687 384.597 384.499 384.407 384.234 384.174 384.174 384.164 384.184 384.224 384.172 384.014 383.829 383.257 382.302 381.562 381.167 380.864 380.972 381.434 381.662 381.892 382.452 383.182 383.632 383.807 383.642 383.252 382.559 381.739 381.117 380.522 380.222 380.564 381.034 381.794 382.317 382.527 382.574 382.544 382.517 382.634 382.742 383.014 383.262 383.597 383.937 384.419 384.839 385.094 385.234 385.389 385.602 385.742 385.829 385.869 385.887 385.937 385.929 385.857 385.332 384.174 383.149 383.047 383.094 383.534 384.189 384.927 385.437 385.842 386.059 386.224 386.344 386.389 386.374 386.362 386.122 385.379 384.532
-9999 -9999 -9999 -9999 -9999 -9999 -9999 -9999 -9999 -9999 -9999 -9999 -9999 -9999 -9999 -9999 -9999 -9999 -9999 -9999 -9999 -9999 -9999 -9999 410.269 410.159 410.087 410.139 410.037 409.789 409.472 409.174 408.909 408.559 408.251 407.834 407.611 407.387 407.206 407.036 406.737 406.316 405.831 405.669 405.547 405.304 405.069 404.891 404.764 404.539 404.379 404.271 404.154 404.039 403.876 403.839 403.779 403.724 403.529 403.224 402.824 402.359 401.901 401.346 400.784 400.314 399.172 398.512 398.047 397.764 397.431 397.116 396.781 396.401 396.081 395.841 395.634 395.721 395.762 395.676 395.352 394.894 394.511 394.129 393.871 393.614 393.279 392.924 392.602 392.482 392.329 392.209 392.094 391.984 392.059 391.786 391.686 391.674 391.649 391.651 391.602 391.594 391.579 391.516 391.489 391.421 391.367 391.297 391.189 391.051 391.084 390.876 390.804 390.661 390.554 390.491 390.414 390.354 390.234 390.489 390.376 390.471 390.204 390.104 390.112 389.911 389.759 389.536 389.154 388.769 388.221 387.762 388.044 388.197 388.512 388.584 388.594 388.529 388.674 388.634 388.674 388.569 388.441 388.321 388.334 388.221 387.966 387.844 387.809 387.839 387.746 387.729 387.757 387.706 387.626 387.629 387.579 387.544 387.499 387.654 387.699 387.689 387.694 387.509 387.471 387.556 387.581 387.466 387.542 387.721 388.102 388.471 388.626 388.729 388.739 388.739 388.846 388.904 388.834 388.709 388.709 388.852 388.934 389.027 389.112 389.339 389.529 389.757 389.959 390.007 390.292 389.994 389.894 389.777 389.469 388.849 387.689 386.667 385.922 385.737 386.072 386.257 386.679 387.112 387.557 387.677 387.744 387.787 387.807 387.789 387.702 387.539 387.092 386.519 385.974 385.557 385.189 384.772 384.637 384.832 385.142 385.544 385.704 385.699 385.622 385.614 385.669 385.504 385.312 385.254 385.114 384.984 384.824 384.744 384.572 384.304 383.979 383.932 383.799 383.609 383.349 382.957 382.317 381.939 381.457 381.499 381.829 382.319 382.359 382.167 381.787 381.019 380.702 381.102 381.717 382.292 382.499 382.564 382.654 382.677 382.644 382.604 382.614 382.712 382.724 382.802 382.764 382.787 382.654 382.519 382.469 382.432 382.362 382.307 382.129 382.102 382.202 382.354 382.544 382.774 383.247 383.697 384.079 384.472 384.964 385.349 385.702 386.027 386.274 386.419 386.474 386.662 386.792 386.727 386.609 386.387 386.184 386.072 385.924 385.722 385.392 384.907 384.407 383.724 382.722 381.747 381.039 380.502 380.609 380.824 380.604 380.192 379.627 378.934 378.802 378.932 379.362 380.239 381.117 381.444 381.657 382.054 382.529 382.912 383.334 383.654 383.997 384.232 384.389 384.599 384.867 385.102 385.242 385.319 385.302 385.292 385.224 385.097 384.974 384.827 384.777 384.802 384.784 384.822 384.889 384.879 384.762 384.484 383.817 383.062 382.319 382.104 382.169 382.012 382.364 382.574 382.847 383.387 384.029 384.452 384.584 384.467 384.072 383.387 382.707 382.249 381.964 381.549 381.327 381.814 382.444 383.007 383.232 383.357 383.339 383.282 383.307 383.379 383.674 384.024 384.347 384.662 385.149 385.559 385.824 385.979 386.127 386.289 386.519 386.639 386.679 386.672 386.649 386.582 386.337 385.782 384.844 383.847 383.847 384.157 384.567 385.194 385.869 386.259 386.559 386.729 386.857 386.919 386.967 386.944 386.839 386.574 386.074 385.304
-9999 -9999 -9999 -9999 -9999 -9999 -9999 -9999 -9999 -9999 -9999 -9999 -9999 -9999 -9999 -9999 -9999 -9999 -9999 -9999 -9999 -9999 -9999 -9999 410.097 409.814 409.512 409.342 409.289 409.207 408.894 408.602 408.279 407.961 407.639 407.274 407.031 406.849 406.589 406.324 406.024 405.382 404.764 404.609 404.681 404.661 404.614 404.539 404.431 404.279 403.994 403.871 403.776 403.674 403.507 403.354 403.202 403.084 402.706 402.334 401.829 401.311 400.672 399.819 399.061 398.329 397.904 397.534 397.131 396.744 396.474 396.114 395.734 395.336 395.016 394.866 394.727 394.799 394.889 394.619 394.206 393.826 393.591 393.417 393.269 393.026 392.806 392.656 392.456 392.304 392.174 392.121 392.049 391.922 391.919 391.894 391.781 391.862 391.804 391.831 391.749 391.969 391.809 391.994 391.909 391.746 391.507 391.394 391.169 391.146 391.224 391.029 390.826 390.591 390.352 390.136 390.056 390.047 389.869 389.816 389.776 389.946 390.047 389.931 389.804 389.614 389.399 389.229 388.871 388.254 387.914 388.039 388.479 388.572 388.694 388.774 388.794 388.829 388.794 388.744 388.674 388.661 388.524 388.414 388.259 388.111 388.026 387.924 387.886 387.836 387.779 387.824 387.786 387.732 387.754 387.789 387.809 387.792 387.724 387.779 387.901 387.956 388.096 388.021 387.814 387.869 387.859 387.734 388.116 388.401 388.889 389.229 389.451 389.546 389.584 389.612 389.736 389.697 389.564 389.439 389.464 389.572 389.644 389.687 389.697 389.949 390.217 390.439 390.597 390.732 390.707 390.582 390.507 390.417 390.067 389.032 387.784 386.754 386.074 386.214 386.582 386.904 387.357 387.889 388.312 388.427 388.459 388.494 388.552 388.507 388.407 388.074 387.529 386.844 386.242 385.794 385.484 385.152 385.179 385.242 385.302 385.669 386.009 386.214 386.294 386.397 386.467 386.399 386.222 386.147 386.032 385.942 385.842 385.739 385.487 385.147 384.917 384.797 384.639 384.527 384.264 383.884 383.259 382.659 382.367 382.499 382.894 383.199 383.234 382.977 382.582 381.587 381.654 382.192 382.694 383.214 383.402 383.487 383.592 383.589 383.574 383.587 383.684 383.757 383.794 383.869 383.832 383.857 383.752 383.564 383.452 383.329 383.252 383.149 383.024 382.887 382.722 382.802 383.094 383.469 383.909 384.307 384.759 385.284 385.679 386.039 386.332 386.622 386.842 387.024 387.107 387.334 387.507 387.422 387.282 387.107 386.952 386.877 386.789 386.589 386.162 385.654 384.944 384.014 382.957 381.964 381.339 381.182 381.367 381.457 381.167 380.629 379.972 379.334 379.334 379.277 379.832 380.899 381.744 382.149 382.324 382.734 383.182 383.562 383.912 384.244 384.627 384.934 385.117 385.299 385.517 385.684 385.842 385.844 385.819 385.812 385.764 385.669 385.519 385.382 385.354 385.359 385.394 385.479 385.534 385.524 385.469 385.252 384.769 384.002 383.232 382.784 382.694 382.637 383.084 383.392 383.644 384.224 384.767 385.144 385.214 385.062 384.647 383.914 383.294 382.894 382.629 382.459 382.192 382.669 383.052 383.607 383.942 384.042 384.077 383.929 383.882 384.067 384.392 384.754 385.102 385.409 385.807 386.257 386.487 386.617 386.787 386.914 387.104 387.232 387.352 387.339 387.289 387.314 386.917 386.169 385.357 384.849 384.882 385.014 385.427 385.979 386.334 386.909 387.194 387.389 387.464 387.532 387.602 387.557 387.454 387.177 386.717 386.052
-9999 -9999 -9999 -9999 -9999 -9999 -9999 -9999 -9999 -9999 -9999 -9999 -9999 -9999 -9999 -9999 -9999 -9999 -9999 -9999 -9999 -9999 -9999 409.649 409.519 409.352 409.062 408.637 408.472 408.407 408.167 407.909 407.657 407.239 406.961 406.674 406.371 406.089 405.819 405.564 405.224 404.634 404.054 403.784 403.844 403.977 404.066 404.144 403.944 403.621 403.494 403.306 403.159 403.104 402.926 402.734 402.447 402.254 401.797 401.116 400.466 399.602 399.034 398.474 397.984 397.486 396.934 396.542 396.254 395.964 395.724 395.297 394.871 394.566 394.349 394.286 394.289 394.224 394.112 394.042 393.911 393.806 393.871 393.699 393.646 393.116 392.651 392.446 392.164 392.137 392.086 391.849 391.739 391.924 391.977 391.894 391.884 391.946 391.849 391.754 391.596 391.431 391.352 391.237 391.114 391.004 390.901 390.852 390.774 390.719 390.672 390.574 390.376 390.149 390.116 390.107 390.132 390.054 389.971 389.852 389.734 389.566 389.602 389.926 389.887 389.679 389.484 389.244 388.716 388.254 388.084 388.394 388.644 388.641 388.604 388.487 388.699 388.909 388.951 388.844 388.766 388.741 388.636 388.499 388.359 388.229 388.137 388.007 387.944 387.891 387.882 387.852 387.894 387.889 387.914 387.977 388.044 388.086 388.074 388.084 388.114 388.269 388.439 388.406 388.204 388.206 388.241 388.264 388.874 389.292 389.686 389.971 390.184 390.359 390.449 390.519 390.584 390.441 390.259 390.114 390.184 390.234 390.224 390.207 390.232 390.427 390.719 390.957 391.137 391.269 391.539 391.109 391.059 390.932 390.369 389.142 387.922 387.007 386.709 386.847 387.274 387.744 388.327 388.877 389.089 389.127 389.144 389.212 389.289 389.237 388.992 388.522 387.934 387.314 386.642 386.082 385.744 385.529 385.509 385.482 385.557 385.919 386.317 386.759 387.029 387.242 387.339 387.342 387.217 387.117 387.102 387.007 386.897 386.762 386.504 386.277 386.069 385.909 385.749 385.387 385.132 384.694 384.052 383.424 383.247 383.534 383.862 384.129 384.079 383.832 383.404 382.574 382.544 383.147 383.612 383.987 384.254 384.384 384.447 384.474 384.522 384.584 384.704 384.899 384.842 384.917 384.947 384.884 384.792 384.672 384.519 384.387 384.264 384.142 384.039 383.884 383.812 383.824 384.049 384.382 384.884 385.322 385.754 386.129 386.397 386.739 386.974 387.269 387.514 387.647 387.769 387.967 388.089 388.014 387.929 387.782 387.722 387.654 387.512 387.199 386.777 386.159 385.254 384.102 383.089 382.352 381.812 381.804 382.102 382.094 381.769 381.144 380.367 379.714 379.717 380.162 380.792 381.619 382.402 382.867 383.079 383.379 383.782 384.189 384.512 384.842 385.304 385.637 385.832 385.937 386.097 386.242 386.314 386.319 386.337 386.279 386.262 386.192 386.064 385.904 385.872 385.924 385.972 386.064 386.127 386.202 386.184 385.977 385.692 385.069 383.997 383.494 383.324 383.364 384.014 384.489 384.712 385.024 385.419 385.704 385.719 385.547 385.122 384.439 383.854 383.437 383.089 382.862 382.764 383.117 383.542 384.162 384.652 384.799 384.819 384.619 384.502 384.754 385.119 385.449 385.784 386.149 386.582 387.042 387.164 387.249 387.369 387.462 387.649 387.832 387.912 387.927 387.939 387.974 387.537 386.552 385.642 385.319 385.499 385.627 385.987 386.449 386.904 387.444 387.817 388.004 388.002 388.054 388.109 388.027 387.904 387.754 387.392 386.722
-9999 -9999 -9999 -9999 -9999 -9999 -9999 -9999 -9999 -9999 -9999 -9999 -9999 -9999 -9999 -9999 -9999 -9999 -9999 -9999 -9999 -9999 409.199 409.052 408.834 408.667 408.442 408.002 407.714 407.584 407.454 407.154 406.849 406.419 406.201 405.964 405.721 405.389 405.049 404.894 404.644 404.156 403.581 403.301 403.214 403.264 403.511 403.621 403.447 403.034 402.786 402.626 402.507 402.374 402.119 401.739 401.324 401.021 400.496 399.354 398.826 398.297 397.766 397.346 396.982 396.584 396.261 396.019 395.759 395.509 395.241 394.826 394.686 394.469 394.586 394.549 394.602 394.456 394.429 394.171 393.852 393.449 393.144 392.799 392.509 391.951 391.676 391.576 391.456 391.334 391.516 391.599 391.422 391.324 391.369 391.081 391.239 391.387 391.496 391.487 391.411 391.336 391.204 391.116 391.009 390.952 390.844 390.754 390.737 390.709 390.636 390.539 390.232 390.269 390.406 390.359 390.271 390.227 390.204 390.109 389.991 389.824 389.611 389.609 389.896 389.796 389.604 389.349 388.886 388.274 388.104 388.334 388.614 388.379 388.424 388.382 388.404 388.536 388.971 388.959 388.859 388.809 388.699 388.599 388.521 388.352 388.216 388.121 388.081 388.031 388.026 388.146 388.199 388.236 388.234 388.294 388.451 388.574 388.706 388.771 388.734 388.781 388.906 388.771 388.539 388.604 388.561 388.781 389.336 389.951 390.399 390.714 390.991 391.189 391.304 391.329 391.249 391.074 390.852 390.719 390.736 390.819 390.794 390.732 390.724 390.852 391.114 391.344 391.524 391.574 391.802 391.587 391.464 391.237 390.344 389.242 388.154 387.254 387.164 387.599 388.154 388.709 389.327 389.654 389.757 389.804 389.822 389.887 389.919 389.849 389.599 389.009 388.297 387.687 386.987 386.389 386.124 385.862 385.989 385.927 386.024 386.462 386.977 387.467 387.792 388.094 388.329 388.354 388.207 388.124 388.137 388.069 387.924 387.757 387.599 387.412 387.179 386.959 386.677 386.319 385.829 385.287 384.682 384.019 384.189 384.419 384.592 384.759 384.727 384.527 384.104 383.739 383.747 383.937 384.357 384.789 385.144 385.364 385.427 385.402 385.574 385.612 385.744 385.824 385.994 386.057 385.999 385.992 385.872 385.707 385.597 385.432 385.304 385.204 385.009 385.039 385.027 384.947 384.909 385.302 385.774 386.152 386.537 386.864 387.147 387.452 387.599 387.917 388.162 388.282 388.369 388.524 388.614 388.607 388.527 388.379 388.374 388.319 388.109 387.739 387.209 386.472 385.484 384.309 383.387 382.799 382.449 382.542 382.847 382.747 382.337 381.742 380.979 380.417 380.574 381.159 381.694 382.247 383.027 383.582 383.839 384.034 384.384 384.747 385.117 385.497 385.899 386.254 386.464 386.579 386.659 386.742 386.779 386.729 386.772 386.769 386.767 386.732 386.632 386.474 386.437 386.472 386.554 386.647 386.717 386.852 386.782 386.577 386.319 385.674 384.629 384.037 383.807 384.064 384.894 385.434 385.594 385.822 386.084 386.222 386.154 385.929 385.537 384.902 384.354 383.894 383.554 383.302 383.212 383.614 384.189 384.794 385.334 385.539 385.529 385.409 385.172 385.332 385.784 386.184 386.419 386.729 387.119 387.614 387.824 387.934 387.994 388.122 388.287 388.342 388.412 388.514 388.567 388.507 387.804 386.779 385.972 385.974 386.254 386.389 386.709 387.214 387.622 388.102 388.477 388.704 388.639 388.694 388.627 388.492 388.389 388.219 387.974 387.384
-9999 -9999 -9999 -9999 -9999 -9999 -9999 -9999 -9999 -9999 -9999 -9999 -9999 -9999 -9999 -9999 -9999 -9999 -9999 -9999 -9999 408.399 408.514 408.357 408.127 407.876 407.669 407.367 407.029 406.877 406.729 406.427 406.034 405.691 405.514 405.284 404.929 404.606 404.349 404.251 404.186 403.757 403.179 402.829 402.776 402.734 402.964 403.121 402.929 402.596 402.174 401.866 401.737 401.542 401.029 400.417 399.701 399.354 398.727 398.156 397.494 396.969 396.591 396.434 396.216 396.149 395.979 395.894 395.721 395.417 395.194 394.876 394.866 394.811 394.376 394.209 394.064 393.929 393.696 393.344 393.016 392.739 392.456 392.156 391.849 391.591 391.632 391.621 391.676 391.641 391.671 391.669 391.719 391.596 391.531 391.386 391.201 391.079 391.016 391.167 391.294 391.276 391.204 391.114 390.996 390.929 390.829 390.781 390.732 390.691 390.599 390.387 390.429 390.539 390.469 390.396 390.329 390.254 390.216 390.154 390.024 389.934 389.829 389.561 389.786 389.841 389.661 389.461 389.124 388.551 388.039 388.164 388.369 388.319 388.554 388.646 388.391 388.299 388.764 389.024 388.894 388.834 388.781 388.691 388.619 388.529 388.414 388.374 388.431 388.529 388.589 388.729 388.784 388.826 388.864 388.946 389.091 389.251 389.404 389.484 389.426 389.384 389.389 389.184 388.926 388.979 389.009 389.211 389.874 390.621 391.096 391.479 391.764 391.954 392.054 391.999 391.864 391.599 391.404 391.394 391.339 391.316 391.339 391.279 391.289 391.309 391.394 391.592 391.729 391.877 391.927 391.789 391.679 391.287 390.287 389.272 388.259 387.647 387.767 388.284 388.999 389.632 390.162 390.334 390.357 390.394 390.404 390.444 390.459 390.374 390.059 389.457 388.689 388.067 387.417 386.827 386.399 386.232 386.502 386.562 386.694 387.297 387.789 388.157 388.552 388.934 389.202 389.272 389.082 389.039 389.054 389.039 388.957 388.834 388.677 388.534 388.292 388.042 387.649 387.152 386.492 385.767 385.147 384.694 384.854 385.142 385.512 385.779 385.622 385.319 384.809 384.627 384.507 384.727 385.162 385.632 386.034 386.339 386.339 386.319 386.519 386.627 386.699 386.867 387.039 387.109 387.094 387.084 386.919 386.679 386.537 386.402 386.289 386.254 386.117 386.117 386.027 385.892 385.829 386.139 386.607 387.012 387.299 387.587 387.814 388.054 388.274 388.519 388.694 388.859 388.987 389.079 389.102 389.064 388.907 388.884 388.914 388.814 388.562 388.182 387.549 386.659 385.627 384.474 383.607 383.164 383.122 383.427 383.717 383.552 382.947 382.299 381.724 380.997 381.097 381.789 382.272 382.827 383.617 384.234 384.489 384.692 384.997 385.314 385.742 386.154 386.494 386.777 386.937 387.059 387.189 387.209 387.227 387.219 387.212 387.242 387.187 387.172 387.142 387.014 386.959 387.007 387.087 387.167 387.257 387.317 387.212 387.052 386.779 386.064 385.119 384.372 384.139 384.922 385.799 386.132 386.282 386.437 386.594 386.662 386.569 386.254 385.839 385.277 384.729 384.312 383.994 383.597 383.592 384.157 384.782 385.404 385.972 386.232 386.252 386.054 385.942 386.039 386.522 386.892 387.042 387.279 387.584 388.057 388.294 388.512 388.627 388.684 388.784 388.849 388.912 388.959 389.037 388.689 387.752 386.902 386.699 386.854 386.967 387.177 387.492 388.009 388.357 388.632 388.912 389.097 389.174 389.197 389.024 388.872 388.737 388.574 388.429 387.934
-9999 -9999 -9999 -9999 -9999 -9999 -9999 -9999 -9999 -9999 -9999 -9999 -9999 -9999 -9999 -9999 -9999 -9999 -9999 -9999 -9999 407.824 407.722 407.514 407.309 407.047 406.852 406.674 406.404 406.172 405.969 405.677 405.339 405.034 404.799 404.509 404.184 403.884 403.667 403.656 403.641 403.309 402.669 402.441 402.396 402.479 402.494 402.584 402.364 401.987 401.514 401.021 400.751 400.096 399.419 398.566 398.151 397.849 397.394 396.766 396.329 396.071 396.004 395.811 395.636 395.411 395.241 395.004 394.862 394.724 394.574 394.471 394.429 394.371 394.311 394.016 393.876 393.604 393.206 392.917 392.714 392.477 392.246 391.849 391.789 391.904 391.936 391.941 391.949 391.924 391.899 391.841 391.802 391.727 391.664 391.594 391.431 391.264 391.071 390.924 390.857 391.047 391.114 391.109 391.036 390.944 390.874 390.852 390.774 390.661 390.494 390.257 390.591 390.569 390.461 390.386 390.349 390.194 390.156 390.149 390.014 389.924 389.854 389.526 389.706 389.834 389.649 389.481 389.186 388.864 388.486 388.427 388.506 388.701 388.779 388.849 388.789 388.431 388.769 388.999 388.961 388.894 388.816 388.716 388.672 388.596 388.591 388.734 389.054 389.271 389.396 389.429 389.459 389.487 389.534 389.686 389.841 389.844 390.081 390.201 390.054 389.831 389.857 389.781 389.484 389.359 389.259 389.739 390.519 391.336 391.804 392.204 392.496 392.586 392.612 392.599 392.336 392.084 391.911 391.914 391.799 391.824 391.816 391.747 391.717 391.674 391.699 391.807 391.877 392.077 392.477 391.912 391.697 391.269 390.369 389.342 388.452 387.999 388.244 388.717 389.537 390.289 390.752 390.872 390.887 390.862 390.902 390.877 390.852 390.694 390.382 389.842 389.074 388.342 387.754 387.237 386.822 386.659 386.954 387.214 387.384 387.892 388.449 388.919 389.299 389.732 390.029 389.957 389.904 389.967 389.987 389.912 389.889 389.837 389.727 389.559 389.334 388.977 388.512 387.862 387.027 386.202 385.562 385.247 385.544 385.877 386.339 386.462 386.417 386.019 385.582 385.344 384.952 385.467 386.024 386.607 387.069 387.297 387.282 387.302 387.382 387.549 387.619 387.837 388.029 388.097 388.127 388.062 387.827 387.637 387.552 387.409 387.312 387.277 387.212 387.189 387.062 386.772 386.637 386.922 387.302 387.709 388.072 388.369 388.574 388.757 388.894 389.107 389.237 389.352 389.507 389.594 389.584 389.482 389.349 389.342 389.382 389.207 388.897 388.424 387.694 386.742 385.614 384.542 383.827 383.629 383.854 384.414 384.602 384.277 383.519 382.719 382.367 381.779 382.007 382.287 382.722 383.444 384.247 384.867 385.107 385.314 385.557 385.937 386.372 386.787 387.109 387.322 387.412 387.537 387.622 387.707 387.709 387.727 387.759 387.752 387.687 387.619 387.537 387.559 387.517 387.547 387.599 387.647 387.699 387.719 387.584 387.444 387.059 386.364 385.562 384.742 385.187 385.669 386.304 386.737 386.907 386.959 387.042 387.004 386.864 386.567 386.172 385.567 385.032 384.687 384.402 383.979 384.027 384.709 385.409 386.067 386.614 386.914 386.949 386.737 386.594 386.679 387.177 387.554 387.729 387.839 388.092 388.437 388.684 388.982 389.142 389.209 389.267 389.339 389.412 389.464 389.352 388.642 387.719 387.219 387.299 387.529 387.724 387.814 388.127 388.592 388.887 389.077 389.312 389.422 389.504 389.517 389.414 389.249 389.077 389.042 388.722 388.174
-9999 -9999 -9999 -9999 -9999 -9999 -9999 -9999 -9999 -9999 -9999 -9999 -9999 -9999 -9999 -9999 -9999 -9999 -9999 -9999 406.846 406.937 406.812 406.579 406.364 406.144 405.969 405.859 405.637 405.357 405.124 404.849 404.619 404.329 404.042 403.794 403.536 403.219 402.999 403.031 403.126 402.816 402.336 402.112 402.031 401.986 402.051 402.001 401.696 401.201 400.699 400.016 399.199 398.176 398.119 397.494 397.237 396.796 396.534 395.954 395.456 395.271 394.774 394.599 394.542 394.464 394.221 394.079 394.129 394.134 394.199 394.499 394.461 394.322 394.199 393.811 393.496 393.136 392.879 392.799 392.561 392.259 392.034 391.977 392.132 392.121 392.121 392.134 392.149 392.039 391.899 391.822 391.784 391.771 391.699 391.589 391.496 391.406 391.326 391.194 391.021 390.704 390.699 390.839 390.941 390.964 390.876 390.786 390.739 390.607 390.324 390.542 390.749 390.614 390.477 390.399 390.326 390.234 390.206 390.116 390.066 389.959 389.799 389.531 389.636 389.836 389.672 389.479 389.251 389.072 388.911 388.891 388.831 388.914 388.936 388.966 388.939 388.836 388.781 388.917 388.991 388.996 388.896 388.876 388.759 388.732 388.824 389.134 389.651 389.992 390.134 390.189 390.261 390.301 390.316 390.451 390.449 390.471 390.784 390.946 390.806 390.394 390.304 390.549 390.361 389.966 389.709 390.046 390.982 392.031 392.621 392.961 393.072 393.129 393.107 392.934 392.641 392.401 392.316 392.289 392.184 392.164 392.161 392.074 392.067 392.014 392.022 392.132 392.127 392.119 392.509 392.009 391.704 391.184 390.517 389.684 388.689 388.252 388.594 388.864 389.762 390.702 391.209 391.317 391.344 391.337 391.329 391.274 391.209 391.022 390.657 390.144 389.392 388.659 388.027 387.439 386.997 387.029 387.372 387.737 388.159 388.472 388.989 389.624 390.087 390.449 390.574 390.439 390.622 390.712 390.742 390.732 390.729 390.664 390.564 390.377 390.149 389.807 389.212 388.429 387.472 386.492 385.962 385.744 386.109 386.574 387.009 387.134 387.032 386.464 386.054 385.919 385.577 386.027 386.789 387.499 388.009 388.137 388.072 388.079 388.254 388.377 388.484 388.664 388.864 389.034 389.069 388.914 388.714 388.599 388.472 388.387 388.302 388.254 388.194 388.162 387.962 387.579 387.419 387.697 388.052 388.494 388.834 389.129 389.289 389.397 389.502 389.649 389.744 389.872 389.979 390.047 390.019 389.942 389.799 389.699 389.629 389.472 389.102 388.549 387.799 386.764 385.642 384.582 384.072 384.324 384.734 385.372 385.422 385.014 384.152 383.282 382.842 382.457 382.644 382.854 383.159 383.897 384.729 385.467 385.712 385.907 386.224 386.589 386.992 387.277 387.549 387.714 387.804 387.934 388.084 388.184 388.227 388.252 388.254 388.237 388.179 388.169 388.132 388.082 388.052 388.089 388.107 388.087 388.092 388.094 387.977 387.784 387.394 386.704 386.029 385.612 385.844 386.369 386.784 387.284 387.417 387.444 387.424 387.349 387.189 386.927 386.494 385.864 385.382 385.072 384.809 384.357 384.359 384.972 385.954 386.767 387.252 387.519 387.569 387.467 387.234 387.287 387.687 388.127 388.324 388.479 388.602 388.782 389.084 389.449 389.644 389.717 389.762 389.849 389.922 389.864 389.507 388.532 387.929 387.834 387.922 388.172 388.437 388.499 388.612 388.967 389.322 389.564 389.712 389.799 389.862 389.889 389.849 389.634 389.487 389.357 388.992 388.334
