ncols 385
nrows 32
xllcorner    386088
yllcorner    476524
cellsize     2
NODATA_value -9999
372.772 372.777 372.747 372.71 372.812 372.977 372.74 372.512 372.61 372.85 373.122 373.285 373.395 373.682 374.11 374.477 374.65 374.792 375.017 375.172 375.422 375.717 375.942 376.195 376.43 376.582 376.697 376.78 376.757 376.795 376.89 376.835 376.82 376.945 377.16 377.347 377.482 377.67 377.755 377.977 378.17 378.402 378.585 378.797 378.925 379.005 379.17 379.357 379.532 379.607 379.765 379.795 379.842 379.885 379.952 379.897 379.815 379.767 379.737 379.767 379.767 379.792 379.81 379.82 379.81 379.852 379.94 379.977 380.02 379.925 379.965 380.005 379.937 379.795 379.745 379.617 379.557 379.575 379.435 379.365 379.37 379.46 379.742 379.897 379.975 380.015 380.105 380.13 380.17 380.155 380.085 380.02 379.875 379.712 379.475 379.162 378.787 378.437 378.257 378.475 378.742 379.027 379.29 379.425 379.487 379.537 379.66 379.682 379.682 379.585 379.515 379.447 379.362 379.28 379.155 378.995 378.81 378.605 378.325 378.165 378.01 377.935 377.95 377.952 377.917 377.915 377.922 377.78 377.675 377.612 378.017 378.155 378.172 378.177 377.997 377.867 377.667 377.53 377.255 376.615 376.577 377.142 377.46 377.575 377.725 377.725 377.705 377.682 377.63 377.505 377.27 377.192 377.417 377.675 377.307 377.265 377.275 377.255 377.255 377.252 377.22 377.27 377.25 377.15 377.037 376.927 376.777 376.62 376.517 376.427 376.367 376.38 376.382 376.375 376.322 376.317 376.177 376.045 375.957 375.877 375.812 375.777 375.647 375.605 375.415 375.217 375.09 374.925 374.665 374.285 374.117 373.977 373.74 373.632 373.497 373.387 373.222 373.092 372.915 372.737 372.617 372.552 372.632 372.625 372.532 372.397 372.257 372.115 372.025 371.887 371.725 371.595 371.417 371.31 371.255 371.11 370.997 370.835 370.6 370.24 369.627 369.152 369.157 369.092 369.162 369.362 369.73 369.985 370.065 370.017 369.867 369.71 369.437 369.23 369.035 368.72 368.512 368.292 368.045 367.787 367.587 367.275 367.015 366.885 366.585 366.287 366 365.695 365.49 365.207 364.895 364.692 364.527 364.382 364.305 364.09 363.932 363.785 363.645 363.447 363.317 363.102 362.907 362.462 362.407 362.382 362.267 362.147 361.967 361.725 361.59 361.427 361.195 361.017 360.86 360.682 360.477 360.282 360.025 359.825 359.592 359.082 358.485 357.905 356.752 354.505 355.265 355.027 355.38 355.65 355.75 355.77 355.745 355.582 355.302 354.965 354.63 354.455 354.252 354.07 353.802 353.45 353.012 352.612 352.365 351.887 351.197 350.432 349.62 348.975 348.507 348.302 348.53 348.932 349.122 348.97 348.68 348.405 348.195 347.977 347.75 347.39 347.067 346.75 346.39 345.932 345.752 345.8 345.79 345.817 345.692 345.542 345.42 345.305 345.13 344.992 344.83 344.642 344.672 344.487 344.127 343.685 343.295 342.917 342.527 342.01 341.45 340.697 340.012 339.257 338.637 338.102 337.65 337.247 336.682 336.045 335.507 334.93 334.272 333.562 332.855 332.23 331.96 331.93 331.957 332.29 332.592 332.892 333.397 333.882 334.25 334.597 334.912 335.257 335.582 335.807 336.117 336.295 336.695 336.87 336.992 337.08 337.117 337.177 337.17
373.66 373.607 373.56 373.452 373.52 373.645 373.612 373.675 373.555 373.672 373.822 374.032 374.25 374.575 374.835 375.252 375.472 375.652 375.872 375.992 376.292 376.457 376.737 376.945 377.16 377.227 377.36 377.327 377.35 377.345 377.375 377.39 377.5 377.637 377.732 377.945 378.182 378.292 378.35 378.55 378.797 378.945 379.13 379.282 379.41 379.562 379.707 379.867 380.057 380.187 380.307 380.345 380.35 380.357 380.335 380.317 380.295 380.23 380.217 380.292 380.252 380.282 380.315 380.315 380.305 380.357 380.407 380.412 380.407 380.315 380.352 380.37 380.232 380.105 380.005 379.942 379.89 379.865 379.77 379.767 379.845 379.98 380.17 380.262 380.36 380.405 380.447 380.425 380.475 380.49 380.41 380.377 380.297 380.135 379.867 379.52 379.12 378.867 378.795 379.032 379.225 379.54 379.712 379.885 379.952 379.992 380.032 380.037 380.047 379.957 379.905 379.87 379.8 379.675 379.605 379.495 379.307 379.12 378.812 378.595 378.572 378.505 378.49 378.485 378.447 378.415 378.372 378.405 378.31 378.237 378.375 378.625 378.765 378.717 378.552 378.375 378.202 378.007 377.81 377.23 377.125 377.64 377.815 377.917 378.032 377.99 378.01 377.947 377.872 377.7 377.48 377.38 377.667 377.815 377.585 377.552 377.575 377.557 377.595 377.567 377.597 377.57 377.5 377.477 377.355 377.177 377 376.907 376.795 376.677 376.612 376.655 376.712 376.575 376.54 376.457 376.3 376.205 376.167 376.152 376.007 375.897 375.802 375.765 375.582 375.37 375.177 375.022 374.787 374.482 374.235 374.107 374.03 373.995 373.812 373.697 373.622 373.505 373.34 373.195 373.112 373.085 373.145 373.162 372.967 372.832 372.667 372.61 372.462 372.345 372.127 372.002 371.815 371.665 371.562 371.452 371.295 371.14 370.852 370.43 369.877 369.587 369.56 369.515 369.72 370.022 370.27 370.442 370.467 370.372 370.255 370.03 369.832 369.632 369.392 369.142 368.925 368.762 368.572 368.36 368.082 367.79 367.48 367.262 367.007 366.727 366.467 366.225 366.005 365.545 365.38 365.147 365.017 364.747 364.587 364.46 364.337 364.167 364.047 363.877 363.77 363.647 363.35 363.177 363.227 362.892 362.85 362.675 362.45 362.28 362.217 361.962 361.742 361.607 361.502 361.33 361.005 360.805 360.56 360.292 360.11 359.53 358.845 358.2 357.567 355.457 356.215 356.762 356.852 356.805 356.845 356.85 356.645 356.325 356.035 355.735 355.525 355.075 354.902 354.69 354.372 353.967 353.562 353.18 352.955 352.537 351.89 351.082 350.302 349.72 349.2 349.03 349.167 349.48 349.552 349.447 349.207 349.01 348.815 348.56 348.282 347.907 347.597 347.162 346.77 346.445 346.41 346.372 346.315 346.275 346.197 346.07 345.877 345.687 345.43 345.307 345.252 345.22 344.987 344.61 344.222 344.015 343.782 343.395 342.982 342.415 341.812 341.175 340.49 339.887 339.322 338.83 338.305 337.667 337.045 336.365 335.73 335.042 334.31 333.635 332.922 332.447 332.407 332.34 332.565 332.912 333.192 333.685 334.13 334.58 334.967 335.375 335.805 336.157 336.47 336.78 337.045 337.225 337.37 337.54 337.67 337.69 337.665 337.687 337.667
374.467 374.412 374.392 374.29 374.24 374.342 374.357 374.39 374.44 374.562 374.735 374.842 375.112 375.517 375.642 375.987 376.24 376.5 376.737 376.932 377.057 377.17 377.395 377.465 377.642 377.76 377.842 377.835 377.96 378.005 377.965 377.917 377.91 378.087 378.225 378.52 378.767 378.897 379.047 379.202 379.387 379.542 379.695 379.815 379.942 380.105 380.227 380.407 380.552 380.682 380.865 380.902 380.875 380.837 380.827 380.782 380.73 380.712 380.7 380.717 380.707 380.782 380.78 380.765 380.782 380.82 380.832 380.882 380.865 380.725 380.71 380.695 380.602 380.502 380.365 380.29 380.23 380.135 380.122 380.085 380.122 380.285 380.375 380.49 380.662 380.645 380.652 380.662 380.702 380.707 380.725 380.655 380.637 380.482 380.202 379.867 379.53 379.36 379.302 379.457 379.7 380.012 380.255 380.385 380.42 380.485 380.472 380.48 380.467 380.397 380.385 380.372 380.285 380.205 380.135 380.017 379.85 379.64 379.312 379.052 378.99 379.067 378.977 378.837 378.745 378.662 378.632 378.59 378.462 378.495 378.647 378.86 379.087 379.145 379.015 378.81 378.572 378.472 378.352 377.945 377.6 378.025 378.122 378.202 378.275 378.337 378.367 378.285 378.175 377.895 377.637 377.57 378.065 377.97 377.877 377.865 377.855 377.855 377.882 377.98 377.915 377.86 377.827 377.755 377.682 377.462 377.292 377.14 377 376.91 376.797 376.76 376.725 376.67 376.652 376.532 376.392 376.347 376.255 376.212 376.072 375.955 375.86 375.742 375.607 375.407 375.207 375.01 374.797 374.59 374.46 374.375 374.265 374.207 374.147 374 373.92 373.807 373.702 373.605 373.562 373.605 373.61 373.482 373.307 373.215 373.11 373.07 372.84 372.662 372.515 372.382 372.195 372.02 371.852 371.692 371.62 371.405 371.027 370.487 370.045 369.957 369.927 370.057 370.235 370.585 370.865 370.865 370.812 370.67 370.517 370.355 370.157 369.957 369.8 369.565 369.4 369.175 368.992 368.752 368.49 368.285 368.02 367.782 367.487 367.2 366.915 366.747 366.4 366.507 365.92 365.547 365.437 365.272 365.122 364.847 364.667 364.53 364.507 364.33 364.145 363.942 363.757 363.52 363.435 363.255 363.097 363.032 362.932 362.737 362.585 362.407 362.22 362.027 361.86 361.705 361.53 361.252 361.04 360.777 360.55 359.87 359.027 358.327 357.895 357.927 357.972 357.88 358.017 357.677 357.68 357.557 357.295 356.942 356.592 356.275 356.057 355.697 355.44 355.2 354.857 354.385 353.955 353.607 353.282 352.93 352.412 351.827 350.9 350.342 349.857 349.662 349.697 349.907 349.98 349.82 349.607 349.455 349.247 349.002 348.642 348.245 347.875 347.527 347.21 347.022 346.912 346.85 346.797 346.697 346.612 346.427 346.175 345.962 345.79 345.767 345.642 345.457 345.16 344.867 344.652 344.392 343.995 343.527 343.082 342.572 341.95 341.367 340.942 340.455 339.867 339.187 338.515 337.91 337.327 336.592 335.752 334.99 334.31 333.682 333.032 332.777 332.817 332.94 333.252 333.577 334.025 334.432 334.862 335.317 335.96 336.417 336.767 337.112 337.337 337.61 337.802 337.895 337.905 337.995 338.132 338.14 338.077 338.067 338.077
375.377 375.397 375.315 375.177 375.087 375.115 375.262 375.107 375.212 375.382 375.43 375.48 375.685 376.022 376.195 376.607 376.977 377.25 377.382 377.487 377.475 377.645 377.857 378.112 378.275 378.355 378.422 378.465 378.535 378.612 378.595 378.44 378.49 378.645 378.902 379.165 379.397 379.57 379.685 379.807 379.91 380.072 380.2 380.385 380.497 380.705 380.787 380.9 381.025 381.182 381.255 381.367 381.385 381.352 381.31 381.267 381.215 381.187 381.15 381.17 381.18 381.2 381.205 381.157 381.167 381.215 381.252 381.275 381.212 381.092 381.03 380.982 380.955 380.935 380.767 380.682 380.63 380.485 380.395 380.375 380.347 380.417 380.53 380.665 381.005 380.93 380.872 380.91 380.955 380.977 381.01 380.96 380.867 380.732 380.517 380.232 379.977 379.77 379.657 379.93 380.282 380.577 380.8 380.93 380.947 380.98 380.937 380.945 380.957 380.91 380.875 380.877 380.85 380.747 380.657 380.59 380.432 380.23 379.985 379.75 379.605 379.61 379.55 379.482 379.247 379.092 378.975 378.942 378.885 378.842 378.935 379.115 379.457 379.64 379.477 379.317 379.15 379.007 378.96 378.565 378.332 378.647 378.632 378.667 378.705 378.815 378.887 378.787 378.482 378.272 377.882 377.912 378.625 378.192 378.145 378.157 378.167 378.187 378.23 378.24 378.287 378.195 378.11 378.047 377.917 377.805 377.567 377.35 377.242 377.12 376.977 376.897 376.847 376.755 376.66 376.582 376.497 376.427 376.222 376.117 375.995 375.87 375.78 375.637 375.515 375.337 375.177 375.017 374.897 374.78 374.665 374.64 374.577 374.465 374.39 374.305 374.207 374.1 374.017 374.04 374.037 374.04 373.972 373.835 373.715 373.627 373.497 373.407 373.24 373.032 372.802 372.717 372.542 372.407 372.237 372.112 371.86 371.56 371.042 370.597 370.322 370.285 370.407 370.652 370.815 371.062 371.152 371.215 371.15 371.022 370.852 370.657 370.472 370.267 370.107 369.925 369.712 369.542 369.355 369.142 368.947 368.712 368.49 368.225 367.935 367.612 367.39 367.102 366.892 366.917 366.352 366.135 365.977 365.727 365.56 365.36 365.28 364.995 364.86 364.752 364.555 364.405 364.19 364.057 363.81 363.79 363.55 363.42 363.267 363.115 362.99 362.862 362.69 362.502 362.275 362.057 361.9 361.63 361.477 361.217 360.78 360.07 359.22 358.587 358.375 358.392 358.46 358.497 358.74 358.442 358.37 358.175 357.855 357.495 357.152 356.772 356.495 356.162 355.847 355.557 355.21 354.675 354.29 353.987 353.572 353.185 352.78 352.265 351.497 350.847 350.425 350.212 350.262 350.462 350.347 350.155 350.012 349.792 349.54 349.277 348.942 348.582 348.2 347.917 347.707 347.5 347.362 347.28 347.18 347.072 346.932 346.73 346.537 346.385 346.23 346.095 345.927 345.777 345.505 345.23 344.907 344.525 344.047 343.577 343.217 342.762 342.237 341.855 341.485 340.86 340.077 339.262 338.59 338.01 337.347 336.63 335.695 334.97 334.387 333.82 333.317 333.357 333.377 333.55 333.942 334.357 334.755 335.165 335.705 336.347 336.89 337.24 337.622 337.885 338.132 338.297 338.425 338.407 338.452 338.48 338.492 338.495 338.482 338.547 338.55
376.105 376.1 376.02 375.962 375.91 375.937 375.94 375.747 375.752 375.917 376.117 376.115 376.202 376.577 376.907 377.237 377.395 377.567 377.697 377.872 377.975 378.157 378.297 378.565 378.842 378.97 379.137 379.18 379.162 379.215 379.147 378.975 378.965 379.122 379.497 379.817 379.937 380.095 380.255 380.39 380.555 380.627 380.742 381.01 381.127 381.265 381.28 381.387 381.52 381.665 381.79 381.845 381.847 381.812 381.742 381.707 381.687 381.707 381.68 381.617 381.612 381.665 381.63 381.545 381.53 381.625 381.65 381.615 381.51 381.422 381.33 381.322 381.317 381.297 381.162 381.14 381.075 380.927 380.787 380.732 380.702 380.757 380.832 380.96 381.247 381.215 381.17 381.215 381.305 381.367 381.355 381.327 381.275 381.11 380.912 380.647 380.382 380.237 380.17 380.422 380.887 381.175 381.27 381.342 381.415 381.442 381.44 381.442 381.417 381.392 381.36 381.365 381.345 381.267 381.175 381.11 380.985 380.855 380.67 380.58 380.41 380.347 380.257 380.127 379.91 379.64 379.44 379.32 379.33 379.347 379.385 379.532 379.83 380.032 380.012 379.862 379.737 379.56 379.375 378.927 378.875 379.11 379.15 379.152 379.207 379.32 379.267 379.172 378.945 378.472 378.14 378.295 378.972 378.467 378.395 378.385 378.42 378.405 378.435 378.447 378.44 378.38 378.265 378.167 378.16 378.095 377.832 377.642 377.42 377.267 377.097 377.03 376.992 376.877 376.815 376.655 376.515 376.377 376.255 376.257 376.06 375.872 375.732 375.565 375.462 375.342 375.232 375.13 375.002 374.925 374.9 374.91 374.78 374.677 374.605 374.56 374.48 374.412 374.347 374.31 374.362 374.327 374.25 374.25 374.157 374.005 373.865 373.73 373.602 373.472 373.312 373.065 372.927 372.845 372.687 372.425 372.132 371.677 371.155 370.932 370.722 370.67 370.855 371.13 371.385 371.487 371.53 371.59 371.507 371.36 371.25 371.022 370.83 370.62 370.43 370.25 370.05 369.902 369.705 369.53 369.335 369.047 368.84 368.577 368.342 368.082 367.855 367.595 367.252 367.007 366.725 366.52 366.26 366.115 365.987 365.727 365.6 365.402 365.312 365.16 365.022 364.81 364.525 364.4 364.14 364 363.867 363.687 363.617 363.457 363.292 363.217 363.075 362.882 362.625 362.592 362.28 362.042 361.832 361.5 360.967 360.07 359.375 358.972 358.912 359.107 359.365 359.387 359.507 359.112 358.847 358.57 358.242 358.007 357.615 357.24 356.915 356.62 356.445 355.897 355.472 354.957 354.622 354.275 353.905 353.52 353.032 352.57 351.927 351.33 350.93 350.78 350.777 350.865 350.692 350.535 350.36 350.142 349.822 349.562 349.21 348.832 348.512 348.245 348.042 347.86 347.725 347.61 347.54 347.402 347.335 347.187 346.967 346.737 346.615 346.465 346.267 346.07 345.78 345.487 345.035 344.585 344.12 343.667 343.307 342.895 342.395 341.867 341.332 340.707 340.05 339.357 338.705 337.992 337.235 336.54 335.657 334.93 334.425 333.885 333.827 333.917 333.735 334.092 334.62 335.07 335.49 336.04 336.66 337.227 337.725 337.965 338.335 338.56 338.85 338.875 338.95 338.997 339.227 338.925 338.91 338.972 338.937 339.007 339.112
376.612 376.697 376.712 376.63 376.58 376.59 376.517 376.385 376.46 376.515 376.662 376.822 377.022 377.3 377.425 377.415 377.697 377.917 378.05 378.215 378.365 378.545 378.832 379.117 379.39 379.61 379.705 379.76 379.78 379.835 379.732 379.527 379.48 379.622 379.96 380.35 380.512 380.642 380.78 380.915 381.062 381.16 381.29 381.52 381.625 381.71 381.755 381.877 381.952 382.14 382.212 382.28 382.28 382.26 382.195 382.165 382.165 382.19 382.195 382.135 382.087 382.14 382.09 381.992 381.905 381.922 382.005 381.93 381.805 381.74 381.7 381.76 381.79 381.745 381.667 381.587 381.497 381.367 381.237 381.11 381.075 381.137 381.307 381.637 381.72 381.597 381.585 381.647 381.73 381.782 381.815 381.845 381.79 381.662 381.53 381.195 380.822 380.76 380.855 381.082 381.41 381.675 381.857 381.95 381.905 381.95 381.942 381.97 381.962 381.942 381.905 381.857 381.83 381.795 381.735 381.645 381.557 381.422 381.322 381.152 381.045 380.995 380.952 380.76 380.522 380.287 379.997 379.747 379.705 379.692 379.752 379.962 380.162 380.36 380.385 380.317 380.305 380.042 379.732 379.412 379.405 379.585 379.755 379.7 379.705 379.71 379.632 379.547 379.275 378.912 378.52 379.1 379.077 378.752 378.767 378.767 378.69 378.627 378.597 378.585 378.57 378.51 378.407 378.282 378.172 378.06 377.922 377.762 377.615 377.377 377.232 377.12 377.017 376.927 376.845 376.735 376.567 376.407 376.28 376.195 376.05 375.912 375.81 375.677 375.507 375.4 375.272 375.185 375.112 375.052 374.997 375.03 374.967 374.895 374.812 374.772 374.712 374.682 374.672 374.615 374.712 374.612 374.56 374.542 374.452 374.35 374.202 374.075 373.972 373.797 373.725 373.495 373.315 373.215 373.097 372.795 372.272 371.747 371.455 371.272 371.087 371.215 371.455 371.647 371.872 371.882 371.9 371.902 371.897 371.792 371.67 371.38 371.2 371.05 370.775 370.605 370.385 370.172 370.027 369.867 369.707 369.437 369.182 368.912 368.67 368.43 368.195 367.952 367.715 367.48 367.19 367.01 366.75 366.512 366.317 366.122 366.002 365.89 365.692 365.66 365.43 365.235 364.925 364.847 364.647 364.477 364.307 364.182 363.957 363.807 363.692 363.565 363.422 363.282 363.127 363.052 362.772 362.492 362.2 361.692 361.06 360.59 359.792 359.48 359.62 360.012 360.195 360.047 360.037 359.68 359.355 359.072 358.705 358.417 358.025 357.627 357.27 356.902 356.55 356.167 355.7 355.417 354.945 354.615 354.192 353.842 353.465 353 352.367 351.815 351.462 351.302 351.265 351.21 351.01 350.832 350.632 350.395 350.09 349.795 349.437 349.142 348.807 348.582 348.382 348.195 348.007 348.017 347.982 347.905 347.76 347.51 347.292 347.13 346.955 346.787 346.59 346.29 346.005 345.667 345.235 344.767 344.35 343.867 343.467 343.087 342.67 342.095 341.437 340.71 339.972 339.312 338.647 337.947 337.18 336.467 335.662 335.035 334.482 334.25 334.457 334.28 334.317 334.782 335.287 335.717 336.2 336.925 337.547 338.012 338.395 338.705 339.035 339.237 339.44 339.627 339.69 339.592 339.537 339.48 339.377 339.352 339.362 339.442 339.452
377.137 377.205 377.122 377.085 377.02 377.05 376.972 377.06 377.255 377.242 377.495 377.732 377.68 377.615 377.707 377.84 378.035 378.25 378.372 378.63 378.817 379.115 379.31 379.65 379.98 380.182 380.405 380.415 380.482 380.387 380.28 380.075 379.987 380.227 380.582 380.88 381.035 381.202 381.342 381.49 381.62 381.757 381.872 382.012 382.125 382.202 382.327 382.512 382.435 382.535 382.572 382.66 382.625 382.66 382.647 382.647 382.64 382.685 382.652 382.647 382.607 382.592 382.48 382.362 382.342 382.387 382.387 382.197 382.072 382.122 382.23 382.27 382.34 382.26 382.197 382.082 381.98 381.88 381.805 381.652 381.467 381.497 381.715 381.925 382.045 382.035 382.055 382.137 382.162 382.262 382.312 382.302 382.292 382.215 382.042 381.725 381.285 381.1 381.162 381.547 381.995 382.17 382.4 382.472 382.467 382.455 382.487 382.48 382.495 382.452 382.407 382.377 382.322 382.345 382.275 382.18 382.085 382.017 381.905 381.77 381.615 381.537 381.422 381.245 381.007 380.752 380.51 380.297 380.197 380.097 380.137 380.307 380.447 380.615 380.722 380.667 380.575 380.455 380.062 379.877 379.757 379.98 380.07 380.155 380.165 380.11 380.08 379.87 379.565 379.137 379.115 379.602 379.382 379.23 379.177 379.102 379.027 378.855 378.837 378.785 378.722 378.64 378.522 378.405 378.302 378.097 377.892 377.727 377.56 377.442 377.332 377.187 377.105 377 376.91 376.757 376.605 376.52 376.367 376.23 376.077 375.96 375.837 375.775 375.665 375.602 375.457 375.295 375.237 375.212 375.155 375.107 375.08 374.997 374.98 374.977 374.93 374.895 374.927 374.957 374.997 374.987 374.945 374.877 374.775 374.735 374.687 374.497 374.292 374.21 374.085 373.877 373.642 373.467 373.335 372.975 372.362 371.902 371.687 371.527 371.54 371.77 371.997 372.21 372.215 372.21 372.192 372.165 372.172 372.12 371.915 371.687 371.507 371.36 371.147 370.952 370.77 370.552 370.347 370.107 369.93 369.732 369.517 369.285 369.077 368.787 368.535 368.245 367.997 367.857 367.495 367.257 367.095 367.015 366.705 366.59 366.47 366.367 366.147 366.185 365.845 365.537 365.382 365.097 364.932 364.755 364.582 364.5 364.265 364.225 364.065 363.95 363.802 363.722 363.587 363.482 363.385 362.925 362.53 361.88 361.082 360.727 360.597 360.072 360.185 360.66 360.702 360.537 360.35 360.177 359.965 359.64 359.262 358.815 358.392 358.04 357.662 357.22 356.83 356.507 356.062 355.672 355.33 354.922 354.507 354.127 353.815 353.41 352.82 352.357 351.992 351.902 351.792 351.582 351.32 351.167 350.897 350.677 350.397 350.065 349.742 349.437 349.127 348.902 348.677 348.532 348.477 348.517 348.46 348.297 348.122 347.897 347.74 347.562 347.342 347.085 346.832 346.527 346.172 345.792 345.372 344.947 344.59 344.155 343.762 343.427 343.062 342.37 341.585 340.765 339.927 339.177 338.517 337.897 337.152 336.442 335.832 335.167 334.755 334.852 334.84 334.745 334.982 335.452 335.872 336.475 337.16 337.857 338.35 338.72 339.117 339.43 339.667 339.925 340.102 340.275 340.272 340.115 339.96 339.91 339.86 339.872 339.912 339.955 340.007
377.727 377.772 377.77 377.605 377.627 377.84 377.875 377.82 377.805 377.78 377.827 378.032 377.945 378.042 378.097 378.217 378.347 378.535 378.7 378.942 379.28 379.655 379.952 380.292 380.597 380.785 381.005 381.065 381.1 381.002 380.887 380.675 380.61 380.78 381.19 381.445 381.607 381.797 381.947 382.06 382.197 382.33 382.495 382.577 382.667 382.682 382.772 382.767 382.84 382.92 382.99 383.035 383.037 383.075 383.082 383.102 383.105 383.135 383.125 383.147 383.225 383.107 382.997 382.932 382.92 382.925 382.86 382.717 382.685 382.732 382.912 382.93 382.925 382.812 382.745 382.627 382.532 382.39 382.312 382.192 381.92 381.92 382.115 382.285 382.395 382.437 382.597 382.667 382.715 382.752 382.797 382.827 382.815 382.8 382.657 382.335 381.862 381.535 381.47 381.92 382.49 382.73 382.885 382.982 383.062 383.032 383.03 383.007 382.97 383.002 382.987 382.922 382.895 382.845 382.77 382.685 382.592 382.542 382.437 382.325 382.147 382.035 381.87 381.66 381.467 381.222 380.972 380.772 380.712 380.597 380.527 380.605 380.717 380.9 380.967 380.89 380.86 380.67 380.36 380.347 380.227 380.285 380.335 380.467 380.45 380.442 380.4 380.277 379.892 379.505 379.627 380.08 379.765 379.635 379.625 379.517 379.432 379.17 379.077 379.005 378.885 378.797 378.705 378.55 378.407 378.23 378.02 377.812 377.68 377.555 377.437 377.35 377.225 377.095 376.957 376.792 376.675 376.495 376.352 376.245 376.13 376.04 375.97 375.945 375.857 375.76 375.735 375.597 375.455 375.412 375.357 375.26 375.22 375.152 375.152 375.127 375.12 375.09 375.15 375.2 375.252 375.317 375.305 375.15 375.11 375.055 374.98 374.89 374.697 374.587 374.417 374.242 374.105 373.907 373.512 372.935 372.367 372.095 371.937 371.835 372.012 372.275 372.367 372.472 372.517 372.495 372.51 372.487 372.422 372.312 372.167 372.007 371.825 371.677 371.482 371.267 371.087 370.88 370.667 370.442 370.232 370.02 369.787 369.6 369.375 369.155 368.91 368.65 368.33 368.03 367.835 367.622 367.412 367.175 366.897 366.8 366.712 366.58 366.452 366.262 366.11 365.927 365.735 365.532 365.312 365.145 364.96 364.855 364.695 364.56 364.52 364.417 364.23 364.1 364.067 363.89 363.587 363.502 362.992 361.922 361.34 361.187 360.982 360.952 361.107 361.18 361.11 360.872 360.56 360.332 360.102 359.825 359.497 359.155 358.812 358.43 358.007 357.72 357.23 356.882 356.51 356.062 355.72 355.28 354.847 354.5 354.18 353.69 353.142 352.77 352.475 352.44 352.255 351.912 351.632 351.355 351.17 350.927 350.61 350.337 350.07 349.755 349.447 349.235 349.005 348.892 348.877 348.86 348.857 348.775 348.602 348.382 348.197 347.96 347.642 347.372 347.1 346.76 346.392 346.04 345.6 345.215 344.847 344.45 344.082 343.622 343.112 342.36 341.48 340.652 339.902 339.155 338.482 337.812 337.117 336.512 335.917 335.427 335.327 335.31 335.277 335.487 335.865 336.27 336.752 337.405 338.085 338.7 339.132 339.477 339.825 340.125 340.382 340.615 340.792 340.877 340.805 340.645 340.565 340.557 340.52 340.59 340.72 340.76 340.852
378.45 378.525 378.68 378.52 378.292 378.265 378.292 378.24 378.125 378.15 378.227 378.225 378.212 378.312 378.385 378.695 378.787 378.957 379.122 379.445 379.937 380.357 380.65 380.992 381.267 381.482 381.697 381.812 381.815 381.747 381.665 381.392 381.32 381.582 381.792 382.06 382.217 382.442 382.532 382.65 382.827 382.895 383.07 383.145 383.227 383.282 383.27 383.217 383.255 383.327 383.442 383.397 383.437 383.467 383.487 383.572 383.675 383.592 383.595 383.6 383.63 383.55 383.547 383.515 383.54 383.515 383.547 383.462 383.385 383.37 383.452 383.555 383.482 383.372 383.255 383.102 382.99 382.9 382.795 382.642 382.4 382.492 382.632 382.727 382.827 382.985 383.13 383.185 383.27 383.255 383.292 383.332 383.402 383.287 383.145 382.927 382.387 382.03 381.907 382.332 382.972 383.222 383.45 383.495 383.6 383.662 383.59 383.575 383.497 383.482 383.497 383.445 383.405 383.297 383.222 383.157 383.07 383.042 382.915 382.825 382.65 382.497 382.33 382.18 381.92 381.687 381.482 381.32 381.215 381.132 380.987 380.882 380.94 381.002 381.095 381.037 380.91 380.767 380.582 380.515 380.525 380.482 380.517 380.56 380.622 380.62 380.567 380.402 380.09 379.95 380.097 380.207 380.132 380.062 379.922 379.94 379.727 379.512 379.372 379.212 379.07 378.975 378.862 378.727 378.582 378.427 378.225 378.032 377.895 377.742 377.615 377.49 377.37 377.215 377.1 377.035 376.867 376.61 376.455 376.33 376.217 376.147 376.075 376.082 376.02 375.932 375.857 375.802 375.73 375.672 375.62 375.5 375.397 375.347 375.302 375.295 375.305 375.337 375.36 375.38 375.43 375.532 375.545 375.45 375.415 375.415 375.345 375.242 375.085 374.905 374.745 374.555 374.477 374.222 373.732 373.03 372.517 372.32 372.232 372.362 372.56 372.847 372.862 372.835 372.812 372.83 372.85 372.872 372.82 372.577 372.49 372.32 372.145 372.01 371.807 371.58 371.41 371.185 370.967 370.792 370.585 370.39 370.137 369.95 369.752 369.53 369.21 369.015 368.73 368.485 368.305 368.07 367.88 367.662 367.657 367.365 366.932 366.815 366.675 366.697 366.425 366.252 366.122 365.985 365.752 365.572 365.425 365.51 365.297 365.005 364.897 364.827 364.712 364.51 364.387 364.302 363.857 363.612 362.887 362.08 361.682 361.572 361.472 361.665 361.762 361.755 361.655 361.222 360.92 360.61 360.325 359.967 359.652 359.265 359.007 358.557 358.205 357.857 357.5 357.192 356.842 356.545 356.147 355.82 355.36 355.01 354.612 354.112 353.562 353.282 353.045 352.995 352.717 352.287 351.9 351.622 351.392 351.145 350.83 350.567 350.367 350.08 349.85 349.6 349.35 349.237 349.285 349.302 349.347 349.322 349.102 348.895 348.677 348.37 348.045 347.73 347.415 347.105 346.697 346.297 345.965 345.61 345.172 344.772 344.24 343.665 342.977 342.21 341.36 340.557 339.86 339.162 338.5 337.817 337.102 336.515 336.072 335.857 335.725 335.672 336.037 336.39 336.747 337.187 337.707 338.222 338.827 339.435 339.955 340.32 340.637 340.952 341.14 341.342 341.422 341.517 341.477 341.445 341.42 341.447 341.52 341.6 341.59 341.63 341.727
379.117 379.202 379.197 379.09 378.887 378.72 378.637 378.622 378.567 378.535 378.635 378.547 378.57 378.652 378.815 379.017 379.242 379.47 379.785 380.125 380.59 381.07 381.38 381.772 381.98 382.232 382.435 382.545 382.57 382.515 382.407 382.18 382.102 382.432 382.512 382.7 382.847 383.055 383.17 383.385 383.445 383.477 383.64 383.747 383.817 383.852 383.922 383.72 383.76 383.835 383.912 383.93 383.875 383.93 384.025 384.095 384.115 384.167 384.142 384.157 384.17 384.127 384.135 384.135 384.127 384.087 384.095 384.14 384.085 384.05 384.017 384.027 383.992 383.885 383.742 383.617 383.52 383.375 383.3 383.115 382.955 383.135 383.21 383.262 383.365 383.5 383.632 383.73 383.82 383.797 383.83 383.847 383.83 383.807 383.665 383.402 383.022 382.705 382.482 382.762 383.432 383.567 383.84 383.977 384.025 384.032 384.07 384.062 383.972 383.97 383.895 383.815 383.807 383.77 383.68 383.602 383.517 383.395 383.297 383.217 383.072 382.967 382.82 382.607 382.382 382.147 381.895 381.795 381.732 381.655 381.512 381.255 381.172 381.19 381.242 381.207 381.022 380.852 380.72 380.655 380.695 380.667 380.682 380.707 380.867 380.79 380.645 380.49 380.47 380.347 380.642 380.367 380.385 380.235 380.317 380.03 380.005 379.855 379.622 379.41 379.122 379.07 379.04 378.877 378.842 378.725 378.535 378.422 378.322 378.165 377.902 377.827 377.7 377.472 377.305 377.33 377.167 376.86 376.617 376.487 376.402 376.3 376.217 376.195 376.132 376.062 376.017 375.952 375.972 375.952 375.89 375.77 375.667 375.59 375.557 375.51 375.522 375.53 375.57 375.602 375.625 375.69 375.715 375.777 375.735 375.74 375.712 375.567 375.455 375.217 375.047 374.835 374.632 374.437 373.937 373.235 372.85 372.647 372.667 372.845 373.097 373.212 373.215 373.195 373.177 373.095 373.105 373.11 373.01 372.93 372.795 372.615 372.427 372.37 372.135 371.917 371.672 371.445 371.25 371.032 370.855 370.672 370.46 370.31 370.127 369.932 369.632 369.362 369.187 368.9 368.692 368.487 368.295 368.12 367.892 367.74 367.345 367.152 366.977 366.922 366.785 366.565 366.58 366.447 366.26 366.037 365.865 365.81 365.702 365.512 365.355 365.267 365.07 364.865 364.615 364.377 364.04 363.75 363.037 362.207 361.867 361.79 362.062 362.322 362.2 362.262 361.902 361.457 361.205 360.84 360.572 360.25 359.847 359.39 358.985 358.607 358.367 358.107 357.767 357.457 357.02 356.73 356.382 356.132 355.662 355.235 354.897 354.457 354.067 353.717 353.605 353.622 353.272 352.79 352.26 351.857 351.622 351.372 351.112 350.847 350.637 350.372 350.16 349.925 349.675 349.62 349.72 349.795 349.885 349.85 349.672 349.477 349.177 348.792 348.442 348.17 347.82 347.427 347.005 346.617 346.36 345.96 345.53 345.06 344.612 343.91 343.03 342.09 341.31 340.512 339.875 339.177 338.45 337.692 337.072 336.752 336.512 336.23 336.142 336.427 336.81 337.22 337.657 338.107 338.545 339.055 339.702 340.285 340.762 341.105 341.437 341.71 342.015 342.05 342.167 342.25 342.307 342.347 342.362 342.462 342.48 342.535 342.595 342.642 342.71
379.957 380.032 379.922 379.715 379.347 379.105 378.95 378.965 378.935 378.92 378.977 378.885 379.06 379.24 379.41 379.705 379.997 380.197 380.44 380.717 381.105 381.655 382.122 382.432 382.695 382.95 383.102 383.22 383.265 383.212 383.102 382.912 382.882 383.22 383.255 383.335 383.477 383.667 383.775 383.922 384.007 384.082 384.217 384.36 384.407 384.48 384.422 384.282 384.29 384.34 384.427 384.39 384.472 384.48 384.6 384.605 384.67 384.732 384.737 384.757 384.76 384.747 384.745 384.735 384.75 384.69 384.66 384.687 384.69 384.652 384.585 384.552 384.462 384.345 384.212 384.1 384.035 383.917 383.85 383.64 383.475 383.71 383.722 383.725 383.852 383.98 384.062 384.12 384.235 384.31 384.265 384.262 384.337 384.34 384.32 384.077 383.7 383.477 383.292 383.312 383.732 383.942 384.145 384.372 384.422 384.435 384.435 384.44 384.437 384.42 384.362 384.285 384.262 384.265 384.2 384.072 383.972 383.825 383.59 383.515 383.45 383.365 383.222 383.045 382.817 382.58 382.39 382.242 382.177 382.072 381.922 381.652 381.487 381.422 381.417 381.287 381.117 380.972 380.925 380.912 380.9 380.932 380.917 381.005 380.917 380.83 380.812 380.832 380.815 380.665 380.875 380.55 380.53 380.465 380.41 380.377 380.257 380.08 379.722 379.332 378.617 378.75 379.202 379.3 379.165 379.077 378.972 378.762 378.635 378.522 378.417 378.18 378.027 377.887 377.552 377.337 377.332 377.06 376.875 376.762 376.592 376.472 376.382 376.32 376.207 376.2 376.14 376.112 376.085 376.08 376.047 375.927 375.887 375.847 375.842 375.762 375.787 375.78 375.845 375.815 375.852 375.875 375.93 376.012 376.06 376.067 375.995 375.872 375.76 375.517 375.375 375.147 374.865 374.677 374.265 373.537 373.105 373.085 373.26 373.43 373.542 373.535 373.517 373.482 373.477 373.435 373.387 373.3 373.2 373.142 373.02 372.845 372.677 372.512 372.36 372.135 371.937 371.725 371.522 371.315 371.14 370.945 370.79 370.69 370.507 370.297 370.052 369.762 369.472 369.225 369.007 368.835 368.662 368.517 368.317 368.142 367.735 367.43 367.222 367.132 367.065 367.025 367.052 366.987 366.732 366.527 366.36 366.252 366.132 365.97 365.79 365.565 365.39 365.175 364.887 364.562 364.272 363.822 363.075 362.315 362.14 362.302 362.707 362.64 362.62 362.487 362.045 361.702 361.405 361.007 360.685 360.37 359.955 359.552 359.117 358.807 358.505 358.262 357.92 357.605 357.235 356.87 356.512 356.2 355.88 355.475 355.095 354.727 354.465 354.327 354.17 354.09 353.682 353.2 352.775 352.402 352.062 351.767 351.51 351.172 350.825 350.637 350.472 350.2 350.04 350.067 350.227 350.347 350.4 350.387 350.232 350.002 349.562 349.197 348.92 348.642 348.2 347.752 347.332 347.015 346.745 346.312 345.807 345.297 344.785 344.015 342.932 341.99 341.267 340.567 339.885 339.1 338.367 337.63 337.397 337.27 336.992 336.697 336.77 337.117 337.557 337.977 338.435 338.932 339.462 340.007 340.51 341.005 341.452 341.93 342.3 342.555 342.712 342.822 342.982 343.1 343.19 343.242 343.28 343.365 343.44 343.512 343.602 343.617 343.61
380.925 380.96 380.78 380.537 380.152 379.727 379.372 379.362 379.3 379.39 379.407 379.4 379.792 379.912 380.105 380.482 380.78 380.89 381.275 381.51 381.815 382.32 382.857 383.155 383.405 383.622 383.732 383.85 383.867 383.84 383.777 383.51 383.467 383.802 383.832 383.902 384.087 384.23 384.34 384.51 384.592 384.662 384.815 384.93 385.02 385.022 384.995 384.91 384.87 384.87 384.957 385.03 385.052 385.05 385.14 385.247 385.28 385.32 385.325 385.36 385.317 385.287 385.262 385.28 385.312 385.307 385.23 385.235 385.23 385.222 385.135 385.075 385.002 384.86 384.767 384.632 384.482 384.3 384.297 384.075 384.02 384.372 384.235 384.152 384.24 384.425 384.45 384.532 384.635 384.665 384.665 384.677 384.745 384.75 384.587 384.4 384.057 383.855 383.7 383.73 384.02 384.257 384.455 384.697 384.805 384.797 384.795 384.782 384.78 384.73 384.705 384.652 384.61 384.665 384.667 384.52 384.41 384.262 383.935 383.75 383.707 383.675 383.54 383.375 383.165 383.005 382.855 382.735 382.592 382.477 382.315 381.975 381.742 381.655 381.505 381.357 381.335 381.397 381.347 381.31 381.285 381.2 381.24 381.197 381.132 381.002 380.992 381.035 381.127 381.035 381.21 380.655 380.645 380.585 380.547 380.582 380.385 380.092 379.697 379.06 378.555 378.997 379.437 379.58 379.495 379.255 379.165 379.022 378.95 378.887 378.7 378.417 378.272 378.05 377.84 377.625 377.552 377.317 377.265 377.322 377.05 376.815 376.622 376.627 376.642 376.367 376.312 376.22 376.145 376.147 376.127 376.072 376.042 376.01 376.062 376.002 375.97 375.952 376.005 376.022 376.067 376.117 376.162 376.232 376.25 376.275 376.245 376.07 375.942 375.802 375.59 375.45 375.165 374.8 374.48 373.89 373.447 373.665 373.807 373.887 373.922 373.872 373.81 373.74 373.702 373.617 373.567 373.522 373.41 373.345 373.255 373.105 372.91 372.832 372.582 372.38 372.215 372.01 371.847 371.642 371.445 371.277 371.115 370.972 370.807 370.65 370.425 370.162 369.91 369.587 369.397 369.22 368.977 368.777 368.612 368.427 368.08 367.795 367.617 367.615 367.535 367.367 367.335 367.212 367.08 366.987 366.86 366.797 366.575 366.452 366.182 365.947 365.732 365.432 365.147 364.757 364.225 363.752 362.96 362.665 362.627 362.972 363.11 362.96 362.977 362.852 362.335 361.95 361.58 361.19 360.782 360.452 360.087 359.735 359.422 359.082 358.745 358.44 358.125 357.832 357.52 357.107 356.77 356.47 356.192 355.782 355.45 355.175 354.915 354.805 354.782 354.655 354.185 353.645 353.155 352.77 352.302 351.96 351.705 351.445 351.067 350.86 350.697 350.497 350.482 350.557 350.707 350.825 350.905 350.837 350.725 350.477 350.057 349.75 349.442 349.05 348.567 348.065 347.672 347.43 347.11 346.675 346.14 345.545 344.795 343.93 342.875 341.967 341.252 340.612 339.88 339.1 338.34 337.892 337.862 337.707 337.427 337.382 337.407 337.765 338.187 338.655 339.167 339.782 340.327 340.887 341.37 341.812 342.33 342.81 343.08 343.292 343.462 343.667 343.787 343.875 343.992 344.135 344.282 344.38 344.392 344.415 344.467 344.512 344.507
381.957 381.855 381.67 381.392 380.99 380.517 380.005 379.905 379.83 379.982 379.92 379.937 380.5 380.785 380.922 381.212 381.46 381.622 382.16 382.45 382.675 382.972 383.41 383.702 383.957 384.122 384.295 384.45 384.507 384.447 384.407 384.21 384.145 384.432 384.427 384.462 384.63 384.802 384.945 385.085 385.255 385.357 385.427 385.507 385.617 385.662 385.642 385.542 385.482 385.472 385.57 385.632 385.65 385.65 385.737 385.835 385.885 385.91 385.882 385.867 385.827 385.807 385.817 385.845 385.822 385.85 385.797 385.825 385.767 385.752 385.7 385.712 385.632 385.407 385.237 385.102 384.89 384.642 384.58 384.42 384.522 384.657 384.665 384.595 384.632 384.74 384.877 384.987 385.07 385.155 385.07 385.05 385.102 385.07 384.922 384.625 384.362 384.225 384.057 384.057 384.135 384.457 384.72 384.94 385.057 385.105 385.087 385.072 385.04 385.015 384.98 384.887 384.895 384.917 384.905 384.852 384.722 384.5 384.245 384.102 384.052 384.015 383.945 383.732 383.607 383.41 383.322 383.212 383.072 382.942 382.715 382.302 381.992 381.752 381.69 381.912 381.915 381.907 381.85 381.737 381.647 381.542 381.43 381.555 381.29 381.202 381.12 381.147 381.262 381.435 381.045 380.702 380.747 380.717 380.72 380.655 380.472 380.132 379.707 379.272 379.477 379.682 379.73 379.64 379.64 379.535 379.442 379.335 379.302 379.337 379.082 378.847 378.795 378.532 378.405 378.142 377.97 377.722 377.712 377.582 377.437 377.197 377.077 376.985 376.822 376.677 376.547 376.425 376.395 376.317 376.285 376.192 376.127 376.13 376.107 376.09 376.122 376.14 376.192 376.26 376.28 376.322 376.38 376.415 376.455 376.427 376.375 376.217 376.132 375.972 375.807 375.59 375.29 374.835 374.457 374.03 373.922 374.235 374.287 374.28 374.255 374.235 374.135 374.017 373.895 373.897 373.797 373.72 373.642 373.552 373.432 373.27 373.125 372.99 372.845 372.675 372.485 372.277 372.09 371.925 371.732 371.525 371.377 371.222 371.092 370.935 370.735 370.512 370.252 369.957 369.76 369.54 369.342 369.132 368.917 368.585 368.25 368.045 367.952 367.962 367.925 367.797 367.677 367.602 367.525 367.322 367.272 367.082 366.915 366.755 366.527 366.312 366.047 365.797 365.415 364.667 364.17 363.895 363.482 363.522 363.442 363.51 363.417 363.28 363.265 363.062 362.525 362.13 361.757 361.267 360.907 360.625 360.325 359.992 359.672 359.437 359.057 358.685 358.33 358.025 357.755 357.365 357.055 356.735 356.372 356.022 355.8 355.562 355.325 355.202 355.092 354.925 354.517 353.977 353.387 352.93 352.425 352.057 351.842 351.657 351.332 351.072 350.952 350.862 350.855 350.972 351.095 351.225 351.247 351.15 351.005 350.81 350.522 350.207 349.877 349.422 348.937 348.485 348.04 347.8 347.44 347.03 346.5 345.785 344.785 343.827 342.857 342.01 341.31 340.632 339.897 339.085 338.46 338.307 338.265 338.087 337.865 337.907 338.02 338.395 338.78 339.242 339.832 340.547 341.167 341.73 342.277 342.78 343.137 343.562 343.862 344.045 344.265 344.442 344.612 344.765 344.855 345.032 345.182 345.345 345.35 345.302 345.28 345.332 345.315
382.785 382.73 382.51 382.16 381.712 381.147 380.655 380.522 380.485 380.505 380.632 380.637 381.247 381.587 381.772 381.967 382.177 382.322 382.807 383.162 383.317 383.512 383.79 384.117 384.44 384.655 384.817 384.985 385.097 385.132 385.08 384.947 384.922 385.01 384.962 385.002 385.132 385.312 385.442 385.632 385.745 385.907 385.987 386.087 386.14 386.227 386.185 386.127 386.045 386.07 386.152 386.21 386.242 386.267 386.337 386.387 386.427 386.447 386.422 386.395 386.357 386.422 386.447 386.455 386.375 386.362 386.31 386.29 386.3 386.28 386.23 386.212 386.077 385.975 385.91 385.71 385.435 385.092 384.86 384.795 384.882 385.105 385.02 384.987 385.107 385.257 385.375 385.427 385.505 385.502 385.442 385.392 385.46 385.425 385.247 384.942 384.582 384.36 384.26 384.267 384.307 384.635 384.967 385.18 385.322 385.397 385.387 385.365 385.337 385.31 385.242 385.185 385.192 385.182 385.18 385.147 385.012 384.8 384.602 384.485 384.452 384.312 384.12 383.935 383.88 383.775 383.675 383.595 383.44 383.23 383.082 382.637 382.25 382.125 382.29 382.435 382.482 382.44 382.287 382.192 382.085 381.912 381.742 381.727 381.542 381.38 381.247 381.197 381.435 381.587 381.145 380.955 380.91 380.85 380.862 380.825 380.685 380.32 379.982 379.88 380.235 380.222 380.085 379.92 379.792 379.767 379.765 379.635 379.632 379.602 379.392 379.292 379.235 379.06 378.847 378.622 378.412 378.24 378.165 378.02 377.795 377.575 377.415 377.275 377.122 377.1 376.85 376.687 376.592 376.505 376.407 376.317 376.282 376.275 376.265 376.272 376.297 376.365 376.385 376.432 376.452 376.455 376.5 376.567 376.6 376.57 376.495 376.337 376.197 376.07 375.925 375.675 375.297 374.842 374.53 374.212 374.227 374.437 374.525 374.602 374.6 374.535 374.445 374.295 374.182 374.115 374.005 373.932 373.852 373.735 373.63 373.475 373.305 373.197 373.04 372.907 372.752 372.53 372.342 372.21 372 371.815 371.65 371.475 371.3 371.152 370.987 370.797 370.537 370.285 370.107 369.897 369.647 369.455 369.162 368.79 368.57 368.4 368.332 368.445 368.367 368.227 368.122 367.952 367.82 367.67 367.585 367.435 367.232 367.04 366.805 366.615 366.335 365.955 365.28 364.675 364.535 364.407 364.025 364 363.992 363.977 363.745 363.445 363.185 363.1 362.7 362.292 361.927 361.455 361.132 360.85 360.567 360.292 359.987 359.745 359.507 358.947 358.592 358.282 358.007 357.617 357.267 356.897 356.52 356.247 356.017 355.822 355.662 355.502 355.425 355.162 354.725 354.185 353.582 353.077 352.692 352.275 352.03 351.85 351.525 351.31 351.195 351.13 351.145 351.237 351.272 351.472 351.495 351.4 351.312 351.062 350.832 350.497 350.105 349.69 349.27 348.817 348.455 348.16 347.745 347.347 346.782 345.787 344.75 343.777 342.86 342.075 341.37 340.6 339.825 339.09 338.787 338.83 338.665 338.277 338.255 338.465 338.677 338.982 339.357 339.807 340.497 341.225 341.892 342.58 343.2 343.677 344.087 344.43 344.7 344.867 345.085 345.26 345.462 345.6 345.752 345.862 345.975 346.095 346.11 346.137 346.105 346.085 346.165
383.41 383.51 383.3 382.905 382.367 381.797 381.242 381.255 381.205 381.207 381.345 381.42 381.847 382.2 382.347 382.495 382.71 382.957 383.415 383.715 383.775 383.93 384.107 384.52 384.79 385.05 385.255 385.552 385.69 385.785 385.8 385.69 385.595 385.577 385.532 385.567 385.68 385.792 385.945 386.08 386.262 386.44 386.542 386.637 386.68 386.87 386.762 386.75 386.677 386.63 386.787 386.812 386.88 386.932 386.952 386.98 386.982 386.937 386.902 386.88 386.895 386.95 386.997 387 386.867 386.785 386.767 386.752 386.727 386.712 386.687 386.66 386.6 386.457 386.447 386.295 386.035 385.717 385.472 385.462 385.375 385.357 385.42 385.582 385.607 385.722 386.012 385.895 385.827 385.81 385.765 385.757 385.775 385.672 385.545 385.302 384.95 384.605 384.445 384.397 384.552 384.982 385.335 385.535 385.657 385.685 385.705 385.685 385.695 385.695 385.617 385.51 385.522 385.527 385.525 385.442 385.267 385.065 384.897 384.802 384.747 384.622 384.36 384.185 384.145 384.105 383.995 383.915 383.707 383.48 383.24 382.857 382.627 382.735 382.857 383.04 383.115 382.987 382.777 382.605 382.5 382.335 382.167 382.102 381.92 381.66 381.512 381.507 381.972 381.85 381.515 381.302 381.327 381.36 381.342 381.267 380.965 380.915 380.817 380.815 380.895 380.777 380.62 380.41 380.25 380.11 379.97 379.812 379.732 379.57 379.587 379.557 379.527 379.475 379.267 379.052 378.842 378.687 378.625 378.425 378.19 377.942 377.71 377.55 377.405 377.247 377.127 376.957 376.815 376.685 376.582 376.52 376.457 376.457 376.46 376.487 376.52 376.585 376.587 376.627 376.627 376.635 376.642 376.665 376.697 376.65 376.562 376.397 376.265 376.087 375.987 375.665 375.215 374.867 374.67 374.6 374.587 374.66 374.83 374.932 374.92 374.84 374.71 374.605 374.482 374.36 374.26 374.132 374.055 373.955 373.812 373.66 373.517 373.377 373.28 373.12 372.962 372.807 372.617 372.39 372.225 372.047 371.89 371.735 371.535 371.385 371.192 370.965 370.757 370.557 370.35 370.187 369.945 369.73 369.442 369.035 368.852 368.735 368.717 368.792 368.78 368.63 368.452 368.315 368.125 367.917 367.712 367.605 367.445 367.252 366.91 366.725 366.365 365.835 365.167 364.89 364.845 364.595 364.437 364.432 364.407 364.282 363.972 363.59 363.345 363.342 362.905 362.447 362.067 361.647 361.355 361.067 360.755 360.445 360.155 359.855 359.687 359.347 358.827 358.492 358.152 357.842 357.285 357.037 356.702 356.465 356.272 356.072 355.955 355.775 355.717 355.417 355.007 354.452 353.762 353.22 352.812 352.45 352.262 351.925 351.665 351.522 351.435 351.427 351.4 351.475 351.595 351.71 351.65 351.625 351.5 351.285 351 350.715 350.33 349.945 349.545 349.167 348.855 348.52 348.095 347.592 346.895 345.737 344.665 343.74 342.932 342.13 341.357 340.557 339.7 339.23 339.34 339.162 338.832 338.547 338.765 339.092 339.327 339.635 340.075 340.557 341.155 341.9 342.67 343.375 344.08 344.665 345.055 345.385 345.602 345.762 345.955 346.14 346.31 346.405 346.547 346.642 346.7 346.757 346.895 346.897 346.915 346.892 346.957
384.06 384.172 383.99 383.56 382.98 382.407 381.942 381.802 381.86 381.927 382.007 381.992 382.25 382.727 382.835 382.915 383.132 383.592 383.99 384.07 384.205 384.37 384.612 384.91 385.092 385.427 385.865 386.03 386.177 386.27 386.317 386.332 386.205 386.155 386.105 386.127 386.235 386.312 386.432 386.585 386.74 386.917 386.995 387.01 387.12 387.197 387.212 387.257 387.22 387.172 387.355 387.397 387.45 387.472 387.52 387.49 387.487 387.437 387.385 387.372 387.405 387.42 387.457 387.527 387.44 387.317 387.24 387.19 387.247 387.145 387.13 387.082 386.995 386.875 386.825 386.752 386.382 386.262 386.095 385.98 385.897 385.87 385.942 386.037 386.087 386.16 386.295 386.295 386.222 386.13 386.08 386.09 386.032 385.975 385.855 385.662 385.51 385.242 384.765 384.597 384.767 385.187 385.627 385.847 385.932 385.997 385.997 385.99 386.005 385.995 385.937 385.837 385.795 385.802 385.742 385.677 385.54 385.37 385.197 385.065 384.957 384.852 384.715 384.572 384.497 384.425 384.32 384.175 383.912 383.685 383.43 383.11 383.117 383.312 383.55 383.587 383.522 383.42 383.212 383.022 382.872 382.712 382.617 382.577 382.295 382.062 381.887 382.15 382.31 382.217 382.205 382.16 382.202 382.172 382.005 381.75 381.64 381.777 381.642 381.655 381.567 381.437 381.24 381.02 380.855 380.697 380.405 380.157 379.98 379.87 379.847 379.835 379.777 379.875 379.587 379.422 379.24 379.14 379.055 378.857 378.637 378.315 378.102 377.87 377.7 377.525 377.397 377.252 377.162 377.027 376.83 376.742 376.68 376.677 376.682 376.692 376.722 376.747 376.712 376.78 376.835 376.84 376.852 376.812 376.8 376.742 376.627 376.445 376.205 375.972 375.715 375.46 375.342 375.08 375.017 374.935 374.895 375 375.177 375.257 375.285 375.162 374.982 374.87 374.727 374.627 374.482 374.39 374.27 374.175 374.025 373.845 373.682 373.537 373.447 373.35 373.19 373.065 372.855 372.62 372.407 372.307 372.157 371.987 371.802 371.657 371.41 371.215 371.03 370.847 370.632 370.43 370.22 369.995 369.635 369.362 369.16 369.077 369.125 369.217 369.152 368.955 368.742 368.56 368.387 368.175 367.972 367.805 367.68 367.447 367.077 366.76 366.34 365.68 365.132 365.077 364.97 364.84 364.902 364.877 364.735 364.587 364.322 364.097 363.77 363.692 363.31 362.687 362.287 361.977 361.597 361.262 361.015 360.64 360.275 360.147 359.692 359.452 359.142 358.68 358.372 357.875 357.5 357.202 356.882 356.62 356.437 356.295 356.162 356.002 355.845 355.582 355.222 354.56 353.992 353.41 353.075 352.67 352.382 352.062 351.847 351.722 351.66 351.625 351.675 351.717 351.82 351.837 351.795 351.717 351.627 351.497 351.24 350.9 350.56 350.2 349.815 349.5 349.215 348.837 348.322 347.64 346.672 345.57 344.575 343.722 342.937 342.085 341.312 340.512 339.735 339.692 339.722 339.365 339.02 338.977 339.395 339.742 340.002 340.435 340.942 341.362 341.945 342.615 343.322 344.155 344.882 345.472 345.925 346.245 346.485 346.595 346.807 346.95 347.055 347.187 347.35 347.435 347.53 347.595 347.687 347.685 347.702 347.682 347.717
384.435 384.642 384.5 384.04 383.525 383.012 382.552 382.507 382.635 382.867 382.842 382.7 382.607 382.987 383.292 383.495 383.677 384.082 384.357 384.507 384.56 384.822 385.072 385.407 385.535 385.755 386.197 386.452 386.512 386.627 386.702 386.77 386.725 386.715 386.657 386.677 386.772 386.852 386.965 387.182 387.36 387.44 387.42 387.455 387.575 387.662 387.705 387.74 387.657 387.662 387.852 387.935 387.965 387.997 388.002 388.015 387.955 387.935 387.912 387.872 387.855 387.9 387.927 387.967 387.89 387.832 387.73 387.665 387.61 387.545 387.527 387.51 387.422 387.3 387.247 387.022 386.752 386.76 386.562 386.525 386.402 386.312 386.392 386.422 386.485 386.625 386.762 386.695 386.595 386.497 386.4 386.417 386.32 386.227 386.055 385.91 385.837 385.437 385.055 384.962 385.02 385.225 385.575 385.872 386.145 386.24 386.35 386.322 386.32 386.285 386.14 386.057 386.055 386.015 385.947 385.875 385.767 385.685 385.55 385.372 385.282 385.17 385.062 384.96 384.827 384.767 384.695 384.535 384.185 383.875 383.825 383.672 383.692 383.81 384.02 384.022 383.93 383.852 383.655 383.462 383.3 383.175 383.075 383.017 382.777 382.595 382.31 382.537 382.695 382.747 382.857 382.875 382.89 382.867 382.73 382.582 382.522 382.477 382.495 382.305 382.197 382.067 381.86 381.645 381.475 381.22 381.035 380.745 380.525 380.395 380.305 380.22 380.18 380.12 380.005 379.87 379.655 379.545 379.452 379.23 379.01 378.697 378.497 378.282 378.06 377.865 377.775 377.62 377.477 377.31 377.175 377.042 376.947 377.127 376.985 376.977 376.96 376.98 377.002 377.06 377.037 377.062 377.017 376.947 376.905 376.812 376.715 376.495 376.222 375.94 375.755 375.515 375.395 375.495 375.38 375.29 375.222 375.315 375.455 375.497 375.47 375.36 375.335 375.177 375.02 374.975 374.785 374.642 374.497 374.392 374.252 374.075 373.91 373.75 373.67 373.527 373.382 373.205 373.06 372.912 372.695 372.51 372.367 372.232 372.087 371.897 371.722 371.545 371.372 371.125 370.917 370.752 370.522 370.27 369.892 369.662 369.535 369.432 369.527 369.625 369.49 369.295 369.1 368.807 368.642 368.45 368.272 368.06 367.885 367.637 367.285 366.872 366.332 365.65 365.265 365.2 365.15 365.275 365.412 365.265 365.095 364.972 364.822 364.542 364.202 363.917 363.547 362.942 362.56 362.225 361.825 361.477 361.117 360.727 360.402 360.142 359.795 359.54 359.305 358.857 358.392 358.005 357.657 357.347 357.06 356.83 356.612 356.497 356.325 356.162 355.952 355.682 355.29 354.717 354.16 353.605 353.252 352.757 352.53 352.22 352.07 351.915 351.875 351.807 351.82 351.927 352.017 351.917 351.895 351.862 351.795 351.655 351.467 351.157 350.827 350.452 350.1 349.825 349.487 349.07 348.42 347.492 346.377 345.327 344.482 343.69 342.865 342.05 341.242 340.417 339.975 340.162 339.965 339.607 339.295 339.502 340.02 340.385 340.727 341.24 341.79 342.252 342.72 343.207 343.902 344.665 345.405 346.097 346.617 346.99 347.212 347.457 347.602 347.75 347.857 348.01 348.137 348.307 348.365 348.45 348.465 348.467 348.435 348.44 348.44
384.875 385.027 384.792 384.375 384.047 383.707 383.372 383.347 383.38 383.455 383.472 383.367 383.255 383.127 383.417 383.757 384.142 384.462 384.755 385.01 385.225 385.312 385.512 385.847 385.987 386.142 386.567 386.745 386.752 386.807 386.992 387.205 387.192 387.195 387.22 387.25 387.33 387.467 387.572 387.705 387.862 387.957 387.955 387.9 387.965 388.09 388.13 388.152 388.087 388.075 388.265 388.365 388.437 388.477 388.48 388.497 388.49 388.435 388.372 388.395 388.395 388.392 388.447 388.467 388.442 388.337 388.192 388.187 388.085 388.01 387.962 387.955 387.835 387.755 387.645 387.372 387.315 387.2 387.002 386.877 386.88 386.797 386.8 386.885 386.987 387.152 387.202 387.067 386.94 386.817 386.722 386.71 386.592 386.477 386.287 386.027 385.837 385.525 385.27 385.125 385.115 385.307 385.62 385.977 386.317 386.507 386.747 386.795 386.752 386.582 386.495 386.33 386.3 386.235 386.162 386.09 386 385.932 385.815 385.632 385.557 385.457 385.402 385.307 385.235 385.25 384.997 384.81 384.392 384.205 384.162 384.102 384.06 384.175 384.445 384.422 384.337 384.18 384.032 383.857 383.672 383.527 383.432 383.375 383.315 383.277 382.892 382.982 383.077 383.295 383.392 383.477 383.492 383.507 383.442 383.357 383.22 383.102 383.05 382.94 382.797 382.607 382.382 382.157 382.025 381.782 381.59 381.33 381.097 380.945 380.847 380.715 380.527 380.445 380.395 380.31 380.187 380.02 379.827 379.627 379.365 379.15 378.927 378.732 378.525 378.335 378.202 377.997 377.827 377.66 377.497 377.352 377.33 377.322 377.297 377.192 377.305 377.31 377.215 377.232 377.235 377.235 377.192 377.1 376.975 376.852 376.67 376.462 376.277 376.062 375.825 375.595 375.605 375.637 375.62 375.485 375.465 375.54 375.645 375.667 375.662 375.632 375.525 375.432 375.255 375.182 375.05 374.922 374.777 374.605 374.482 374.327 374.177 373.975 373.847 373.69 373.467 373.337 373.212 373.08 372.882 372.705 372.627 372.467 372.32 372.142 371.987 371.775 371.62 371.442 371.215 371.005 370.755 370.46 370.227 370.112 370 369.905 369.937 369.96 369.805 369.627 369.36 369.08 368.847 368.602 368.4 368.187 367.98 367.68 367.317 366.962 366.42 365.702 365.49 365.437 365.407 365.715 365.817 365.63 365.502 365.477 365.377 364.88 364.595 364.327 363.7 363.262 362.86 362.47 362.085 361.735 361.342 360.957 360.595 360.307 359.975 359.642 359.272 359.01 358.507 358.087 357.767 357.482 357.195 356.96 356.737 356.612 356.477 356.242 356.042 355.785 355.42 354.855 354.302 353.742 353.33 352.917 352.632 352.43 352.27 352.11 352.002 351.987 351.977 351.992 352.045 352.052 352.065 352.06 351.942 351.807 351.682 351.39 351.07 350.722 350.402 350.115 349.63 349.05 348.265 347.2 346.072 345.15 344.385 343.595 342.745 341.947 341.197 340.54 340.385 340.405 340.105 339.817 339.757 339.987 340.505 340.992 341.46 342.065 342.59 343.142 343.61 344.037 344.53 345.137 345.857 346.637 347.282 347.74 348.04 348.287 348.44 348.532 348.605 348.71 348.88 349.015 349.14 349.192 349.21 349.222 349.252 349.205 349.27
385.362 385.435 385.135 384.732 384.43 384.295 384.212 384.15 384.265 384.48 384.395 384.285 384.01 383.732 383.757 384.08 384.29 384.675 385.12 385.53 385.65 385.767 386.012 386.32 386.335 386.477 386.845 387.057 386.912 386.927 387.317 387.555 387.577 387.577 387.592 387.62 387.74 387.865 388.035 388.155 388.25 388.347 388.35 388.25 388.355 388.417 388.512 388.572 388.555 388.625 388.697 388.745 388.802 388.87 388.925 388.91 388.91 388.91 388.83 388.837 388.842 388.94 388.962 388.895 388.847 388.772 388.642 388.605 388.505 388.425 388.39 388.382 388.275 388.09 387.967 387.902 387.695 387.515 387.45 387.337 387.325 387.297 387.285 387.39 387.557 387.667 387.612 387.582 387.47 387.415 387.16 387.065 386.98 386.835 386.65 386.345 385.997 385.772 385.605 385.24 385.027 385.312 385.825 386.225 386.625 386.852 386.925 386.932 386.915 386.917 386.88 386.707 386.572 386.602 386.43 386.317 386.257 386.14 386.06 385.927 385.805 385.78 385.675 385.577 385.59 385.572 385.437 385.117 384.677 384.652 384.555 384.445 384.385 384.572 384.762 384.79 384.697 384.56 384.405 384.22 384.05 383.897 383.76 383.735 383.91 383.78 383.407 383.54 383.407 383.76 383.912 384.04 384.112 384.06 384.09 384.037 383.977 383.76 383.637 383.505 383.385 383.177 382.905 382.717 382.552 382.38 382.2 381.975 381.752 381.572 381.357 381.2 381.025 380.852 380.745 380.635 380.502 380.327 380.137 379.942 379.71 379.547 379.4 379.232 378.995 378.82 378.67 378.485 378.227 378.007 377.835 377.677 377.6 377.602 377.632 377.542 377.625 377.465 377.582 377.547 377.357 377.317 377.292 377.177 377.087 376.877 376.702 376.475 376.32 376.27 376.01 375.867 375.87 375.832 375.75 375.65 375.68 375.952 376.05 376.12 375.952 375.845 375.76 375.637 375.537 375.477 375.325 375.21 375.07 374.94 374.727 374.555 374.412 374.22 374.002 373.827 373.635 373.462 373.355 373.242 373.107 372.975 372.925 372.832 372.597 372.412 372.25 372.005 371.817 371.675 371.442 371.197 370.947 370.737 370.575 370.542 370.497 370.365 370.39 370.3 370.117 369.885 369.64 369.322 369.04 368.787 368.51 368.277 368.037 367.762 367.397 367.037 366.585 366.07 365.757 365.84 365.79 365.91 366.097 365.96 365.87 365.847 365.46 365.147 365.067 364.647 364.18 363.805 363.502 362.88 362.37 362.017 361.597 361.182 360.817 360.505 360.055 359.652 359.287 359.032 358.612 358.237 357.84 357.562 357.305 357.075 356.902 356.737 356.54 356.337 356.097 355.827 355.462 354.99 354.442 353.97 353.475 353.11 352.827 352.622 352.45 352.332 352.212 352.167 352.145 352.165 352.175 352.215 352.225 352.197 352.075 351.955 351.78 351.507 351.182 350.87 350.617 350.257 349.635 348.877 347.962 346.892 345.857 345.032 344.22 343.42 342.625 341.832 341.105 340.705 340.785 340.627 340.395 340.165 340.187 340.51 341.087 341.657 342.292 342.922 343.497 344.122 344.615 344.97 345.28 345.67 346.367 347.122 347.862 348.407 348.762 348.987 349.15 349.265 349.337 349.385 349.53 349.695 349.76 349.847 349.912 349.895 349.942 349.975 350.012
385.755 385.825 385.542 385.112 384.85 384.757 384.705 384.75 384.832 385.122 385.117 384.752 384.452 384.38 384.152 384.29 384.477 384.817 385.387 385.717 386.082 386.395 386.642 386.875 386.777 386.872 387.192 387.417 387.332 387.355 387.652 387.895 387.96 387.912 387.89 387.872 388.027 388.202 388.415 388.512 388.612 388.687 388.67 388.557 388.49 388.635 388.865 388.987 388.96 388.915 389.132 389.135 389.17 389.277 389.335 389.4 389.452 389.335 389.24 389.255 389.28 389.39 389.33 389.315 389.302 389.137 389.05 388.985 388.905 388.83 388.77 388.74 388.61 388.415 388.18 388.24 388.085 387.975 387.845 387.77 387.847 387.832 387.84 387.91 387.997 388.03 388.07 387.962 387.79 387.73 387.532 387.327 387.195 387.06 386.905 386.76 386.402 386.115 385.957 385.5 385.262 385.515 385.987 386.442 386.92 387.107 387.18 387.12 387.11 387.09 386.98 386.895 386.825 386.777 386.692 386.542 386.447 386.36 386.267 386.175 386.047 385.95 385.927 385.887 385.86 385.815 385.707 385.395 384.89 384.952 384.905 384.665 384.792 385.037 385.145 385.157 385.052 384.955 384.787 384.59 384.392 384.267 384.15 384.06 384.082 384.047 383.857 383.952 383.902 384.1 384.322 384.52 384.627 384.662 384.725 384.677 384.642 384.47 384.287 384.15 384.015 383.777 383.487 383.337 383.227 383.022 382.845 382.56 382.367 382.152 381.975 381.762 381.577 381.415 381.215 381.042 380.855 380.652 380.485 380.355 380.135 380.012 379.847 379.692 379.497 379.267 379.125 378.945 378.715 378.412 378.185 378.052 377.805 377.832 377.81 377.88 377.732 377.742 377.69 377.562 377.48 377.405 377.312 377.175 377.065 376.852 376.7 376.49 376.322 376.14 376.132 376.122 376.075 376.067 376.012 375.885 375.907 376.157 376.135 376.225 376.155 376.067 375.975 375.92 375.857 375.797 375.59 375.462 375.46 375.237 374.917 374.732 374.625 374.417 374.172 373.97 373.792 373.63 373.515 373.43 373.282 373.19 373.097 372.992 372.847 372.717 372.575 372.377 372.132 371.882 371.602 371.352 371.182 371.01 370.885 370.837 370.807 370.807 370.68 370.537 370.325 370.132 369.862 369.552 369.245 368.992 368.682 368.375 368.107 367.792 367.475 367.152 366.8 366.317 366.085 366.297 366.367 366.39 366.372 366.362 366.202 366.012 365.65 365.342 364.987 365.012 364.452 363.8 363.567 363.327 362.525 362.18 361.797 361.365 360.995 360.617 360.145 359.705 359.375 359.072 358.792 358.495 357.917 357.665 357.407 357.21 357.02 356.8 356.625 356.382 356.155 355.96 355.517 355.197 354.627 354.132 353.625 353.31 353.07 352.817 352.675 352.54 352.45 352.397 352.367 352.35 352.372 352.35 352.345 352.272 352.19 352.005 351.812 351.55 351.29 350.967 350.682 350.23 349.43 348.512 347.505 346.54 345.63 344.837 344.04 343.232 342.51 341.762 341.19 341.112 340.955 340.815 340.702 340.645 340.765 341.19 341.8 342.405 343.062 343.74 344.427 345.047 345.465 345.787 346.02 346.425 346.995 347.707 348.42 348.987 349.39 349.645 349.797 349.922 349.985 350.045 350.2 350.357 350.447 350.51 350.587 350.61 350.63 350.682 350.702
386.275 386.38 386.055 385.64 385.327 385.245 385.19 385.267 385.345 385.502 385.467 385.252 385.015 384.79 384.52 384.595 384.86 385.162 385.477 385.945 386.48 386.945 387.147 387.317 387.32 387.292 387.56 387.82 387.845 387.852 387.992 388.2 388.305 388.307 388.23 388.212 388.315 388.587 388.765 388.807 388.872 388.88 388.972 388.902 388.755 388.97 389.312 389.42 389.405 389.31 389.42 389.56 389.595 389.667 389.862 389.852 389.77 389.695 389.625 389.645 389.747 389.715 389.647 389.612 389.52 389.387 389.305 389.235 389.232 389.187 389.142 389.077 388.915 388.662 388.455 388.537 388.487 388.4 388.212 388.227 388.28 388.287 388.335 388.377 388.467 388.475 388.502 388.307 388.215 388.112 387.867 387.652 387.505 387.272 387.097 387 386.722 386.437 386.242 385.757 385.502 385.7 386.127 386.632 387.067 387.24 387.32 387.352 387.36 387.247 387.2 387.285 387.207 386.852 386.822 386.797 386.602 386.552 386.477 386.32 386.22 386.137 386.1 386.032 386.08 386.065 385.922 385.587 385.107 385.122 385.1 385.017 385.215 385.47 385.545 385.47 385.415 385.28 385.132 385.007 384.78 384.607 384.502 384.367 384.317 384.462 384.475 384.285 384.255 384.342 384.672 384.927 385.155 385.225 385.2 385.235 385.195 385.025 384.877 384.782 384.672 384.445 384.19 384.025 383.905 383.705 383.47 383.182 382.915 382.695 382.492 382.325 382.142 381.96 381.717 381.507 381.287 381.06 380.885 380.685 380.547 380.395 380.197 380.092 379.93 379.717 379.512 379.325 379.125 378.857 378.645 378.377 378.145 378.13 378.137 377.962 377.917 377.822 377.78 377.732 377.657 377.53 377.427 377.305 377.157 376.915 376.74 376.515 376.422 376.322 376.292 376.262 376.325 376.285 376.22 376.11 376.08 376.287 376.41 376.39 376.242 376.222 376.167 376.097 376.015 375.952 375.802 375.692 375.525 375.295 375.122 374.99 374.805 374.632 374.44 374.212 374 373.83 373.722 373.602 373.502 373.435 373.36 373.27 373.172 373.02 372.832 372.635 372.495 372.202 371.84 371.602 371.452 371.29 371.167 371.14 371.152 371.15 370.967 370.79 370.6 370.385 370.087 369.767 369.462 369.147 368.815 368.495 368.18 367.89 367.567 367.285 367.05 366.725 366.71 366.73 366.662 366.692 366.727 366.62 366.432 366.195 365.857 365.382 365.045 365.087 364.495 363.817 363.43 363.32 362.637 362.307 361.977 361.565 361.12 360.71 360.292 359.902 359.517 359.177 358.827 358.602 358.052 357.772 357.532 357.312 357.132 356.922 356.72 356.43 356.215 355.912 355.537 355.13 354.615 354.195 353.84 353.507 353.225 353.047 352.84 352.755 352.65 352.602 352.552 352.512 352.485 352.462 352.387 352.315 352.195 352.017 351.785 351.55 351.24 350.947 350.565 349.877 349.012 348.012 347.092 346.157 345.367 344.655 343.862 343.13 342.377 341.68 341.502 341.43 341.21 341.24 341.26 341.325 341.55 341.965 342.567 343.147 343.84 344.585 345.285 345.912 346.415 346.79 347.037 347.31 347.692 348.397 349.077 349.63 350.015 350.29 350.41 350.495 350.562 350.695 350.84 350.985 351.085 351.165 351.262 351.3 351.315 351.277 351.315
386.89 386.935 386.552 386.205 385.93 385.712 385.635 385.737 385.735 385.875 386.09 385.832 385.627 385.222 385.222 385.13 385.215 385.512 385.87 386.362 386.792 387.265 387.577 387.725 387.765 387.765 387.932 388.257 388.292 388.385 388.42 388.465 388.565 388.65 388.585 388.607 388.73 388.942 389.1 388.927 388.71 389.02 389.352 389.412 389.42 389.537 389.735 389.81 389.815 389.76 389.865 389.965 390.027 390.075 390.045 390.1 390.08 389.987 389.93 389.92 389.877 389.957 390.052 389.915 389.852 389.535 389.245 389.432 389.572 389.615 389.667 389.657 389.41 389.152 389.107 389.025 388.902 388.777 388.615 388.637 388.685 388.77 388.852 388.822 388.892 388.86 388.815 388.73 388.512 388.405 388.192 387.975 387.767 387.542 387.41 387.25 386.957 386.58 386.287 385.895 385.675 385.965 386.487 386.965 387.257 387.392 387.565 387.502 387.677 387.545 387.547 387.642 387.522 387.237 387.087 387.06 387.022 386.92 386.795 386.57 386.477 386.375 386.252 386.162 386.135 386.122 386.007 385.715 385.367 385.265 385.24 385.362 385.69 385.902 385.875 385.792 385.7 385.582 385.405 385.302 385.14 384.995 384.83 384.69 384.905 384.915 385.025 384.585 384.54 384.59 384.905 385.26 385.462 385.59 385.607 385.615 385.632 385.477 385.367 385.265 385.215 385.052 384.805 384.655 384.52 384.342 384.122 383.847 383.522 383.287 383.125 382.96 382.785 382.522 382.225 382.005 381.762 381.545 381.34 381.085 380.937 380.78 380.6 380.445 380.257 380.12 379.87 379.645 379.55 379.32 379.047 378.735 378.492 378.315 378.255 378.165 378.145 378.14 378.03 377.93 377.777 377.615 377.615 377.405 377.277 377.18 376.8 376.567 376.53 376.507 376.515 376.532 376.552 376.505 376.38 376.28 376.325 376.437 376.437 376.37 376.37 376.377 376.36 376.345 376.325 376.177 376.03 375.895 375.747 375.615 375.432 375.23 375.037 374.855 374.677 374.472 374.28 374.072 373.927 373.852 373.765 373.682 373.637 373.545 373.405 373.287 373.14 372.982 372.752 372.435 372.105 371.88 371.715 371.587 371.492 371.432 371.445 371.372 371.232 371.02 370.852 370.612 370.31 369.975 369.69 369.34 368.96 368.665 368.337 368.055 367.715 367.377 367.252 366.952 367.1 367.14 367.012 366.992 367.002 366.837 366.632 366.395 366.16 365.67 365.142 365.007 364.83 364.035 363.582 363.777 362.81 362.47 362.135 361.712 361.237 360.842 360.467 360.06 359.665 359.277 358.927 358.635 358.147 357.865 357.642 357.442 357.285 357.055 356.8 356.62 356.325 356.012 355.74 355.235 354.717 354.345 354.04 353.692 353.447 353.215 353.077 352.937 352.88 352.792 352.727 352.672 352.607 352.55 352.437 352.317 352.192 352 351.745 351.455 351.082 350.705 350.112 349.287 348.385 347.53 346.64 345.805 345.152 344.415 343.695 343.032 342.305 341.972 341.862 341.63 341.535 341.76 341.917 342.045 342.297 342.767 343.297 343.93 344.592 345.32 346.055 346.812 347.33 347.712 348.03 348.315 348.567 349.07 349.732 350.24 350.662 350.887 350.992 351.07 351.16 351.362 351.392 351.472 351.627 351.72 351.817 351.87 351.882 351.91 351.967
387.437 387.502 387.155 386.772 386.382 386.145 386.067 386.175 386.185 386.42 386.742 386.432 386.072 386.09 385.892 385.63 385.602 385.75 386.24 386.76 387.135 387.552 387.78 387.995 388.13 388.272 388.415 388.53 388.627 388.655 388.697 388.74 388.82 388.942 388.932 389.002 389.142 389.32 389.422 389.342 389.285 389.505 389.84 389.942 390.012 390.035 390.147 390.265 390.232 390.25 390.23 390.305 390.345 390.305 390.32 390.367 390.402 390.297 390.112 389.995 390.025 390.202 390.312 390.275 390.16 389.68 389.257 389.537 389.85 390.01 390.06 390.01 389.76 389.317 389.437 389.42 389.247 389.077 388.91 389.037 389.092 389.09 389.177 389.215 389.335 389.277 389.177 388.985 389.077 388.767 388.575 388.417 388.195 388 387.8 387.585 387.175 386.677 386.267 386.03 385.992 386.387 386.827 387.232 387.512 387.632 387.667 387.85 387.865 387.847 387.79 387.78 387.73 387.525 387.305 387.27 387.297 387.245 387.1 386.915 386.655 386.56 386.502 386.372 386.257 386.107 385.94 385.772 385.592 385.567 385.582 385.707 386.142 386.3 386.225 386.165 386.075 385.902 385.725 385.645 385.505 385.32 385.147 384.98 385.082 385.277 385.335 384.995 384.947 384.977 385.04 385.467 385.777 385.837 385.905 385.897 385.902 385.915 385.825 385.747 385.645 385.517 385.347 385.172 385.067 384.897 384.7 384.437 384.17 383.967 383.76 383.562 383.342 383.077 382.77 382.542 382.322 382.097 381.855 381.597 381.412 381.237 381.062 380.887 380.667 380.42 380.202 380 379.852 379.64 379.387 379.02 378.777 378.645 378.52 378.49 378.487 378.407 378.23 378.04 377.827 377.665 377.627 377.472 377.305 377.1 377.002 376.892 376.872 376.855 376.862 376.91 376.767 376.69 376.582 376.502 376.502 376.54 376.567 376.572 376.537 376.527 376.602 376.6 376.52 376.457 376.357 376.185 376.047 375.895 375.742 375.585 375.37 375.235 375.012 374.782 374.567 374.34 374.207 374.102 374.002 373.92 373.87 373.762 373.662 373.54 373.377 373.205 373.05 372.65 372.395 372.225 372.097 372.005 371.887 371.765 371.715 371.612 371.475 371.272 371.02 370.795 370.502 370.192 369.9 369.55 369.205 368.852 368.56 368.287 367.905 367.592 367.337 367.217 367.442 367.575 367.442 367.295 367.245 367.06 366.807 366.522 366.307 366.117 365.402 365.015 365.012 364.492 363.777 363.785 363.175 362.702 362.435 361.935 361.392 360.967 360.485 360.07 359.78 359.357 358.99 358.67 358.29 358 357.75 357.557 357.425 357.247 356.997 356.79 356.472 356.135 355.857 355.377 354.87 354.542 354.212 353.885 353.67 353.422 353.245 353.167 353.087 352.99 352.902 352.83 352.732 352.62 352.517 352.33 352.14 351.945 351.62 351.257 350.767 350.235 349.53 348.72 347.887 347.1 346.33 345.617 344.912 344.225 343.54 342.922 342.557 342.347 342.082 341.935 341.95 342.342 342.527 342.737 343.08 343.512 344.01 344.585 345.335 346.01 346.832 347.545 348.15 348.56 348.92 349.182 349.457 349.812 350.29 350.772 351.16 351.415 351.497 351.582 351.67 351.82 351.897 352.025 352.155 352.322 352.397 352.402 352.43 352.545 352.58
387.847 387.975 387.797 387.48 386.987 386.605 386.56 386.577 386.687 386.842 387.145 387.112 386.807 386.765 386.635 386.385 386.3 386.185 386.37 386.945 387.332 387.795 388.012 388.212 388.387 388.605 388.835 388.857 388.937 388.95 388.937 388.987 389.107 389.282 389.282 389.395 389.562 389.735 389.95 389.88 389.895 389.957 390.125 390.32 390.37 390.395 390.582 390.707 390.595 390.562 390.532 390.592 390.622 390.665 390.672 390.72 390.632 390.532 390.402 390.315 390.445 390.49 390.597 390.587 390.432 390.095 389.807 389.947 390.187 390.29 390.277 390.125 389.92 389.622 389.57 389.695 389.507 389.237 389.09 389.292 389.557 389.482 389.512 389.54 389.53 389.545 389.352 389.207 389.315 389.152 388.9 388.7 388.56 388.37 388.175 387.86 387.44 386.872 386.47 386.335 386.597 387.045 387.492 387.707 387.807 387.915 387.947 387.96 387.96 387.86 387.9 387.827 387.702 387.69 387.497 387.577 387.505 387.377 387.315 387.297 386.907 386.782 386.68 386.51 386.382 386.17 385.91 385.807 385.702 385.765 385.705 385.977 386.417 386.53 386.505 386.417 386.32 386.192 386.04 385.9 385.77 385.587 385.397 385.29 385.225 385.56 385.28 384.93 385.112 385.28 385.445 385.465 385.717 385.955 386.097 386.14 386.147 386.207 386.225 386.19 386.122 385.972 385.84 385.725 385.55 385.377 385.23 385.012 384.757 384.55 384.32 384.09 383.877 383.665 383.37 383.122 382.922 382.665 382.46 382.205 381.952 381.737 381.537 381.272 381.025 380.792 380.575 380.312 380.14 379.93 379.73 379.422 379.145 378.977 378.902 378.867 378.772 378.642 378.452 378.192 377.927 377.732 377.64 377.512 377.38 377.327 377.275 377.19 377.202 377.245 377.352 377.075 377.022 377.002 376.872 376.88 376.747 376.782 376.877 376.855 376.817 376.81 376.852 376.907 376.695 376.587 376.507 376.39 376.257 376.112 375.977 375.83 375.632 375.495 375.285 375.065 374.845 374.655 374.485 374.367 374.287 374.192 374.105 374.02 373.937 373.797 373.675 373.495 373.275 372.952 372.737 372.58 372.49 372.415 372.25 372.092 371.997 371.84 371.705 371.485 371.225 370.985 370.717 370.402 370.112 369.785 369.497 369.207 368.837 368.552 368.142 367.775 367.592 367.377 367.617 367.775 367.707 367.62 367.5 367.32 367.03 366.805 366.422 366.045 365.52 365.287 365.147 364.947 364.06 363.99 363.337 362.93 362.547 362.155 361.56 361.09 360.547 360.095 359.8 359.43 359.107 358.892 358.405 358.125 357.927 357.795 357.615 357.437 357.257 356.945 356.637 356.342 355.96 355.492 355.125 354.75 354.412 354.132 353.867 353.647 353.457 353.35 353.27 353.175 353.06 352.995 352.837 352.692 352.55 352.327 352.11 351.807 351.437 350.96 350.417 349.767 349.042 348.29 347.505 346.757 346.08 345.39 344.687 344.032 343.507 343.107 342.925 342.547 342.395 342.325 342.595 342.955 343.16 343.397 343.74 344.202 344.675 345.262 345.965 346.645 347.41 348.252 348.917 349.285 349.652 350 350.295 350.61 350.877 351.307 351.635 351.857 351.972 352.08 352.212 352.337 352.505 352.635 352.792 352.902 352.97 353.1 353.102 353.19 353.23
388.182 388.3 388.222 388.002 387.552 387.07 387.072 387.052 387.21 387.335 387.432 387.682 387.58 387.4 387.287 387.125 386.955 386.805 386.747 386.997 387.497 387.972 388.262 388.455 388.677 388.842 388.982 389.077 389.182 389.235 389.292 389.397 389.457 389.517 389.622 389.772 389.995 390.055 390.275 390.317 390.33 390.402 390.457 390.592 390.6 390.667 390.762 390.837 390.815 390.82 390.84 390.94 390.937 390.97 390.955 390.96 390.87 390.815 390.815 390.772 390.78 390.852 390.965 390.942 390.777 390.502 390.275 390.405 390.607 390.632 390.595 390.452 390.415 390.08 389.85 389.835 389.645 389.46 389.462 389.52 389.825 389.865 389.785 389.59 389.68 389.727 389.575 389.492 389.5 389.435 389.252 389.01 388.9 388.69 388.402 388.085 387.605 387.192 386.867 386.942 387.207 387.7 388.085 388.252 388.202 388.265 388.317 388.405 388.245 388.05 387.985 387.877 387.762 387.772 387.787 387.82 387.78 387.557 387.547 387.447 387.22 387.012 386.902 386.717 386.527 386.332 386.022 385.765 385.565 385.707 385.84 386.107 386.52 386.672 386.717 386.67 386.587 386.51 386.342 386.157 386.04 385.91 385.79 385.655 385.59 386.082 385.565 385.167 385.187 385.515 385.625 385.705 385.807 386.04 386.267 386.335 386.39 386.495 386.472 386.427 386.452 386.347 386.24 386.195 386.04 385.827 385.672 385.49 385.302 385.135 384.96 384.732 384.497 384.257 383.987 383.73 383.462 383.215 382.977 382.73 382.477 382.192 381.962 381.747 381.46 381.15 380.885 380.612 380.412 380.217 380.032 379.862 379.605 379.337 379.212 379.187 379.045 378.86 378.642 378.355 378.092 377.892 377.85 377.74 377.675 377.67 377.63 377.595 377.55 377.557 377.462 377.345 377.37 377.332 377.21 377.032 377.022 376.937 377.045 377.047 376.98 376.982 377 376.922 376.815 376.742 376.645 376.535 376.445 376.312 376.205 376.067 375.917 375.697 375.517 375.317 375.09 374.93 374.792 374.675 374.547 374.467 374.377 374.242 374.147 374.025 373.887 373.757 373.517 373.25 373.09 372.952 372.855 372.737 372.562 372.392 372.252 372.057 371.862 371.642 371.45 371.167 370.942 370.67 370.342 370.065 369.752 369.47 369.155 368.832 368.577 368.057 367.842 367.447 367.785 367.892 367.892 367.875 367.755 367.592 367.302 366.972 366.67 366.23 365.82 365.54 365.292 365.465 365.13 364.245 363.647 363.485 362.862 362.385 361.857 361.197 360.682 360.225 359.91 359.512 359.252 358.942 358.51 358.282 358.112 357.97 357.852 357.707 357.44 357.227 356.84 356.582 356.19 355.767 355.377 354.987 354.665 354.38 354.06 353.847 353.677 353.582 353.477 353.397 353.267 353.105 352.975 352.815 352.562 352.312 352 351.557 351.012 350.477 349.952 349.32 348.66 347.942 347.222 346.5 345.807 345.137 344.47 344.02 343.697 343.382 343.092 342.925 342.937 343.09 343.345 343.562 343.812 344.112 344.53 344.975 345.432 346.01 346.565 347.242 348.017 348.852 349.53 349.97 350.442 350.762 351.115 351.327 351.552 351.795 352.11 352.277 352.45 352.607 352.765 352.955 353.142 353.28 353.385 353.465 353.495 353.585 353.717 353.8 353.897
388.442 388.572 388.532 388.377 387.93 387.52 387.625 387.552 387.65 387.747 387.79 388.025 388.052 387.87 387.75 387.632 387.527 387.372 387.185 387.405 387.55 387.912 388.427 388.742 388.937 389.142 389.215 389.345 389.532 389.535 389.537 389.64 389.755 389.815 389.885 390.052 390.24 390.347 390.537 390.625 390.632 390.792 390.717 390.695 390.805 390.89 391.052 391.105 391.102 391.17 391.09 391.185 391.257 391.242 391.212 391.252 391.205 391.095 391.122 391.077 391.145 391.2 391.222 391.182 391.087 390.842 390.645 390.812 390.932 390.947 390.917 390.775 390.557 390.382 390.267 390.18 390.002 389.797 389.825 389.87 390.065 390.067 390.015 389.647 389.767 389.89 389.85 389.83 389.832 389.762 389.535 389.34 389.13 388.932 388.622 388.222 387.765 387.4 387.445 387.472 387.79 388.202 388.445 388.635 388.775 388.76 388.822 388.93 388.652 388.382 388.297 388.192 387.992 388.052 388.035 388.035 387.935 387.837 387.735 387.567 387.402 387.192 387.077 386.892 386.697 386.472 386.187 385.902 385.63 385.805 385.947 386.165 386.43 386.765 386.895 386.867 386.8 386.687 386.567 386.442 386.34 386.295 386.225 386.09 386.1 386.405 385.847 385.567 385.177 385.61 385.735 385.852 385.955 386.125 386.36 386.477 386.582 386.695 386.765 386.705 386.665 386.607 386.562 386.537 386.485 386.347 386.152 385.942 385.77 385.64 385.482 385.322 385.145 384.882 384.572 384.255 383.947 383.727 383.437 383.177 382.892 382.602 382.32 382.115 381.817 381.54 381.25 380.97 380.76 380.557 380.422 380.207 379.982 379.737 379.58 379.562 379.375 379.132 378.79 378.53 378.33 378.237 378.127 378.045 378.077 378.06 378.04 377.957 377.905 377.842 377.877 377.722 377.507 377.53 377.427 377.247 377.302 377.127 377.19 377.18 377.055 377.022 376.992 376.997 376.972 376.902 376.837 376.725 376.685 376.555 376.445 376.31 376.18 376.037 375.835 375.647 375.435 375.265 375.102 374.957 374.85 374.745 374.68 374.545 374.427 374.387 374.145 373.887 373.71 373.515 373.382 373.287 373.16 372.982 372.847 372.7 372.505 372.272 372.097 371.852 371.652 371.42 371.177 370.947 370.65 370.297 370.017 369.742 369.472 369.187 368.902 368.612 368.28 367.582 368.097 368.16 368.095 368.117 368.11 367.89 367.597 367.305 366.745 366.405 366.037 365.947 365.955 365.192 364.93 364.312 363.855 363.61 363.237 362.517 362.105 361.365 360.875 360.465 359.96 359.647 359.317 358.957 358.65 358.47 358.317 358.217 358.045 357.897 357.655 357.452 357.192 356.825 356.402 356.042 355.632 355.25 354.872 354.587 354.297 354.085 353.917 353.797 353.7 353.582 353.442 353.277 353.077 352.862 352.6 352.33 351.977 351.515 350.877 350.21 349.517 348.95 348.375 347.645 346.972 346.25 345.502 344.93 344.572 344.282 343.772 343.437 343.385 343.46 343.695 343.907 344.115 344.312 344.577 344.94 345.345 345.74 346.147 346.585 347.175 347.842 348.597 349.37 350.117 350.695 351.14 351.51 351.76 351.965 352.2 352.382 352.597 352.777 352.962 353.127 353.307 353.53 353.712 353.85 353.957 354.12 354.18 354.265 354.417 354.57 354.602
388.652 388.812 388.757 388.562 388.225 387.915 388.05 387.93 388.022 388.107 388.147 388.312 388.37 388.285 388.247 388.122 388.082 387.95 387.755 387.897 387.932 388.045 388.512 388.877 389.202 389.417 389.522 389.665 389.812 389.92 389.855 389.882 389.977 390.097 390.175 390.287 390.475 390.632 390.747 390.867 390.932 391.035 390.937 390.94 390.985 391.06 391.167 391.285 391.3 391.317 391.34 391.407 391.49 391.53 391.547 391.41 391.407 391.437 391.43 391.372 391.447 391.46 391.44 391.44 391.357 391.137 391.08 391.072 391.15 391.187 391.052 390.94 390.885 390.865 390.77 390.74 390.46 390.287 390.187 390.31 390.317 390.265 390.077 389.942 390.337 390.267 390.217 390.262 390.255 390.03 389.795 389.69 389.495 389.245 388.955 388.52 388.02 387.742 387.867 387.915 388.372 388.702 388.89 389.025 389.327 389.31 389.307 389.187 389.04 388.802 388.795 388.685 388.547 388.32 388.32 388.305 388.24 388.192 387.96 387.725 387.422 387.365 387.207 386.997 386.822 386.605 386.332 386.045 385.787 385.917 386.057 386.282 386.562 386.837 387.035 387.105 387.022 386.912 386.837 386.72 386.635 386.552 386.475 386.367 386.57 386.39 386.052 385.922 385.522 385.61 385.92 386.065 386.177 386.29 386.455 386.617 386.727 386.845 386.93 386.955 386.925 386.872 386.83 386.8 386.742 386.662 386.577 386.425 386.24 386.045 385.915 385.757 385.59 385.377 385.112 384.747 384.437 384.217 383.922 383.67 383.315 383.01 382.737 382.467 382.162 381.877 381.637 381.382 381.132 380.922 380.76 380.617 380.39 380.107 379.922 379.88 379.647 379.35 379.027 378.78 378.71 378.577 378.46 378.395 378.422 378.452 378.37 378.257 378.202 378.162 378.092 377.9 377.622 377.575 377.462 377.47 377.47 377.397 377.482 377.632 377.587 377.3 377.247 377.247 377.167 377.095 377.01 376.92 376.847 376.785 376.677 376.54 376.407 376.282 376.112 375.955 375.757 375.615 375.55 375.355 375.165 375.027 374.932 374.86 374.745 374.557 374.372 374.182 373.997 373.815 373.712 373.605 373.487 373.335 373.175 373.01 372.875 372.585 372.305 372.087 371.857 371.665 371.45 371.245 370.945 370.622 370.3 370.047 369.735 369.437 369.215 368.952 368.535 368.35 368.365 368.292 368.292 368.237 368.195 368.057 367.837 367.61 367.142 366.657 366.245 366.055 366.007 365.722 365.395 364.697 364.135 363.762 363.372 362.737 362.245 361.637 361.032 360.565 360.195 359.932 359.36 359.082 358.86 358.69 358.545 358.445 358.297 358.145 357.937 357.712 357.547 357.187 356.667 356.297 355.907 355.517 355.157 354.835 354.527 354.312 354.152 354.037 353.895 353.762 353.617 353.457 353.237 352.98 352.737 352.502 352.202 351.762 351.127 350.347 349.487 348.84 348.17 347.487 346.74 345.957 345.48 345.155 344.755 344.262 343.85 343.805 343.867 344.107 344.49 344.727 344.92 345.172 345.47 345.812 346.212 346.6 347.037 347.32 347.882 348.485 349.207 350.02 350.782 351.36 351.827 352.157 352.365 352.59 352.757 352.915 353.09 353.325 353.542 353.772 353.952 354.165 354.32 354.455 354.567 354.702 354.825 354.97 355.057 355.107 355.192
388.882 389.05 388.95 388.767 388.537 388.28 388.272 388.3 388.332 388.447 388.45 388.6 388.695 388.682 388.622 388.55 388.455 388.372 388.375 388.4 388.36 388.415 388.6 388.96 389.327 389.612 389.82 389.97 390.087 390.152 390.17 390.235 390.327 390.412 390.48 390.625 390.815 390.922 391.007 391.03 391.122 391.152 391.132 391.142 391.19 391.24 391.282 391.357 391.51 391.55 391.595 391.66 391.725 391.762 391.747 391.637 391.647 391.637 391.75 391.745 391.755 391.702 391.735 391.7 391.495 391.375 391.427 391.337 391.285 391.262 391.245 391.205 391.175 391.135 391.092 391.005 390.817 390.547 390.487 390.67 390.605 390.57 390.41 390.497 390.797 390.815 390.82 390.792 390.617 390.36 390.065 390.015 389.835 389.565 389.23 388.805 388.43 388.242 388.285 388.492 388.947 389.26 389.367 389.402 389.392 389.45 389.46 389.372 389.25 389.272 388.952 388.95 388.972 388.775 388.807 388.675 388.565 388.555 388.402 387.922 387.625 387.63 387.29 387.035 386.912 386.72 386.452 386.177 385.955 386.01 386.192 386.492 386.72 386.96 387.207 387.3 387.317 387.265 387.06 386.962 386.91 386.802 386.675 386.595 386.97 386.41 386.435 386.25 385.845 385.905 386.14 386.267 386.342 386.45 386.515 386.637 386.852 386.947 387.045 387.115 387.155 387.125 387.07 387.015 386.96 386.912 386.84 386.742 386.607 386.415 386.217 386.115 385.965 385.797 385.612 385.3 384.935 384.657 384.457 384.117 383.777 383.432 383.095 382.825 382.592 382.315 382.087 381.83 381.577 381.357 381.185 381.017 380.752 380.427 380.237 380.11 379.87 379.565 379.31 379.122 379.1 378.985 378.867 378.827 378.84 378.845 378.75 378.622 378.59 378.517 378.497 378.222 378.015 377.827 377.845 377.727 377.84 377.717 377.79 377.722 377.675 377.812 377.572 377.472 377.352 377.317 377.232 377.142 377.057 376.992 376.87 376.772 376.63 376.472 376.395 376.275 376.135 375.96 375.862 375.695 375.572 375.435 375.267 375.145 375.005 374.877 374.717 374.505 374.355 374.185 374.06 373.915 373.8 373.657 373.505 373.407 373.247 372.99 372.645 372.347 372.135 371.925 371.772 371.535 371.212 370.905 370.592 370.315 370.01 369.667 369.427 369.115 368.637 368.542 368.49 368.492 368.565 368.485 368.362 368.225 368.025 367.882 367.49 367.082 366.61 366.335 366.055 366.345 365.807 364.982 364.402 363.957 363.58 362.932 362.43 361.835 361.305 360.835 360.557 360.005 359.475 359.247 359.052 358.902 358.76 358.652 358.532 358.392 358.182 358.057 357.807 357.38 356.952 356.57 356.19 355.792 355.442 355.112 354.807 354.565 354.412 354.27 354.13 353.962 353.827 353.612 353.405 353.21 353.052 352.81 352.505 351.945 351.152 350.255 349.487 348.882 348.247 347.525 346.635 345.992 345.622 345.132 344.712 344.405 344.287 344.332 344.492 344.812 345.3 345.575 345.755 346.04 346.37 346.815 347.167 347.522 347.802 348.222 348.685 349.212 349.85 350.592 351.442 352.045 352.43 352.737 352.987 353.16 353.402 353.535 353.66 353.815 354.112 354.357 354.532 354.777 354.945 355.12 355.212 355.397 355.487 355.585 355.72 355.765 355.92
389.232 389.335 389.312 388.97 388.837 388.665 388.572 388.605 388.68 388.81 388.805 388.825 389.052 389.135 389.087 389 388.832 388.74 388.665 388.705 388.832 388.797 388.797 389.13 389.545 389.907 390.105 390.207 390.325 390.437 390.447 390.525 390.665 390.757 390.827 390.957 391.075 391.202 391.265 391.237 391.337 391.405 391.415 391.345 391.417 391.507 391.542 391.605 391.722 391.745 391.787 391.895 391.977 391.947 391.97 391.935 391.877 391.925 392.087 392.085 392 391.992 391.937 391.877 391.625 391.5 391.542 391.535 391.552 391.44 391.47 391.45 391.44 391.38 391.402 391.31 391.115 390.877 390.845 390.937 390.92 390.922 390.905 390.95 391.19 391.262 391.237 391.177 391.035 390.81 390.56 390.46 390.225 389.83 389.385 389.005 388.745 388.562 388.712 388.955 389.372 389.65 389.78 389.805 389.802 389.785 389.8 389.767 389.602 389.395 389.162 389.052 389.102 389.175 389.122 388.857 388.88 388.792 388.55 388.097 387.85 387.64 387.405 387.177 386.992 386.832 386.642 386.315 386.125 386.122 386.28 386.512 386.892 387.197 387.367 387.432 387.425 387.395 387.262 387.117 387.082 387.005 386.902 386.815 387.135 386.57 386.547 386.487 386.487 386.467 386.455 386.502 386.552 386.642 386.675 386.815 386.972 387.107 387.175 387.217 387.277 387.315 387.307 387.27 387.22 387.15 387.035 386.945 386.867 386.745 386.605 386.43 386.282 386.162 386.007 385.725 385.402 385.082 384.865 384.612 384.277 383.902 383.562 383.265 382.942 382.75 382.49 382.282 382.097 381.867 381.667 381.357 381.027 380.77 380.587 380.357 380.045 379.77 379.547 379.367 379.387 379.247 379.225 379.182 379.152 379.127 379.102 378.957 378.897 378.837 378.845 378.712 378.315 378.13 378.055 377.995 377.96 378.165 378.17 378.137 378.08 377.937 377.867 377.712 377.597 377.522 377.445 377.352 377.262 377.127 377.04 376.975 376.875 376.742 376.612 376.465 376.352 376.207 376.09 375.997 375.822 375.705 375.537 375.425 375.292 375.127 375.005 374.82 374.675 374.492 374.407 374.292 374.152 374.012 373.892 373.762 373.617 373.36 372.95 372.575 372.39 372.23 371.985 371.812 371.497 371.17 370.89 370.642 370.247 369.897 369.627 369.207 368.732 368.655 368.692 368.767 368.795 368.697 368.57 368.432 368.237 368.02 367.66 367.375 366.972 366.627 366.212 366.295 365.942 365.41 364.637 364.137 363.665 363.152 362.645 362.095 361.577 361.19 360.83 360.11 359.647 359.435 359.267 359.11 359.04 358.892 358.775 358.632 358.522 358.407 357.975 357.605 357.187 356.837 356.42 356.062 355.705 355.387 355.092 354.842 354.642 354.512 354.34 354.18 354.022 353.817 353.635 353.505 353.352 353.04 352.662 351.86 350.965 350.155 349.46 348.902 348.22 347.417 346.622 346.31 345.742 345.167 344.77 344.727 344.815 344.99 345.18 345.635 346.122 346.41 346.63 346.917 347.347 347.84 348.137 348.425 348.69 349.102 349.562 349.967 350.522 351.175 351.977 352.535 352.907 353.22 353.49 353.725 353.955 354.137 354.277 354.475 354.737 355.005 355.132 355.355 355.547 355.7 355.81 355.97 356.095 356.23 356.365 356.44 356.52
389.417 389.5 389.51 389.292 389.112 389.027 388.777 388.992 389.08 389.112 389.16 389.102 389.412 389.575 389.487 389.357 389.32 389.212 389.022 388.992 389.15 389.125 389.11 389.302 389.85 390.202 390.367 390.432 390.555 390.692 390.732 390.83 390.97 391.05 391.125 391.265 391.382 391.412 391.46 391.41 391.482 391.552 391.612 391.64 391.657 391.742 391.755 391.817 391.962 391.977 392.037 392.142 392.237 392.265 392.23 392.187 392.182 392.21 392.232 392.242 392.16 392.172 392.117 391.985 391.827 391.757 391.787 391.782 391.725 391.642 391.635 391.665 391.69 391.652 391.652 391.527 391.33 391.165 391.115 391.247 391.165 391.19 391.282 391.492 391.615 391.62 391.625 391.54 391.42 391.192 391.015 390.837 390.497 390.072 389.617 389.197 389.002 389.017 389.267 389.472 389.837 390.13 390.192 390.107 390.03 390.04 390.092 390.015 389.892 389.62 389.447 389.322 389.302 389.26 389.22 389.125 389.172 388.975 388.852 388.43 388.077 387.805 387.517 387.34 387.182 386.89 386.657 386.415 386.277 386.34 386.542 386.67 387.007 387.36 387.537 387.537 387.45 387.43 387.395 387.307 387.255 387.202 387.142 387.432 387.132 386.737 386.567 386.657 386.762 386.725 386.727 386.767 386.92 386.952 386.97 387.212 387.142 387.23 387.292 387.307 387.372 387.405 387.46 387.44 387.397 387.327 387.262 387.16 387.092 387.015 386.915 386.812 386.6 386.427 386.3 386.11 385.775 385.445 385.165 384.927 384.647 384.302 384.01 383.725 383.452 383.21 382.937 382.75 382.527 382.307 381.972 381.532 381.195 380.962 380.737 380.417 380.15 379.847 379.66 379.622 379.59 379.517 379.457 379.417 379.405 379.417 379.415 379.385 379.215 379.172 379.197 379.06 378.69 378.365 378.275 378.26 378.3 378.38 378.425 378.42 378.452 378.272 378.115 377.98 377.832 377.685 377.602 377.492 377.435 377.31 377.23 377.157 377.065 376.98 376.775 376.67 376.525 376.442 376.455 376.285 376.052 375.91 375.83 375.69 375.622 375.407 375.235 375.102 374.992 374.825 374.687 374.585 374.442 374.35 374.22 374.072 373.88 373.622 373.285 372.925 372.652 372.422 372.245 371.982 371.725 371.407 371.21 370.825 370.297 370.057 369.777 369.24 368.81 368.757 368.97 368.992 369.077 368.942 368.77 368.567 368.382 368.172 367.94 367.565 367.24 366.905 366.457 366.375 366.185 365.482 364.977 364.345 363.927 363.485 362.92 362.372 361.857 361.482 360.93 360.385 359.885 359.617 359.492 359.352 359.25 359.125 358.995 358.892 358.747 358.49 358.217 357.89 357.542 357.087 356.675 356.31 355.97 355.65 355.45 355.105 354.94 354.76 354.592 354.435 354.29 354.095 353.947 353.857 353.625 353.19 352.567 351.732 350.89 350.077 349.482 348.872 348.095 347.325 346.81 346.29 345.665 345.337 345.31 345.575 345.785 345.885 346.03 346.45 346.92 347.247 347.472 347.8 348.28 348.73 349.085 349.35 349.595 349.877 350.322 350.652 351.137 351.75 352.495 353.08 353.497 353.79 354.257 354.342 354.542 354.907 354.945 355.132 355.247 355.51 355.735 355.957 356.135 356.302 356.422 356.597 356.745 356.98 357.002 357.097 357.172
389.445 389.6 389.607 389.522 389.392 389.387 389.232 389.242 389.37 389.432 389.44 389.405 389.577 389.865 389.817 389.76 389.71 389.625 389.46 389.45 389.545 389.552 389.542 389.55 389.782 390.332 390.547 390.662 390.785 390.947 391.025 391.137 391.29 391.327 391.347 391.457 391.68 391.702 391.62 391.597 391.652 391.732 391.827 391.882 391.862 391.915 391.925 391.962 392.05 392.155 392.252 392.407 392.472 392.487 392.485 392.445 392.375 392.382 392.437 392.442 392.37 392.36 392.32 392.185 392.027 391.965 391.985 391.94 391.922 391.925 391.925 391.95 391.917 391.852 391.837 391.725 391.595 391.485 391.44 391.49 391.49 391.507 391.617 391.795 391.872 391.972 391.897 391.81 391.697 391.507 391.33 391.117 390.807 390.367 389.84 389.345 389.24 389.502 389.787 390.03 390.202 390.46 390.63 390.4 390.245 390.287 390.262 390.2 390.062 389.845 389.66 389.55 389.53 389.392 389.397 389.34 389.25 389.152 388.997 388.732 388.275 388.082 387.967 387.645 387.372 387.13 386.802 386.547 386.362 386.42 386.355 386.575 387.01 387.387 387.595 387.685 387.657 387.557 387.545 387.44 387.34 387.302 387.36 387.765 387.157 387.055 387.01 386.982 386.98 386.92 386.937 387.052 387.195 387.17 387.24 387.397 387.277 387.31 387.372 387.427 387.447 387.47 387.517 387.562 387.515 387.47 387.402 387.29 387.2 387.157 387.087 386.975 386.815 386.635 386.477 386.342 386.045 385.777 385.432 385.115 384.822 384.487 384.242 383.995 383.675 383.482 383.282 383.025 382.81 382.475 382 381.655 381.392 381.182 380.797 380.477 380.275 380.075 379.96 380.017 379.955 379.822 379.737 379.705 379.665 379.677 379.672 379.617 379.557 379.427 379.447 379.34 379.14 378.685 378.6 378.622 378.72 378.81 378.767 378.705 378.675 378.53 378.362 378.192 378.042 377.91 377.817 377.687 377.597 377.49 377.415 377.357 377.227 377.135 376.907 376.825 376.73 376.63 376.535 376.445 376.397 376.19 376.12 376.01 375.79 375.635 375.517 375.345 375.237 375.15 375.025 374.915 374.79 374.647 374.47 374.32 374.105 373.887 373.6 373.297 372.99 372.625 372.362 372.137 371.877 371.477 371.107 370.7 370.422 370.122 369.802 369.392 368.84 368.932 369.147 369.372 369.33 369.157 368.965 368.725 368.567 368.407 368.157 367.91 367.57 367.167 366.747 366.63 366.177 365.577 365.097 364.552 364.257 363.772 363.252 362.647 362.172 361.56 360.982 360.642 360.127 359.79 359.657 359.525 359.467 359.367 359.29 359.202 359.082 358.757 358.485 358.182 357.755 357.32 356.977 356.58 356.252 355.947 355.715 355.412 355.23 355.052 354.845 354.695 354.612 354.48 354.335 354.127 353.812 353.222 352.49 351.667 350.797 350.067 349.492 348.757 347.957 347.427 346.94 346.205 345.82 345.815 346.222 346.547 346.847 346.887 346.982 347.34 347.697 347.932 348.2 348.66 349.122 349.585 350.032 350.315 350.527 350.745 350.965 351.247 351.772 352.472 353.175 353.755 354.135 354.52 354.822 354.937 355.097 355.365 355.51 355.655 355.845 356.092 356.367 356.61 356.775 356.905 357.025 357.282 357.445 357.54 357.702 357.807 357.842
389.68 389.787 389.857 389.772 389.672 389.612 389.692 389.785 389.84 389.74 389.685 389.637 389.955 390.225 390.16 390.165 390.125 390.015 389.917 390.015 390.017 390.042 390.057 390.017 390.035 390.19 390.64 391.032 390.99 391.1 391.23 391.36 391.502 391.632 391.605 391.652 391.735 391.697 391.75 391.797 391.835 391.92 391.932 392.002 392.005 392.057 392.052 392.095 392.192 392.275 392.397 392.532 392.625 392.665 392.64 392.65 392.665 392.632 392.622 392.59 392.557 392.572 392.45 392.352 392.157 392.152 392.13 392.19 392.192 392.225 392.225 392.187 392.112 392.08 392.03 391.935 391.86 391.775 391.69 391.787 391.817 391.747 391.875 392.035 392.137 392.172 392.127 392.12 391.985 391.775 391.61 391.395 390.99 390.51 390.005 389.6 389.542 389.827 390.277 390.602 390.642 390.775 390.867 390.8 390.672 390.687 390.582 390.455 390.287 390.135 389.96 389.757 389.615 389.437 389.565 389.622 389.407 389.332 389.215 388.965 388.587 388.397 388.132 387.892 387.78 387.767 387.135 386.71 386.565 386.715 386.612 386.872 387.182 387.432 387.625 387.837 387.882 387.767 387.635 387.61 387.5 387.417 387.455 387.48 387.342 387.302 387.27 387.215 387.192 387.077 387.112 387.212 387.26 387.382 387.28 387.247 387.327 387.38 387.442 387.402 387.457 387.492 387.54 387.582 387.615 387.575 387.475 387.387 387.305 387.23 387.225 387.14 386.985 386.82 386.65 386.46 386.247 385.95 385.62 385.32 384.975 384.625 384.375 384.137 383.855 383.662 383.435 383.145 382.855 382.402 382.077 381.825 381.572 381.29 380.95 380.685 380.425 380.38 380.372 380.275 380.277 380.187 380.08 379.985 379.93 379.832 379.8 379.775 379.72 379.667 379.692 379.44 379.24 379.02 378.837 378.912 379.077 379.137 379.08 379.027 378.927 378.765 378.605 378.477 378.267 378.12 378.035 377.972 377.81 377.695 377.642 377.515 377.407 377.225 377.117 377.04 376.927 376.827 376.755 376.722 376.802 376.457 376.31 376.202 376.035 375.815 375.707 375.575 375.477 375.425 375.34 375.2 375.057 374.9 374.725 374.532 374.37 374.19 373.922 373.645 373.287 372.927 372.417 371.972 371.605 371.225 370.945 370.75 370.495 370.21 369.877 369.437 369.227 369.287 369.655 369.697 369.582 369.432 369.145 368.93 368.727 368.52 368.29 368.087 367.785 367.432 367.072 366.89 366.252 365.767 365.302 364.897 364.402 364.047 363.607 363.025 362.387 361.632 361.09 360.737 360.305 360.067 359.972 359.807 359.787 359.695 359.715 359.7 359.362 359.195 358.895 358.55 358.052 357.542 357.21 356.86 356.52 356.292 356.01 355.722 355.512 355.332 355.172 355.05 355.007 354.817 354.597 354.347 353.925 353.325 352.467 351.625 350.797 350.06 349.427 348.645 348.017 347.535 346.96 346.517 346.45 346.577 347.112 347.452 347.692 347.86 347.915 348.145 348.44 348.662 348.985 349.467 349.905 350.385 350.897 351.212 351.36 351.537 351.692 352.09 352.365 353.015 353.772 354.345 354.762 355.15 355.372 355.555 355.765 355.912 356.102 356.352 356.537 356.672 356.945 357.15 357.352 357.457 357.59 357.742 357.895 358.117 358.347 358.41 358.427
