ncols 410
nrows 30
xllcorner    386084
yllcorner    478642
cellsize     2
NODATA_value -9999
522.925 523.13 523.505 523.67 523.985 524.36 524.577 524.697 524.775 524.832 524.847 524.83 524.825 524.365 524.842 525.342 525.362 525.34 525.45 525.56 525.595 525.515 525.52 525.565 525.565 525.59 525.63 525.672 525.647 525.562 525.557 525.672 525.95 526.112 526.057 526.257 526.287 526.372 526.465 526.315 526.127 526.065 525.992 525.855 525.53 525.297 525.197 525.2 525.037 524.945 525.005 524.99 525.1 525.062 524.962 524.855 524.707 524.7 524.997 525.107 525.117 525.162 525.202 525.22 525.087 524.945 524.842 524.875 525.057 525.002 525.022 524.99 525.012 525.035 525.152 525.132 525.25 525.31 525.377 525.612 525.865 526.635 526.025 526.145 526.212 526.247 526.32 526.445 526.512 526.65 526.775 526.91 527.105 527.422 527.737 527.9 527.975 527.985 527.937 528.015 528.092 528.212 528.25 528.29 528.225 528.177 528.127 528.01 527.945 527.935 527.957 528.092 528.4 528.782 529.075 529.367 529.767 529.937 529.972 530.06 530.222 530.362 530.537 530.72 530.905 531.017 531.032 531.05 531.212 531.14 531.09 531 531.137 531.36 531.702 532.052 532.097 532.227 532.442 532.505 532.627 532.597 532.572 532.697 532.957 533.142 533.187 533.312 533.43 533.507 533.542 533.577 533.642 533.652 533.7 533.775 533.852 533.987 534.085 533.972 534.097 534.185 534.197 534.12 534.245 534.342 534.35 534.377 534.35 534.397 534.442 534.302 533.922 533.842 533.69 533.56 533.49 533.51 533.535 533.802 534.24 534.552 535.155 535.27 535.32 535.31 535.282 535.175 534.817 534.395 534.05 534.065 534.11 534.112 534.427 534.612 534.915 535.06 535.137 535.355 535.462 535.397 535.235 535.292 535.58 535.78 535.747 535.795 535.78 535.995 535.9 535.822 535.88 536.082 536.207 536.257 536.26 536.34 536.345 536.445 536.44 536.48 536.522 536.582 536.637 536.67 536.722 536.762 536.827 536.887 536.97 537.037 537.122 537.167 537.21 537.242 537.275 537.297 537.342 537.405 537.452 537.487 537.51 537.58 537.61 537.677 537.737 537.772 537.845 537.887 537.997 538.075 538.142 538.26 538.332 538.41 538.462 538.565 538.629 538.709 538.802 538.874 538.912 538.984 539.087 539.154 539.227 539.324 539.452 539.562 539.679 539.847 540.147 540.429 540.639 540.759 540.944 541.014 541.132 541.254 541.522 541.914 542.209 542.529 542.712 542.924 543.069 543.279 543.474 543.717 543.847 544.049 544.219 544.317 544.427 544.547 544.577 544.647 544.844 545.054 545.167 545.282 545.384 545.562 545.659 545.762 545.844 545.937 545.877 545.987 545.934 545.982 545.937 545.902 546.077 546.192 546.284 546.329 546.272 546.232 546.317 546.387 546.422 546.477 546.647 546.639 546.797 546.932 546.977 547.114 547.272 547.184 547.264 547.367 547.339 547.422 547.452 547.674 547.699 547.769 547.829 547.904 548.014 548.189 548.214 548.229 548.314 548.392 548.437 548.569 548.847 548.809 548.802 549.009 549.272 549.154 549.052 549.512 549.842 549.917 550.112 550.127 550.047 550.167 550.419 550.482 550.577 550.627 550.759 550.879 550.987 551.159 551.287 551.399 551.477 551.599 551.719 551.817 552.014 552.192 552.354 552.437 552.542 552.727 552.909 553.059 553.172 553.239 553.302 553.352 553.592 553.779 553.919 553.974 553.949 553.964 554.094 554.474 554.522 554.469 554.307 554.257 554.344 554.459 554.602 554.664 554.809 555.189 555.387 555.399
522.192 522.417 522.9 523.307 523.65 523.957 524.252 524.432 524.537 524.645 524.557 524.527 524.42 524.245 524.447 524.665 524.675 524.892 525.192 525.26 525.247 525.202 525.165 525.197 525.265 525.252 525.34 525.34 525.462 525.427 525.34 525.452 525.657 525.807 525.775 525.867 525.97 526.127 526.315 526.132 525.887 525.695 525.512 525.342 525 524.842 524.847 524.965 524.83 524.72 524.76 524.635 524.62 524.61 524.615 524.545 524.52 524.285 524.525 524.61 524.62 524.667 524.69 524.672 524.56 524.54 524.577 524.68 524.707 524.602 524.845 524.74 524.762 524.822 524.785 524.802 524.932 525.052 525.127 525.387 525.625 526.537 525.93 525.97 526.032 526.125 526.145 526.21 526.305 526.42 526.622 526.765 526.9 527.152 527.377 527.61 527.65 527.742 527.77 527.86 527.857 527.925 527.915 527.85 527.697 527.582 527.405 527.255 527.25 527.237 527.267 527.367 527.655 527.987 528.387 528.755 529.172 529.412 529.52 529.457 529.577 530.03 530.29 530.51 530.642 530.715 530.817 530.88 530.86 531.065 530.932 530.812 530.882 531.172 531.465 531.765 531.89 532.022 531.967 532.072 532.162 532.147 532.145 532.46 532.645 532.877 532.987 533.15 533.247 533.335 533.372 533.4 533.515 533.59 533.692 533.73 533.78 533.84 533.907 533.885 533.905 533.96 534.012 533.912 534.085 534.24 534.275 534.37 534.335 534.32 534.322 534.17 533.807 533.577 533.472 533.397 533.425 533.432 533.46 533.605 534.057 534.46 534.735 535.115 535.207 535.262 535.127 534.947 534.567 534.325 534.06 534 533.985 534.047 534.257 534.485 534.787 535.15 535.24 535.112 535.127 535.012 534.905 535.04 535.48 535.78 535.687 535.575 535.602 535.587 535.67 535.812 535.942 536.03 536.107 536.097 536.05 536.182 536.197 536.305 536.42 536.557 536.575 536.637 536.637 536.647 536.66 536.652 536.655 536.695 536.797 536.885 537.05 537.125 537.147 537.177 537.21 537.265 537.295 537.327 537.387 537.435 537.477 537.502 537.49 537.595 537.66 537.71 537.775 537.83 537.905 537.987 538.08 538.16 538.242 538.282 538.367 538.465 538.549 538.62 538.665 538.757 538.895 538.952 539.037 539.14 539.162 539.275 539.407 539.48 539.7 539.827 539.985 540.25 540.497 540.71 540.922 541.09 541.335 541.42 541.522 541.68 541.907 541.992 542.337 542.637 542.997 543.227 543.48 543.655 543.8 543.95 544.115 544.245 544.282 544.395 544.512 544.71 544.924 545.037 545.169 545.267 545.347 545.405 545.485 545.642 545.74 545.845 545.862 545.952 545.934 545.947 545.987 545.972 546.132 546.222 546.099 546.094 546.194 546.277 546.282 546.334 546.469 546.592 546.689 546.722 546.794 546.937 546.979 547.037 547.124 547.127 547.259 547.249 547.274 547.277 547.332 547.417 547.479 547.542 547.642 547.767 547.879 547.944 548.052 548.144 548.307 548.329 548.294 548.449 548.589 548.692 548.682 548.742 548.587 548.494 548.622 549.252 549.622 549.809 549.884 549.882 549.769 549.832 550.282 550.337 550.359 550.409 550.474 550.612 550.727 550.902 551.049 551.134 551.289 551.419 551.562 551.704 551.884 552.064 552.202 552.287 552.424 552.577 552.769 552.957 553.082 553.114 553.157 553.162 553.354 553.644 553.754 553.882 553.989 553.972 553.887 554.172 554.347 554.234 554.057 554.087 554.174 554.389 554.514 554.559 554.617 554.837 555.157 555.234
521.76 521.952 522.485 523 523.26 523.555 523.852 523.992 524.035 524.145 524.2 524.117 524.04 523.827 523.902 524.015 524.142 524.53 524.84 524.947 524.985 524.937 524.857 524.815 524.837 524.842 524.86 524.972 525.14 525.187 525.152 525.212 525.422 525.457 525.602 525.51 525.637 525.835 525.965 525.915 525.79 525.567 525.322 525.117 524.742 524.582 524.565 524.632 524.625 524.492 524.452 524.315 524.312 524.332 524.247 524.16 524.19 524.16 524.055 524.215 524.192 524.132 524.13 524.137 524.092 524.265 524.022 524.36 524.365 524.207 524.652 524.452 524.502 524.555 524.615 524.617 524.655 524.902 524.992 525.195 525.4 525.987 525.72 525.76 525.835 525.92 526.002 526.05 526.122 526.23 526.387 526.625 526.882 527.105 527.292 527.237 527.26 527.445 527.58 527.59 527.612 527.647 527.577 527.457 527.262 527.05 526.855 526.787 526.812 526.85 526.915 526.96 527.082 527.392 527.775 528.067 528.365 528.755 528.875 528.927 529.127 529.655 529.907 530.127 530.285 530.49 530.535 530.537 530.627 530.762 530.91 530.772 530.752 530.88 531.137 531.392 531.502 531.66 531.66 531.737 531.78 531.837 531.992 532.26 532.42 532.58 532.78 532.897 532.94 532.925 532.952 533.05 533.357 533.517 533.612 533.685 533.712 533.76 533.775 533.74 533.73 533.767 533.76 533.847 533.972 534.115 534.155 534.217 534.24 534.272 534.247 534.112 533.735 533.43 533.345 533.357 533.365 533.36 533.43 533.455 533.752 534.087 534.445 534.702 534.887 534.892 534.797 534.572 534.302 534.14 533.942 533.967 533.935 534.062 534.452 534.902 535.14 535.31 535.275 535.162 535.12 534.842 534.692 534.885 535.24 535.34 535.347 535.46 535.51 535.665 535.657 535.702 535.825 535.852 535.86 535.692 535.662 535.742 535.825 536.105 536.275 536.392 536.465 536.592 536.585 536.607 536.617 536.647 536.672 536.69 536.742 536.722 536.795 536.91 536.882 537.02 537.042 537.102 537.177 537.197 537.337 537.337 537.42 537.455 537.457 537.522 537.575 537.65 537.695 537.75 537.847 537.962 538.02 538.072 538.142 538.18 538.232 538.315 538.427 538.485 538.587 538.727 538.827 538.907 538.982 539.075 539.125 539.155 539.317 539.477 539.617 539.835 540.015 540.13 540.352 540.567 540.802 541 541.177 541.312 541.475 541.722 541.877 542.112 542.312 542.475 542.625 542.897 543.067 543.445 543.637 543.842 543.982 544.122 544.215 544.337 544.447 544.592 544.797 544.897 545.03 545.177 545.312 545.345 545.45 545.517 545.61 545.705 545.737 545.852 545.894 545.947 545.897 545.957 546.144 546.259 546.352 546.339 546.129 546.139 546.177 546.272 546.499 546.692 546.787 546.719 546.702 546.779 546.764 546.962 547.004 547.009 547.072 547.134 547.137 547.129 547.167 547.214 547.274 547.372 547.512 547.662 547.662 547.784 547.914 547.989 548.082 548.122 548.137 548.244 548.404 548.427 548.414 548.307 548.049 548.082 548.829 549.324 549.522 549.639 549.619 549.572 549.689 549.954 550.142 550.189 550.167 550.134 550.367 550.439 550.507 550.632 550.822 550.999 551.157 551.239 551.322 551.454 551.594 551.832 551.947 552.097 552.219 552.464 552.607 552.717 552.832 552.837 552.914 553.042 553.217 553.492 553.692 553.789 553.819 553.739 553.727 553.847 553.954 553.967 553.917 553.964 554.217 554.339 554.377 554.484 554.542 554.694 554.989 555.197
521.342 521.612 522.025 522.425 522.787 523.112 523.377 523.507 523.53 523.64 523.712 523.702 523.732 523.562 523.452 523.377 523.61 524.137 524.505 524.61 524.58 524.505 524.55 524.507 524.462 524.5 524.59 524.747 524.812 524.897 524.94 524.982 525.082 525.16 525.187 525.33 525.362 525.487 525.695 525.61 525.515 525.385 525.22 524.95 524.515 524.377 524.292 524.352 524.307 524.277 524.25 524.077 524.017 523.96 523.867 523.807 523.835 523.85 523.497 523.652 523.787 523.832 523.86 523.815 523.822 523.945 523.83 524.045 524.065 523.977 524.295 524.295 524.3 524.157 524.317 524.38 524.337 524.45 524.735 524.875 525.017 525.64 525.53 525.532 525.645 525.767 525.797 525.9 525.972 526.065 526.192 526.427 526.812 527.037 527.035 526.997 527.125 527.202 527.27 527.375 527.32 527.342 527.242 527.117 526.925 526.632 526.57 526.69 526.6 526.562 526.617 526.68 526.81 527.025 527.287 527.545 527.782 528.102 528.395 528.567 528.847 529.322 529.532 529.665 529.937 530.187 530.27 530.252 530.32 530.46 530.567 530.577 530.545 530.56 530.677 530.995 531.2 531.29 531.332 531.337 531.432 531.607 531.79 531.997 532.142 532.31 532.517 532.685 532.517 532.35 532.387 532.502 532.952 533.32 533.47 533.572 533.68 533.655 533.65 533.625 533.605 533.617 533.61 533.685 533.787 533.927 533.97 534.025 534.085 534.102 534.125 534.055 533.667 533.347 533.275 533.302 533.3 533.31 533.322 533.327 533.485 533.717 533.98 534.207 534.287 534.345 534.34 534.155 534.025 533.972 533.807 533.825 533.897 534.112 534.662 535.015 535.045 535.082 535.025 534.932 534.842 534.62 534.507 534.68 534.927 535.165 535.42 535.567 535.565 535.527 535.322 535.36 535.612 535.617 535.64 535.675 535.542 535.387 535.562 535.957 536.145 536.23 536.28 536.41 536.487 536.547 536.57 536.595 536.617 536.625 536.645 536.655 536.717 536.85 536.887 536.93 536.935 536.937 537.022 536.992 537.072 537.177 537.277 537.33 537.415 537.462 537.535 537.58 537.637 537.702 537.78 537.855 537.932 537.952 538.037 538.115 538.172 538.225 538.355 538.432 538.512 538.612 538.717 538.775 538.86 538.935 539.005 539.072 539.222 539.362 539.507 539.69 539.82 540.005 540.187 540.395 540.625 540.815 540.982 541.195 541.485 541.687 541.887 542.12 542.287 542.515 542.72 542.987 543.157 543.257 543.357 543.582 543.69 543.89 544.047 544.205 544.402 544.51 544.72 544.852 544.932 545.122 545.197 545.227 545.387 545.495 545.547 545.555 545.552 545.704 545.834 545.849 545.867 545.932 546.162 546.259 546.294 546.147 546.009 546.039 546.252 546.334 546.387 546.487 546.524 546.589 546.667 546.699 546.697 546.737 546.824 546.849 546.859 546.927 547.019 546.997 547.084 547.139 547.179 547.177 547.212 547.424 547.557 547.667 547.792 547.834 547.867 547.887 547.974 548.159 548.334 548.207 548.084 547.882 547.794 547.969 548.562 549.227 549.332 549.399 549.439 549.557 549.737 549.787 549.919 549.992 550.037 549.994 550.019 550.214 550.277 550.404 550.669 550.769 550.864 550.917 551.024 551.202 551.262 551.522 551.654 551.879 552.074 552.282 552.422 552.507 552.592 552.659 552.727 552.927 553.102 553.359 553.514 553.559 553.584 553.592 553.662 553.622 553.732 553.869 553.854 553.824 553.949 554.109 554.212 554.339 554.434 554.512 554.684 554.824
521.072 521.27 521.537 521.9 522.275 522.585 522.83 522.947 523.005 523.12 523.132 523.162 523.222 523.217 523.04 523 523.235 523.82 524.137 524.255 524.227 524.202 524.272 524.232 524.297 524.267 524.347 524.4 524.552 524.702 524.732 524.775 524.797 524.882 524.955 525.055 525.212 525.225 525.34 525.285 525.225 525.255 525.09 524.857 524.47 524.225 524.14 524.107 524.097 524.085 524.06 523.782 523.66 523.535 523.48 523.477 523.427 523.422 523.382 523.37 523.475 523.51 523.522 523.507 523.59 523.725 523.697 523.752 523.752 523.797 523.82 524.015 523.95 523.802 523.927 524.062 524.162 524.315 524.382 524.452 524.78 525.642 525.377 525.372 525.41 525.52 525.56 525.652 525.802 525.89 525.98 526.09 526.437 526.682 526.882 527.005 526.87 526.88 526.877 526.85 526.9 526.802 526.75 526.627 526.36 526.132 526.315 526.322 526.3 526.312 526.315 526.415 526.59 526.77 526.892 527.115 527.457 527.685 528 528.17 528.462 528.895 529.22 529.33 529.577 529.845 529.955 529.967 530.025 530.115 530.202 530.18 530.142 530.272 530.33 530.515 530.852 530.897 530.912 531.037 531.077 531.205 531.362 531.532 531.715 531.937 532.147 532.302 532.237 532.165 532.162 532.227 532.34 532.595 532.79 533.127 533.335 533.322 533.355 533.41 533.5 533.495 533.475 533.527 533.582 533.652 533.73 533.865 533.947 534.002 533.952 533.895 533.707 533.4 533.25 533.24 533.252 533.252 533.262 533.262 533.312 533.405 533.54 533.677 533.765 533.785 533.835 533.73 533.637 533.712 533.68 533.685 533.787 534.045 534.432 534.74 534.822 534.905 534.642 534.535 534.437 534.357 534.337 534.45 534.735 535.072 535.462 535.562 535.7 535.48 535.04 535.035 535.507 535.53 535.575 535.577 535.31 535.145 535.565 536.012 536.035 536.097 536.145 536.237 536.35 536.465 536.507 536.522 536.557 536.555 536.555 536.597 536.62 536.705 536.752 536.79 536.817 536.877 536.97 537.035 537.127 537.12 537.155 537.182 537.192 537.272 537.385 537.477 537.537 537.615 537.672 537.775 537.832 537.855 537.887 537.995 538.095 538.137 538.242 538.317 538.41 538.475 538.585 538.657 538.75 538.892 538.937 539.03 539.112 539.257 539.41 539.617 539.657 539.837 540.105 540.33 540.402 540.542 540.799 541.017 541.317 541.575 541.835 542.04 542.272 542.415 542.549 542.692 542.877 543.162 543.407 543.53 543.695 543.895 543.942 543.95 544.14 544.317 544.585 544.777 544.91 545.045 545.082 545.095 545.23 545.342 545.432 545.492 545.552 545.677 545.772 545.794 545.894 545.934 545.974 546.097 546.059 545.877 545.867 545.844 545.932 546.104 546.337 546.557 546.592 546.492 546.497 546.467 546.514 546.527 546.609 546.709 546.774 546.857 546.949 546.894 547.012 547.082 547.054 547.104 547.077 547.197 547.357 547.442 547.657 547.689 547.702 547.757 547.589 547.932 548.089 547.882 547.572 547.554 547.577 547.724 548.344 548.977 549.117 549.222 549.307 549.354 549.487 549.584 549.677 549.754 549.817 549.954 549.827 549.904 549.984 550.147 550.437 550.522 550.592 550.747 550.797 551.034 551.057 551.319 551.407 551.607 551.899 552.064 552.174 552.284 552.322 552.434 552.597 552.854 553.047 553.214 553.312 553.312 553.389 553.467 553.672 553.704 553.594 553.687 553.779 553.814 553.669 553.769 554.034 554.139 554.439 554.432 554.449 554.584
520.865 520.882 520.975 521.392 521.77 522.062 522.285 522.515 522.645 522.707 522.685 522.75 522.815 522.747 522.525 522.577 522.932 523.537 523.737 523.847 523.955 523.877 523.832 523.902 523.947 523.962 523.892 524.047 524.212 524.372 524.497 524.605 524.682 524.752 524.845 524.867 524.99 524.9 524.752 524.882 524.865 524.967 524.9 524.757 524.377 524.08 524.002 524.002 524.02 523.962 523.785 523.555 523.422 523.297 523.19 523.225 523.135 523.08 522.942 522.607 522.952 523.185 523.31 523.332 523.37 523.452 523.495 523.497 523.447 523.477 523.652 523.657 523.675 523.655 523.782 523.837 523.902 523.96 524.04 524.157 524.757 525.412 525.09 525.132 525.177 525.24 525.337 525.427 525.53 525.682 525.735 525.862 526.165 526.567 526.837 526.805 526.645 526.627 526.547 526.417 526.385 526.372 526.287 525.975 525.84 525.845 525.917 525.955 525.99 526.03 526.142 526.262 526.342 526.482 526.65 526.825 527.16 527.457 527.615 527.81 528.012 528.355 528.802 529.087 529.232 529.542 529.715 529.69 529.68 529.692 529.707 529.717 529.685 529.75 529.847 530.015 530.412 530.565 530.475 530.585 530.61 530.702 530.915 531.042 531.175 531.375 531.612 531.882 531.937 531.927 531.71 531.715 532.1 532.247 532.172 532.402 532.817 532.935 532.965 533.087 533.13 533.102 533.245 533.455 533.412 533.462 533.475 533.615 533.75 533.837 533.89 533.865 533.647 533.435 533.225 533.182 533.172 533.18 533.17 533.167 533.185 533.212 533.237 533.3 533.365 533.377 533.397 533.325 533.4 533.52 533.692 533.705 533.69 533.837 534.102 534.31 534.36 534.442 534.415 534.307 534.145 534.127 534.125 534.255 534.6 535.06 535.605 535.667 535.77 535.415 534.93 534.897 535.332 535.397 535.442 535.462 535.15 535.23 535.8 535.92 535.88 535.675 535.712 535.83 536.102 536.302 536.372 536.437 536.497 536.52 536.545 536.55 536.607 536.655 536.69 536.702 536.777 536.765 536.817 536.885 536.942 537.022 537.122 537.185 537.2 537.235 537.332 537.405 537.367 537.447 537.527 537.625 537.675 537.76 537.77 537.827 537.992 538.097 538.22 538.252 538.307 538.42 538.487 538.592 538.69 538.79 538.815 538.885 538.922 539.067 539.225 539.39 539.547 539.677 539.837 540.032 540.215 540.505 540.637 541.007 541.212 541.465 541.669 541.875 542.045 542.192 542.267 542.415 542.685 543.017 543.255 543.377 543.545 543.652 543.717 543.912 544.182 544.34 544.555 544.635 544.732 544.83 544.95 545.055 545.167 545.294 545.332 545.395 545.299 545.524 545.629 545.654 545.739 545.732 545.732 545.789 545.727 545.674 545.844 545.882 545.707 545.822 546.137 546.344 546.472 546.487 546.437 546.462 546.522 546.502 546.477 546.437 546.452 546.554 546.719 546.799 546.874 546.932 546.982 546.942 546.964 547.062 547.122 547.154 547.359 547.464 547.509 547.467 547.287 547.544 547.794 547.717 547.337 547.274 547.409 547.689 548.412 548.759 548.872 548.944 548.957 549.009 549.207 549.252 549.377 549.522 549.589 549.637 549.257 549.542 549.639 549.854 550.047 550.182 550.359 550.494 550.494 550.707 550.837 551.082 551.209 551.454 551.664 551.789 551.962 552.067 552.112 552.207 552.367 552.554 552.834 553.019 553.164 553.087 553.267 553.467 553.609 553.592 553.467 553.432 553.382 553.444 553.469 553.502 553.879 554.339 554.389 554.477 554.309 554.374
520.467 520.587 520.752 521.16 521.515 521.69 521.925 522.1 522.245 522.312 522.397 522.427 522.285 522.242 522.215 522.315 522.8 523.247 523.38 523.507 523.512 523.56 523.502 523.42 523.52 523.502 523.527 523.597 523.662 523.837 524.23 524.325 524.322 524.41 524.572 524.642 524.727 524.625 524.547 524.45 524.53 524.587 524.662 524.6 524.297 523.965 523.835 523.785 523.785 523.68 523.487 523.32 523.21 522.992 522.892 522.867 522.852 522.747 522.545 522.487 522.602 522.872 522.98 523.2 523.235 523.207 523.265 523.267 523.21 523.147 523.267 523.287 523.437 523.505 523.565 523.697 523.712 523.697 523.785 523.912 524.787 524.842 524.825 524.935 525.045 525.07 525.102 525.307 525.317 525.45 525.5 525.532 525.655 526.035 526.395 526.372 526.24 526.22 526.235 526.042 525.977 525.94 525.782 525.557 525.585 525.58 525.617 525.71 525.77 525.847 525.9 525.967 526.07 526.155 526.36 526.495 526.777 527.13 527.297 527.48 527.61 527.832 528.392 528.735 528.945 529.172 529.33 529.37 529.357 529.305 529.347 529.362 529.357 529.417 529.372 529.537 529.902 529.947 529.972 530.045 530.137 530.252 530.417 530.467 530.607 530.852 531.072 531.295 531.532 531.582 531.395 531.242 531.617 531.972 532.05 532.007 532.202 532.572 532.645 532.587 532.612 532.732 532.94 533.192 533.237 533.27 533.297 533.42 533.562 533.742 533.787 533.782 533.66 533.372 533.215 533.115 533.1 533.125 533.082 533.08 533.085 533.072 533.105 533.225 533.187 533.21 533.23 533.22 533.3 533.41 533.547 533.642 533.632 533.632 533.865 534.09 534.165 534.08 534.26 534.17 534.187 534.15 534.122 534.127 534.45 534.925 535.437 535.682 535.7 535.467 534.927 534.64 534.977 535.32 535.302 535.23 534.93 535.225 535.547 535.51 535.262 535.125 535.165 535.59 536.002 536.195 536.277 536.315 536.405 536.462 536.482 536.532 536.58 536.59 536.62 536.675 536.72 536.757 536.737 536.77 536.792 536.885 536.955 537.02 537.037 537.11 537.19 537.302 537.365 537.402 537.487 537.617 537.57 537.587 537.68 537.725 537.835 537.977 538.095 538.192 538.257 538.347 538.4 538.507 538.58 538.7 538.732 538.807 538.877 538.9 538.99 539.15 539.342 539.547 539.715 539.945 540.195 540.392 540.567 540.827 541.07 541.292 541.49 541.715 541.947 541.985 542.132 542.33 542.62 542.852 543.017 543.132 543.23 543.467 543.74 544.022 544.212 544.305 544.545 544.71 544.812 544.792 544.737 544.827 544.98 545.127 545.267 545.18 545.192 545.427 545.589 545.534 545.639 545.652 545.569 545.557 545.579 545.607 545.897 545.914 545.627 545.739 546.217 546.249 546.214 546.299 546.367 546.289 546.347 546.389 546.402 546.272 546.417 546.617 546.614 546.622 546.712 546.749 546.857 546.847 546.889 546.939 546.957 547.039 547.102 547.242 547.252 547.187 547.022 547.292 547.547 547.279 547.104 547.222 547.514 548.082 548.409 548.502 548.689 548.739 548.807 548.822 548.939 548.952 549.104 549.317 549.307 549.407 549.324 549.399 549.509 549.684 549.914 550.049 550.134 550.232 550.294 550.492 550.629 550.794 551.037 551.254 551.477 551.667 551.759 551.884 551.952 551.994 552.122 552.402 552.649 552.774 552.834 552.834 552.949 553.309 553.364 553.259 553.167 553.132 553.087 553.247 553.389 553.502 553.894 554.262 554.179 554.229 554.172 554.227
520.042 520.277 520.462 520.667 520.78 521.152 521.402 521.562 521.747 521.877 521.962 521.9 521.77 521.885 521.935 522.112 522.502 522.82 522.895 522.982 523.05 523.092 523.095 522.967 522.995 523.045 523.06 523.01 522.995 523.402 523.882 524.03 523.832 523.95 524.167 524.397 524.41 524.32 524.21 524.237 524.262 524.367 524.405 524.375 524.155 523.805 523.627 523.58 523.495 523.522 523.32 523.05 522.915 522.732 522.65 522.65 522.592 522.347 522.182 522.157 522.027 522.495 522.617 522.71 522.822 522.755 522.86 522.69 522.757 522.71 522.865 523.057 523.247 523.355 523.377 523.502 523.51 523.45 523.522 523.687 524.365 524.507 524.6 524.657 524.85 524.912 524.97 525.112 525.135 525.107 525.187 525.127 525.28 525.465 525.64 525.78 525.737 525.74 525.795 525.677 525.665 525.545 525.152 525.252 525.347 525.387 525.4 525.465 525.467 525.54 525.555 525.647 525.802 525.83 525.97 526.17 526.405 526.72 526.93 527.167 527.375 527.637 527.847 528.17 528.66 528.817 528.847 528.9 528.922 528.952 528.94 528.837 528.822 528.99 528.967 529.085 529.267 529.33 529.487 529.61 529.63 529.75 529.887 529.95 530.052 530.292 530.485 530.707 531.047 531.405 531.457 531.262 531.347 531.647 531.67 531.802 531.805 531.965 531.93 532.002 532.117 532.327 532.625 532.89 533.022 533.062 533.165 533.257 533.357 533.555 533.645 533.59 533.572 533.372 533.187 533.03 532.995 532.995 532.985 532.957 532.92 532.95 532.952 532.995 533.095 533.155 533.132 533.142 533.195 533.297 533.515 533.557 533.582 533.73 533.89 534.08 534.165 533.997 534.235 534.147 534.145 534.112 534.022 534.035 534.227 534.66 535.04 535.34 535.412 535.372 534.86 534.56 534.807 535.327 535.25 535.042 534.78 534.807 534.877 535.052 535.13 535.247 535.587 535.895 536.04 536.13 536.235 536.287 536.32 536.375 536.43 536.485 536.545 536.54 536.572 536.64 536.677 536.682 536.672 536.737 536.705 536.74 536.82 536.827 536.865 536.962 537.05 537.127 537.22 537.287 537.367 537.412 537.517 537.592 537.687 537.655 537.677 537.75 537.855 537.905 538.02 538.162 538.25 538.31 538.417 538.575 538.75 538.69 538.762 538.815 538.895 538.955 539.172 539.347 539.48 539.782 540.077 540.28 540.407 540.677 540.91 541.127 541.34 541.562 541.674 541.82 542.02 542.292 542.58 542.722 542.837 542.997 543.127 543.382 543.717 543.977 544.142 544.255 544.41 544.522 544.622 544.79 544.76 544.85 544.982 545.077 545.045 545.052 545.087 545.267 545.479 545.509 545.572 545.507 545.459 545.437 545.539 545.559 545.792 545.859 545.604 545.787 545.982 546.152 546.074 546.157 546.227 546.137 546.114 546.239 546.319 546.269 546.327 546.447 546.409 546.434 546.552 546.622 546.694 546.717 546.737 546.862 546.872 546.897 546.857 546.932 547.064 546.882 546.937 547.164 547.312 547.037 546.979 547.229 547.812 548.084 548.109 548.272 548.464 548.509 548.654 548.597 548.669 548.679 548.874 549.047 549.074 549.182 549.054 548.854 549.294 549.507 549.692 549.727 549.887 550.012 550.149 550.317 550.512 550.657 550.834 550.899 551.142 551.437 551.557 551.629 551.704 551.772 551.812 552.124 552.397 552.449 552.492 552.614 552.879 553.117 553.122 552.854 552.699 552.847 552.992 553.139 553.334 553.499 553.704 553.854 553.932 553.882 553.887 554.112
519.47 519.852 520.172 520.455 520.607 520.737 520.942 521.095 521.285 521.437 521.415 521.377 521.472 521.66 521.622 521.8 522.112 522.38 522.362 522.462 522.642 522.565 522.572 522.512 522.56 522.49 522.512 522.522 522.7 523.1 523.38 523.487 523.432 523.575 523.835 524.065 524.06 523.99 523.872 523.945 523.995 524.125 524.192 524.132 523.88 523.567 523.42 523.37 523.34 523.307 523.067 522.785 522.672 522.505 522.367 522.285 522.15 522.082 521.895 521.807 521.825 521.982 522.062 522.02 522.327 522.55 522.527 522.117 522.33 522.242 522.41 522.865 522.982 523.177 523.202 523.185 523.215 523.237 523.252 523.417 523.942 524.21 524.375 524.51 524.67 524.815 524.787 524.872 524.93 524.75 524.747 524.83 525.03 525.185 525.297 525.342 525.367 525.312 525.422 525.435 525.382 525.047 524.787 524.972 524.99 525.09 525.082 525.147 525.127 525.285 525.377 525.355 525.467 525.515 525.607 525.85 526.097 526.347 526.53 526.745 526.95 527.192 527.375 527.612 528.105 528.415 528.472 528.542 528.53 528.467 528.397 528.362 528.472 528.64 528.612 528.62 528.742 528.845 529.03 529.127 529.217 529.32 529.38 529.445 529.555 529.775 530.012 530.185 530.485 530.835 530.925 531.18 531.282 531.452 531.485 531.595 531.702 531.665 531.71 531.68 531.777 531.862 532.157 532.552 532.787 532.92 532.97 533.025 533.135 533.255 533.335 533.365 533.315 533.217 533.127 532.935 532.89 532.882 532.86 532.87 532.887 532.84 532.857 532.877 532.932 533.03 533.107 533.125 533.162 533.242 533.457 533.48 533.647 533.917 533.947 533.99 534.042 533.907 534.047 534.067 534.055 534.122 534.005 533.97 534.005 534.32 534.672 534.832 535.072 535.135 534.802 534.577 534.957 535.375 535.215 534.672 534.69 534.722 534.99 535.082 535.315 535.527 535.855 535.975 536.002 536.095 536.14 536.222 536.285 536.297 536.342 536.415 536.545 536.585 536.527 536.55 536.577 536.627 536.655 536.632 536.68 536.677 536.735 536.767 536.755 536.827 536.91 537.01 537.105 537.182 537.227 537.257 537.287 537.447 537.54 537.582 537.72 537.775 537.882 537.922 537.982 537.985 538.042 538.115 538.185 538.227 538.48 538.54 538.64 538.727 538.817 538.885 538.975 539.162 539.345 539.612 539.847 540.115 540.267 540.49 540.745 540.955 541.16 541.36 541.53 541.75 541.985 542.267 542.442 542.537 542.792 543.04 543.182 543.375 543.58 543.777 544.03 544.155 544.307 544.452 544.62 544.76 544.787 544.785 544.82 544.967 545.015 545.017 544.992 545.194 545.212 545.367 545.492 545.362 545.387 545.417 545.439 545.467 545.509 545.559 545.524 545.739 545.702 545.829 545.939 545.907 546.024 546.034 545.932 545.942 546.112 546.222 546.157 546.162 546.199 546.227 546.354 546.482 546.517 546.629 546.722 546.759 546.777 546.754 546.757 546.712 546.779 546.617 546.972 547.274 547.004 546.864 546.997 547.384 547.712 547.764 547.824 548.074 548.207 548.257 548.394 548.489 548.517 548.552 548.654 548.709 548.832 548.967 548.984 548.844 549.132 549.302 549.372 549.497 549.652 549.839 550.034 550.107 550.342 550.489 550.517 550.649 550.942 551.149 551.262 551.422 551.572 551.602 551.669 551.802 552.037 552.199 552.297 552.559 552.789 552.847 552.737 552.584 552.619 552.749 552.914 552.989 553.097 553.369 553.582 553.617 553.597 553.769 554.092 554.204
519.042 519.402 519.765 520.027 520.1 520.13 520.442 520.765 520.955 521.027 521.055 521.067 521.255 521.367 521.367 521.415 521.645 521.865 521.92 522.015 522.14 522.055 522.082 522.057 522.022 522.027 522.107 522.155 522.37 522.697 522.902 523.127 523.237 523.272 523.427 523.64 523.687 523.637 523.59 523.637 523.717 523.717 523.85 523.815 523.585 523.342 523.195 523.002 523.035 523.057 522.69 522.427 522.357 522.262 522.112 521.942 521.895 521.81 521.58 521.52 521.595 521.61 521.555 521.84 521.992 522.17 522.135 521.797 522.107 522.047 522.077 522.55 522.725 522.855 522.95 522.927 522.887 522.847 523 523.177 523.855 523.93 524.09 524.357 524.482 524.572 524.7 524.727 524.642 524.572 524.465 524.557 524.705 524.83 524.985 525.02 525.075 524.982 525.03 525.085 524.962 524.635 524.55 524.657 524.675 524.72 524.69 524.687 524.752 524.882 525.04 525.03 525.165 525.162 525.257 525.46 525.73 525.987 526.157 526.425 526.552 526.67 526.942 527.185 527.627 527.927 527.985 528.042 528.097 528.005 527.905 527.845 528.002 528.132 528.187 528.255 528.36 528.427 528.577 528.735 528.81 528.857 528.937 528.987 529.092 529.365 529.592 529.732 529.855 530.06 530.387 530.642 530.752 531.062 531.265 531.422 531.48 531.44 531.392 531.457 531.36 531.472 531.69 532.095 532.44 532.632 532.767 532.825 532.892 532.902 532.927 533.03 533.057 532.982 532.982 532.847 532.767 532.762 532.71 532.715 532.74 532.752 532.802 532.83 532.94 532.952 533.027 533.057 533.087 533.162 533.337 533.417 533.612 533.862 533.907 533.905 533.96 533.932 533.95 533.945 533.985 534.052 534.035 533.927 533.882 533.997 534.26 534.375 534.6 534.742 534.56 534.612 535.13 535.27 534.91 534.477 534.71 535.067 535.507 535.66 535.667 535.73 535.765 535.815 535.93 536.035 536.137 536.175 536.225 536.23 536.275 536.35 536.43 536.5 536.542 536.517 536.53 536.545 536.595 536.602 536.645 536.757 536.717 536.655 536.682 536.717 536.802 536.93 537.012 537.052 537.032 537.002 536.872 537.137 537.3 537.425 537.597 537.715 537.762 537.81 537.83 537.907 537.987 538.087 538.16 538.322 538.352 538.46 538.45 538.502 538.622 538.71 538.935 539.182 539.36 539.472 539.662 539.81 539.962 540.292 540.53 540.785 540.987 541.182 541.39 541.7 541.92 542.122 542.357 542.462 542.742 542.992 543.162 543.36 543.492 543.767 543.93 544.072 544.282 544.467 544.555 544.622 544.705 544.669 544.665 544.81 544.87 544.882 544.929 545.039 545.099 545.244 545.324 545.164 545.197 545.259 545.322 545.347 545.382 545.422 545.477 545.639 545.514 545.569 545.864 545.759 545.842 545.954 545.849 545.782 545.867 546.044 546.027 546.047 546.084 546.042 546.082 546.267 546.382 546.482 546.562 546.669 546.739 546.669 546.679 546.619 546.459 546.509 546.847 546.812 546.674 546.769 547.112 547.527 547.609 547.624 547.729 547.899 547.939 548.122 548.214 548.384 548.309 548.312 548.449 548.484 548.577 548.734 548.779 548.662 548.697 549.052 549.134 549.242 549.367 549.682 549.807 549.799 549.887 550.147 550.289 550.477 550.609 550.802 550.964 551.137 551.304 551.379 551.432 551.579 551.742 551.892 552.002 552.339 552.544 552.519 552.442 552.542 552.552 552.529 552.789 552.879 552.949 553.029 553.224 553.414 553.452 553.719 554.019 553.977
518.772 518.877 519.152 519.562 519.74 519.885 520.045 520.312 520.587 520.71 520.71 520.742 520.842 520.962 521.08 521.11 521.217 521.432 521.54 521.605 521.697 521.735 521.722 521.747 521.79 521.81 521.762 521.825 522.02 522.15 522.445 522.81 522.96 523.007 523.107 523.217 523.252 523.205 523.212 523.265 523.345 523.472 523.467 523.467 523.33 523.137 523.02 522.817 522.757 522.8 522.412 522.082 522 521.95 521.707 521.61 521.597 521.51 521.365 521.25 521.362 521.277 520.967 521.427 521.59 521.635 521.722 521.762 521.872 521.882 521.832 522.28 522.447 522.542 522.605 522.6 522.547 522.66 522.772 522.942 523.545 523.615 523.742 524.01 524.265 524.38 524.442 524.455 524.347 524.212 524.205 524.33 524.44 524.555 524.64 524.692 524.717 524.765 524.802 524.662 524.35 524.107 524.12 524.277 524.267 524.32 524.337 524.395 524.472 524.552 524.747 524.837 524.935 524.89 524.972 525.075 525.365 525.617 525.797 526.012 526.18 526.242 526.475 526.822 527.065 527.115 527.035 527.187 527.585 527.427 527.385 527.462 527.645 527.71 527.745 527.845 528.01 528.13 528.202 528.315 528.377 528.392 528.502 528.572 528.757 529.032 529.242 529.37 529.33 529.497 529.782 530.05 530.14 530.41 530.607 530.847 530.975 531.23 531.345 531.275 531.162 531.09 531.247 531.572 532.062 532.327 532.437 532.542 532.54 532.59 532.54 532.632 532.715 532.755 532.822 532.69 532.502 532.515 532.517 532.575 532.67 532.805 532.847 532.857 532.842 532.925 532.975 533.005 533.052 533.132 533.312 533.41 533.597 533.785 533.84 533.792 533.882 533.922 534.022 533.962 533.955 533.995 533.98 533.89 533.812 533.862 534.04 534.147 534.232 534.432 534.41 534.747 535.327 534.902 534.387 534.437 534.835 535.262 535.647 535.747 535.752 535.81 535.865 535.922 535.792 535.917 536.04 536.09 536.17 536.195 536.192 536.282 536.347 536.422 536.48 536.465 536.455 536.517 536.527 536.5 536.507 536.59 536.655 536.615 536.572 536.637 536.767 536.907 536.965 536.942 536.875 536.747 536.377 536.5 536.602 536.745 537.072 537.232 537.395 537.602 537.697 537.815 537.835 537.867 537.915 538.092 538.22 538.375 538.525 538.665 538.62 538.672 538.797 538.912 539.182 539.395 539.592 539.715 539.792 539.925 540.202 540.477 540.705 540.94 541.212 541.465 541.725 542.005 542.18 542.432 542.669 542.857 543.042 543.285 543.407 543.647 543.835 543.98 544.205 544.357 544.412 544.5 544.582 544.51 544.555 544.69 544.737 544.782 544.797 544.857 544.827 544.927 544.922 544.967 545.089 545.174 545.274 545.269 545.317 545.077 545.194 545.337 545.287 545.329 545.587 545.664 545.712 545.734 545.652 545.517 545.642 545.774 545.837 545.914 545.992 545.809 545.539 545.954 546.219 546.322 546.389 546.424 546.532 546.547 546.514 546.524 546.459 546.372 546.467 546.484 546.514 546.684 547.102 547.342 547.487 547.454 547.552 547.592 547.792 547.974 548.084 548.102 548.054 548.087 548.079 548.194 548.437 548.517 548.512 548.439 548.127 548.679 548.947 549.092 549.127 549.297 549.502 549.539 549.717 550.019 550.232 550.222 550.279 550.567 550.717 550.854 550.997 551.057 551.114 551.269 551.382 551.522 551.789 552.054 552.254 552.279 552.369 552.564 552.297 552.347 552.734 552.712 552.749 552.829 552.904 553.212 553.304 553.442 553.689 553.799
518.517 518.555 518.677 519 519.19 519.47 519.63 519.81 520.15 520.272 520.127 520.127 520.477 520.632 520.665 520.835 520.86 521.105 521.177 521.28 521.427 521.45 521.467 521.547 521.525 521.507 521.517 521.587 521.692 521.865 522.067 522.452 522.562 522.595 522.76 522.847 522.83 522.77 522.762 522.86 523.002 523.14 523.282 523.152 523.085 522.907 522.73 522.607 522.54 522.57 522.23 521.882 521.75 521.557 521.395 521.34 521.24 521.155 521.092 521.005 521.065 521.015 520.757 521.027 521.142 521.202 521.34 521.475 521.595 521.625 -9999 -9999 -9999 -9999 -9999 -9999 -9999 522.394 522.492 522.66 523.092 523.32 523.54 523.777 523.977 524.205 524.175 524.037 524.022 523.945 524.015 524.155 524.16 524.255 524.365 524.445 524.392 524.53 524.567 524.37 524.052 523.755 523.64 523.715 523.81 524.01 524.01 524.087 524.215 524.315 524.472 524.69 524.76 524.742 524.65 524.702 524.962 525.217 525.435 525.53 525.797 525.842 525.967 526.292 526.447 526.497 526.702 526.737 526.762 526.865 526.915 527.04 527.172 527.267 527.377 527.542 527.855 527.902 527.84 527.915 528.072 528.112 528.167 528.237 528.41 528.687 528.962 528.985 529.02 529.025 529.2 529.39 529.545 529.745 529.94 530.16 530.35 530.662 530.96 531.052 530.895 530.852 530.997 531.43 531.732 531.902 531.997 532.152 532.2 532.282 532.262 532.395 532.432 532.542 532.557 532.372 532.285 532.332 532.54 532.73 532.78 532.895 532.917 532.825 532.74 532.882 532.925 533.01 532.992 533.057 533.257 533.385 533.58 533.812 533.835 533.785 533.845 533.877 533.917 533.852 533.94 533.955 533.897 533.832 533.795 533.867 534.015 534.162 534.257 534.217 534.365 534.85 535.275 534.685 534.167 534.36 534.77 535.127 535.56 535.725 535.765 535.795 535.877 535.802 535.49 535.637 535.962 536.005 536.085 536.152 536.11 536.162 536.235 536.265 536.38 536.395 536.425 536.415 536.295 536.235 536.367 536.442 536.497 536.535 536.472 536.457 536.657 536.765 536.742 536.842 536.84 536.782 536.422 536.205 536.2 536.277 536.415 536.63 536.76 537.049 537.362 537.647 537.75 537.787 537.832 537.947 538.045 538.147 538.315 538.42 538.535 538.627 538.747 538.975 539.19 539.23 539.345 539.442 539.585 539.732 540.072 540.255 540.43 540.745 541.04 541.227 541.375 541.667 542.01 542.2 542.445 542.547 542.837 543.057 543.299 543.517 543.727 543.812 543.91 544.055 544.197 544.292 544.234 544.212 544.302 544.455 544.64 544.71 544.812 544.714 544.637 544.619 544.477 544.539 545.059 545.112 545.157 545.097 545.097 545.039 544.992 545.119 545.197 545.174 545.277 545.457 545.557 545.502 545.484 545.477 545.502 545.619 545.634 545.717 545.864 545.477 545.337 545.842 546.097 546.137 546.254 546.302 546.324 546.349 546.424 546.432 546.414 546.362 546.264 546.342 546.427 546.494 546.767 547.094 547.227 547.247 547.267 547.292 547.334 547.592 547.734 547.789 547.727 547.742 547.829 548.052 548.204 548.234 548.287 548.302 548.377 548.547 548.659 548.849 548.999 549.109 549.249 549.409 549.604 549.777 549.937 549.992 550.017 550.212 550.369 550.562 550.702 550.837 550.934 551.064 551.114 551.159 551.482 551.742 552.017 552.059 552.129 552.114 552.012 552.342 552.692 552.512 552.464 552.624 552.709 553.084 553.052 553.197 553.584 553.819
518.192 518.235 518.372 518.572 518.8 519.087 519.395 519.512 519.535 519.5 519.312 519.64 519.995 520.29 520.315 520.402 520.482 520.735 520.845 520.982 521.092 521.195 521.26 521.29 521.29 521.25 521.275 521.33 521.415 521.562 521.805 522.047 522.162 522.227 522.375 522.41 522.385 522.31 522.375 522.48 522.62 522.842 522.957 522.96 522.822 522.682 522.512 522.327 522.285 522.36 521.997 521.67 521.607 521.337 521.19 521.087 521.005 520.907 520.687 520.54 520.7 520.75 520.585 520.545 520.712 520.93 521.092 521.257 -9999 -9999 -9999 -9999 -9999 -9999 -9999 -9999 -9999 -9999 -9999 -9999 -9999 -9999 523.394 523.512 523.562 523.647 523.727 523.642 523.657 523.585 523.677 -9999 -9999 -9999 -9999 -9999 -9999 -9999 -9999 524.187 523.937 523.682 523.397 523.287 523.425 523.562 523.652 523.77 523.865 524 524.092 524.335 524.485 524.477 524.45 524.395 524.62 524.802 524.907 525.19 525.507 525.602 525.657 525.932 526.162 526.122 526.155 526.142 526.277 526.442 526.552 526.727 526.825 526.895 527.002 527.302 527.517 527.602 527.545 527.587 527.825 527.877 527.982 528.117 528.222 528.422 528.577 528.637 528.647 528.657 528.807 528.92 529.097 529.27 529.447 529.605 529.72 529.995 530.275 530.515 530.567 530.662 530.737 531.025 531.252 531.392 531.457 531.615 531.712 531.66 531.767 532.05 532.175 532.247 532.142 532.03 532.102 532.175 532.395 532.695 532.807 532.927 532.99 532.722 532.525 532.772 532.847 532.8 532.827 533.032 533.182 533.295 533.6 533.797 533.765 533.757 533.82 533.912 533.852 533.85 533.847 533.84 533.702 533.715 533.772 533.96 534 534.09 534.255 534.18 534.335 534.737 534.897 534.485 534.057 534.332 534.717 534.92 535.412 535.497 535.57 535.647 535.682 535.432 535.38 535.702 535.95 536.102 536.065 536.007 536.022 536.01 536.092 536.112 536.27 536.325 536.425 536.437 536.357 536.072 536.187 536.312 536.43 536.462 536.277 535.987 536.057 536.257 536.43 536.512 536.472 536.435 536.197 535.997 535.927 535.945 536.027 536.205 536.362 536.712 536.812 537.07 537.49 537.697 537.715 537.807 537.902 538.015 538.13 538.317 538.43 538.485 538.655 538.805 538.907 539.095 539.31 539.565 539.7 539.612 539.627 539.892 540.25 540.58 540.842 540.98 541.062 541.342 541.685 541.875 542.055 542.157 542.535 542.64 543.052 543.327 543.467 543.5 543.715 543.825 543.875 544 544.015 544.07 544.06 544.185 544.47 544.465 544.442 544.469 544.549 544.427 544.399 544.619 544.922 544.984 544.919 544.867 544.849 544.804 544.999 545.054 545.089 545.079 545.142 545.359 545.359 545.277 545.439 545.527 545.514 545.599 545.499 545.527 545.642 545.452 545.197 545.717 545.954 545.974 546.042 546.134 546.247 546.232 546.304 546.399 546.269 546.309 546.219 546.232 546.339 546.257 546.434 546.884 546.822 547.054 547.164 546.982 546.562 546.654 547.162 547.284 547.322 547.429 547.584 547.914 547.969 547.977 547.924 548.027 548.017 548.084 548.427 548.592 548.777 549.022 549.062 549.169 549.302 549.412 549.444 549.599 549.754 549.879 550.057 550.219 550.402 550.629 550.842 550.922 550.827 550.947 551.319 551.574 551.704 551.819 551.867 551.769 551.797 552.084 552.289 552.174 552.119 552.407 552.647 552.982 552.912 552.857 553.172 553.699
517.757 517.93 518.092 518.232 518.532 518.87 519.11 519.28 519.125 519.19 519.145 519.087 519.462 519.997 520.1 520.212 520.245 520.337 520.415 520.582 520.74 520.812 520.905 520.942 521.005 520.942 520.97 521.07 521.167 521.327 521.455 521.62 521.772 521.91 522.022 522.092 522.08 521.957 521.94 522.087 522.242 522.402 522.545 522.637 522.537 522.465 522.28 522.08 522.06 522.03 521.7 521.462 521.412 521.12 520.907 520.735 520.557 520.502 520.28 520.162 520.31 520.417 520.337 520.232 520.467 520.65 -9999 -9999 -9999 -9999 -9999 -9999 -9999 -9999 -9999 -9999 -9999 -9999 -9999 -9999 -9999 -9999 -9999 -9999 -9999 -9999 -9999 -9999 -9999 -9999 -9999 -9999 -9999 -9999 -9999 -9999 -9999 -9999 -9999 -9999 -9999 523.495 523.257 523.13 523.08 523.257 523.327 523.357 523.527 523.627 523.755 523.91 524.115 524.222 524.182 524.135 524.282 524.317 524.477 524.827 525.145 525.292 525.415 525.517 525.637 525.705 525.872 525.912 525.945 525.965 526.067 526.28 526.425 526.477 526.622 526.867 527.017 527.072 527.107 527.2 527.43 527.687 527.905 527.98 528.092 528.152 528.222 528.292 528.337 528.265 528.425 528.567 528.67 528.88 529.002 529.09 529.185 529.347 529.552 529.857 529.93 530.077 530.2 530.39 530.542 530.737 530.905 531.072 531.17 531.32 531.447 531.62 531.822 531.885 531.697 531.615 531.722 531.85 531.99 532.217 532.53 532.705 532.737 532.44 532.2 532.36 532.5 532.502 532.682 532.95 533.057 533.092 533.325 533.565 533.607 533.662 533.805 533.882 533.73 533.592 533.51 533.49 533.56 533.72 533.95 534.072 534.005 534.225 534.42 534.245 534.265 534.417 534.48 534.23 533.842 534.35 534.672 534.917 535.225 535.34 535.445 535.465 535.52 535.24 535.45 535.792 535.97 536.072 535.957 535.95 535.967 535.987 535.99 536.017 536.105 536.225 536.332 536.452 536.397 536.042 535.872 536.125 536.412 536.415 536.082 535.852 535.78 535.887 536.045 536.077 536.017 535.967 535.857 535.81 535.755 535.77 535.875 535.975 536.052 536.255 536.455 536.64 536.877 537.495 537.669 537.705 537.777 537.865 538.017 538.167 538.27 538.385 538.452 538.665 538.827 539.092 539.207 539.4 539.537 539.63 539.765 540.047 540.122 540.195 540.452 540.695 540.905 541.105 541.405 541.667 541.862 541.957 542.185 542.405 542.767 543.08 543.08 543.18 543.452 543.52 543.549 543.635 543.907 544.002 544.02 544 544.117 544.14 544.132 544.204 544.262 544.277 544.364 544.369 544.404 544.502 544.519 544.592 544.607 544.599 544.704 544.787 544.749 544.802 544.779 544.879 544.999 545.092 545.359 545.549 545.514 545.394 545.377 545.409 545.417 545.277 545.142 545.567 545.747 545.739 545.662 545.927 546.124 546.164 546.192 546.137 546.169 546.169 546.179 546.074 546.082 546.112 546.384 546.477 546.699 546.824 546.874 546.759 546.324 546.219 546.822 547.039 547.164 547.327 547.544 547.619 547.707 547.732 547.707 547.824 547.909 547.677 548.164 548.334 548.612 548.757 548.862 548.962 548.999 549.047 549.187 549.514 549.644 549.734 549.879 550.034 550.179 550.479 550.609 550.552 550.567 550.794 551.219 551.377 551.622 551.707 551.797 551.662 551.589 551.752 552.087 551.999 551.989 552.149 552.542 552.689 552.672 552.562 552.854 553.374
517.627 517.82 517.88 517.987 518.24 518.577 518.767 518.907 519.102 518.902 518.827 518.98 519.217 519.492 519.685 519.832 519.935 520.052 520.182 520.332 520.447 520.49 520.615 520.65 520.717 520.78 520.76 520.78 520.915 520.962 521.052 521.25 521.54 521.6 521.697 521.792 521.762 521.665 521.67 521.74 521.875 522.01 522.17 522.257 522.305 522.17 522.03 521.897 521.852 521.585 521.175 521.08 520.977 520.825 520.637 520.49 520.377 520.217 520.1 520.05 520.072 520.187 520.07 520.052 519.98 -9999 -9999 -9999 -9999 -9999 -9999 -9999 -9999 -9999 -9999 -9999 -9999 -9999 -9999 -9999 -9999 -9999 -9999 -9999 -9999 -9999 -9999 -9999 -9999 -9999 -9999 -9999 -9999 -9999 -9999 -9999 -9999 -9999 -9999 -9999 -9999 -9999 523.06 522.937 522.88 523 523.137 523.187 523.24 523.257 523.337 523.512 523.672 523.867 523.945 523.945 524.035 524.075 524.097 524.387 524.68 524.94 525.06 525.232 525.265 525.362 525.492 525.662 525.682 525.765 525.765 525.902 526.042 526.11 526.2 526.312 526.435 526.475 526.597 526.797 527.025 527.292 527.605 527.767 527.86 527.89 527.957 527.95 527.82 527.802 527.96 528.107 528.202 528.325 528.515 528.672 528.74 528.882 529.032 529.165 529.327 529.447 529.59 529.795 529.915 530.12 530.31 530.367 530.487 530.7 530.885 531.06 531.192 531.302 531.262 531.277 531.505 531.51 531.507 531.692 531.985 532.252 532.302 532.052 531.732 531.76 532.082 532.417 532.63 532.777 532.862 532.892 532.975 533.325 533.5 533.47 533.517 533.5 533.355 533.362 533.385 533.497 533.682 533.7 533.825 533.897 533.925 534.117 534.352 534.365 534.22 534.25 534.177 533.807 533.965 534.447 534.647 534.77 534.96 535.105 535.185 535.297 535.312 535.177 535.495 535.692 535.775 535.867 535.91 535.915 536.01 535.98 535.935 535.945 535.947 536.045 536.24 536.34 536.257 536.09 535.867 536.005 536.325 536.175 535.892 535.82 535.995 536.072 536.047 536.097 535.97 535.757 535.662 535.67 535.647 535.705 535.775 535.85 535.89 536.027 536.205 536.382 536.54 537.2 537.515 537.602 537.635 537.747 537.885 538.01 538.127 538.222 538.415 538.54 538.72 538.907 539.062 539.177 539.36 539.667 539.785 539.882 540.087 540.327 540.487 540.727 540.847 540.995 541.255 541.457 541.482 541.642 541.875 541.977 542.222 542.657 542.895 543.01 543.045 543.17 543.382 543.392 543.612 543.607 543.612 543.677 543.765 543.842 544.059 544.214 544.332 544.254 544.159 544.217 544.337 544.429 544.537 544.579 544.569 544.692 544.729 544.767 544.907 544.849 544.734 544.784 545.089 545.214 545.279 545.354 545.314 545.252 545.324 545.249 545.052 545.039 545.022 545.377 545.367 545.389 545.462 545.697 545.847 545.919 545.919 545.929 545.922 545.987 546.007 545.994 545.964 546.029 546.214 546.492 546.454 546.492 546.512 546.299 546.089 546.072 546.614 547.042 547.139 547.209 547.262 547.434 547.502 547.492 547.504 547.659 547.697 547.619 547.942 548.037 548.182 548.442 548.622 548.779 548.862 548.867 549.014 549.287 549.492 549.667 549.777 549.947 550.147 550.322 550.332 550.294 550.372 550.542 550.782 550.929 551.342 551.637 551.629 551.482 551.452 551.549 551.949 552.047 551.869 551.914 552.159 552.399 552.252 552.349 552.667 553.102
517.467 517.655 517.74 517.797 518 518.205 518.327 518.497 518.69 518.805 518.865 518.735 518.782 518.985 519.285 519.412 519.477 519.655 519.91 520.135 520.252 520.232 520.3 520.317 520.33 520.457 520.467 520.505 520.565 520.642 520.775 520.947 521.192 521.29 521.42 521.51 521.46 521.405 521.432 521.437 521.535 521.687 521.83 521.862 521.855 521.885 521.652 521.497 521.44 521.332 521.022 520.797 520.595 520.35 520.195 520.192 520.005 519.822 519.81 519.752 519.715 519.8 519.772 519.737 -9999 -9999 -9999 -9999 -9999 -9999 -9999 -9999 -9999 -9999 -9999 -9999 -9999 -9999 -9999 -9999 -9999 -9999 -9999 -9999 -9999 -9999 -9999 -9999 -9999 -9999 -9999 -9999 -9999 -9999 -9999 -9999 -9999 -9999 -9999 -9999 -9999 -9999 522.662 522.605 522.662 522.757 522.897 523.005 523.075 523.022 523.15 523.34 523.447 523.525 523.67 523.852 523.85 523.875 523.8 523.932 524.142 524.405 524.572 524.79 524.927 524.967 525.082 525.247 525.262 525.245 525.252 525.542 525.727 525.76 525.805 525.905 525.98 526.105 526.297 526.447 526.535 526.815 527.152 527.297 527.48 527.615 527.612 527.507 527.34 527.332 527.495 527.602 527.83 527.97 528.082 528.247 528.395 528.497 528.57 528.605 528.675 528.785 528.962 529.14 529.327 529.555 529.645 529.71 529.867 530.035 530.25 530.43 530.57 530.677 530.91 530.977 531.18 531.152 531.08 531.08 531.377 531.78 531.947 531.902 531.642 531.617 531.822 532.172 532.247 532.375 532.415 532.582 532.73 532.992 533.192 533.115 533.092 533.117 533.145 533.32 533.457 533.507 533.63 533.78 533.792 533.785 533.902 534.072 534.125 534.085 534.082 534.042 533.75 533.755 534.175 534.51 534.607 534.71 534.932 535.005 535.14 535.262 535.207 535.19 535.245 535.475 535.6 535.77 535.907 535.955 535.942 535.89 535.867 535.857 535.86 535.89 536.015 536.08 536.165 536.142 535.885 535.757 535.902 535.83 535.772 535.78 536.047 536.342 536.11 535.775 535.522 535.502 535.532 535.602 535.612 535.67 535.705 535.76 535.86 535.875 536.017 536.222 536.512 537.147 537.425 537.502 537.567 537.667 537.82 537.932 538.062 538.11 538.265 538.44 538.565 538.772 538.96 539.087 539.285 539.54 539.692 539.797 540.035 540.177 540.35 540.587 540.757 540.845 541.072 541.377 541.57 541.732 541.895 542.04 542.177 542.462 542.775 542.922 542.967 543.13 543.245 543.36 543.515 543.597 543.48 543.697 543.79 544.03 544.197 544.264 544.244 544.167 544.089 544.122 544.292 544.479 544.512 544.557 544.649 544.512 544.552 544.577 544.677 544.702 544.682 544.724 544.937 545.074 545.092 545.179 545.107 545.044 545.137 545.052 544.924 544.822 544.969 545.247 545.234 545.082 545.497 545.524 545.599 545.672 545.724 545.777 545.769 545.817 545.797 545.694 545.859 545.962 546.142 546.289 546.297 546.344 546.154 545.947 545.979 546.024 546.367 546.867 546.982 546.949 546.967 547.172 547.137 547.259 547.322 547.494 547.572 547.472 547.542 547.839 547.992 548.262 548.352 548.519 548.617 548.699 548.857 549.042 549.309 549.432 549.674 549.809 549.912 549.927 550.067 549.962 550.014 550.164 550.339 550.647 551.107 551.347 551.267 551.319 551.319 551.357 551.747 551.767 551.679 551.704 551.952 552.034 552.002 552.177 552.417 552.722
517.24 517.492 517.617 517.63 517.667 517.802 517.955 518.122 518.252 518.35 518.49 518.605 518.56 518.615 519.005 519.107 519.155 519.255 519.54 519.797 519.912 519.972 520.062 519.997 520.082 520.125 520.215 520.222 520.225 520.272 520.392 520.595 520.837 521.047 521.175 521.192 521.14 521.1 521.1 521.135 521.232 521.335 521.392 521.485 521.517 521.462 521.307 521.07 521.075 521.077 520.83 520.61 520.487 520.332 519.962 519.752 519.457 519.41 519.382 519.387 519.355 519.33 519.312 -9999 -9999 -9999 -9999 -9999 -9999 -9999 -9999 -9999 -9999 -9999 -9999 -9999 -9999 -9999 -9999 -9999 -9999 -9999 -9999 -9999 -9999 -9999 -9999 -9999 -9999 -9999 -9999 -9999 -9999 -9999 -9999 -9999 -9999 -9999 -9999 -9999 -9999 -9999 -9999 522.131 522.282 522.522 522.635 522.79 522.897 522.89 522.937 523.15 523.257 523.307 523.375 523.462 523.59 523.687 523.62 523.667 523.655 523.74 524.105 524.352 524.435 524.505 524.7 524.935 524.895 524.792 524.937 525.16 525.375 525.48 525.552 525.61 525.695 525.835 525.915 526.075 526.152 526.487 526.785 526.952 526.985 527.095 526.897 526.912 526.92 526.955 527.017 527.165 527.367 527.65 527.84 527.96 528.06 528.065 528.12 528.085 528.15 528.167 528.265 528.477 528.732 528.915 529.045 529.097 529.227 529.332 529.55 529.677 529.847 529.997 530.257 530.452 530.685 530.792 530.707 530.732 530.965 531.37 531.51 531.562 531.505 531.45 531.587 531.85 532.052 532.225 532.455 532.562 532.632 532.74 532.79 532.855 532.92 532.92 532.96 533.09 533.352 533.515 533.665 533.927 533.917 533.757 533.942 534.072 534.095 533.985 534.062 534.03 533.792 533.9 534.457 534.7 534.687 534.72 534.965 534.952 534.97 535.175 535.165 535.162 535.285 535.247 535.292 535.625 535.802 535.985 535.92 535.877 535.867 535.812 535.75 535.755 535.77 535.862 535.78 535.765 535.75 535.625 535.652 535.68 535.725 535.637 535.815 536.1 536.075 535.532 535.392 535.397 535.497 535.555 535.622 535.66 535.67 535.687 535.76 535.802 535.83 536.032 536.482 537.077 537.282 537.372 537.47 537.58 537.717 537.832 537.932 538 538.125 538.285 538.465 538.735 538.885 538.965 539.092 539.31 539.475 539.677 539.887 539.97 540.145 540.387 540.51 540.747 540.975 541.172 541.337 541.525 541.587 541.737 541.877 542.07 542.387 542.637 542.772 542.867 543.002 543.132 543.302 543.252 543.157 543.322 543.674 543.93 543.932 544.052 543.924 543.962 543.949 543.997 544.262 544.394 544.409 544.509 544.512 544.502 544.444 544.477 544.574 544.692 544.714 544.674 544.832 544.942 544.912 544.979 544.944 544.989 545.022 545.039 545.054 544.827 544.709 544.724 544.944 545.209 545.349 545.462 545.534 545.602 545.634 545.637 545.662 545.442 545.674 545.719 545.777 545.722 545.712 545.792 546.042 545.997 545.739 545.747 545.844 546.094 546.402 546.627 546.662 546.717 546.742 546.779 546.984 547.132 547.197 547.304 547.387 547.412 547.479 547.699 547.884 548.014 548.192 548.349 548.444 548.542 548.727 548.864 549.249 549.359 549.407 549.539 549.632 549.647 549.664 549.662 549.779 550.024 550.277 550.454 550.707 550.732 550.779 551.044 551.187 551.277 551.452 551.444 551.484 551.637 551.944 551.927 551.957 551.902 552.214 552.469
517.152 517.315 517.462 517.48 517.502 517.485 517.675 517.79 517.925 518.075 518.16 518.305 518.415 518.532 518.61 518.737 518.842 518.947 519.22 519.42 519.462 519.557 519.687 519.697 519.667 519.72 519.87 519.93 519.947 519.955 520.07 520.232 520.402 520.642 520.74 520.737 520.792 520.867 520.88 520.825 520.917 520.962 521 521.112 521.165 521.16 520.947 520.687 520.662 520.702 520.555 520.407 520.32 520.052 519.762 519.61 519.465 519.225 519.16 519.175 519.082 519.015 -9999 -9999 -9999 -9999 -9999 -9999 -9999 -9999 -9999 -9999 -9999 -9999 -9999 -9999 -9999 -9999 -9999 -9999 -9999 -9999 -9999 -9999 -9999 -9999 -9999 -9999 -9999 -9999 -9999 -9999 -9999 -9999 -9999 -9999 -9999 -9999 -9999 -9999 -9999 -9999 -9999 -9999 521.967 522.215 522.36 522.472 522.562 522.607 522.725 522.82 522.985 523.01 523.102 523.14 523.202 523.242 523.177 523.14 523.147 523.347 523.567 523.787 523.91 524.115 524.285 524.53 524.482 524.462 524.555 524.807 525.087 525.245 525.36 525.505 525.522 525.575 525.652 525.825 525.845 526.035 526.44 526.56 526.8 526.825 526.752 526.622 526.635 526.677 526.662 526.675 526.905 527.195 527.457 527.687 527.682 527.692 527.685 527.647 527.595 527.525 527.582 527.77 528.017 528.287 528.492 528.597 528.862 529.117 529.355 529.61 529.765 529.945 530.027 530.242 530.355 530.43 530.51 530.632 530.752 530.94 531.08 531.192 531.137 531.22 531.337 531.525 531.687 531.96 532.2 532.322 532.417 532.542 532.667 532.745 532.82 532.8 532.67 532.782 533.127 533.35 533.582 533.802 533.93 533.732 533.885 533.942 533.93 533.962 534.047 533.907 533.665 533.86 534.35 534.64 534.595 534.67 534.75 534.72 534.805 535.055 535.072 535.065 535.405 535.49 535.357 535.355 535.645 535.822 535.94 535.892 535.832 535.812 535.715 535.667 535.552 535.55 535.55 535.63 535.495 535.51 535.592 535.642 535.597 535.58 535.627 535.752 535.637 535.362 535.372 535.342 535.455 535.502 535.507 535.537 535.522 535.522 535.652 535.572 535.632 535.872 536.347 536.812 537.162 537.29 537.345 537.46 537.522 537.632 537.747 537.872 538.055 538.19 538.312 538.507 538.687 538.785 538.902 539.037 539.222 539.395 539.487 539.532 539.695 540.12 540.377 540.625 540.69 540.9 541.127 541.267 541.377 541.45 541.595 541.795 542.075 542.367 542.537 542.63 542.745 542.972 542.97 543.03 543.06 543.34 543.577 543.735 543.717 543.814 543.769 543.807 543.899 544.009 544.229 544.189 544.182 544.244 544.422 544.499 544.459 544.437 544.592 544.722 544.639 544.599 544.529 544.694 544.807 544.794 544.827 544.934 544.877 544.907 544.987 544.869 544.592 544.622 544.917 545.112 545.242 545.342 545.372 545.462 545.432 545.274 545.397 545.569 545.609 545.587 545.582 545.599 545.289 545.204 545.714 545.637 545.359 545.454 545.864 546.189 546.274 546.342 546.414 546.482 546.537 546.539 546.777 546.797 546.927 547.102 547.207 547.307 547.174 547.547 547.729 547.834 548.009 548.194 548.282 548.392 548.549 548.787 548.939 549.264 549.339 549.379 549.422 549.494 549.499 549.589 549.757 550.169 550.289 550.154 550.279 550.432 550.717 550.952 550.822 550.954 551.174 551.282 551.312 551.482 551.789 551.709 551.784 551.844 551.929 552.199
516.987 517.13 517.25 517.32 517.38 517.31 517.385 517.532 517.722 517.85 517.935 518.03 518.185 518.265 518.397 518.442 518.465 518.642 518.84 518.987 519.052 519.145 519.29 519.312 519.34 519.405 519.535 519.617 519.59 519.547 519.682 519.767 519.902 520.127 520.202 520.342 520.41 520.467 520.427 520.415 520.572 520.622 520.682 520.767 520.857 520.882 520.687 520.487 520.425 520.422 520.292 520.167 520.022 519.695 519.445 519.297 519.072 518.837 518.767 518.8 518.685 -9999 -9999 -9999 -9999 -9999 -9999 -9999 -9999 -9999 -9999 -9999 -9999 -9999 -9999 -9999 -9999 -9999 -9999 -9999 -9999 -9999 -9999 -9999 -9999 -9999 -9999 -9999 -9999 -9999 -9999 -9999 -9999 -9999 -9999 -9999 -9999 -9999 -9999 -9999 -9999 -9999 -9999 -9999 -9999 521.895 522.037 522.14 522.252 522.37 522.497 522.615 522.71 522.842 522.732 522.602 522.675 522.895 522.815 522.88 523.002 523.16 523.17 523.357 523.467 523.63 523.88 523.93 524.045 524.147 524.33 524.675 524.822 524.975 525.107 525.22 525.215 525.297 525.427 525.507 525.517 525.63 525.955 526.19 526.532 526.612 526.502 526.482 526.43 526.45 526.37 526.377 526.637 526.825 527.082 527.242 527.395 527.405 527.28 527.17 527.122 527.092 527.195 527.502 527.787 528.005 528.207 528.352 528.525 528.862 529.28 529.457 529.585 529.617 529.712 529.85 529.845 529.8 529.927 530.01 530.097 530.28 530.47 530.62 530.675 530.727 530.952 531.225 531.432 531.672 531.92 532.037 532.127 532.215 532.41 532.437 532.545 532.532 532.457 532.62 532.907 533.06 533.305 533.402 533.525 533.53 533.652 533.725 533.712 533.797 533.88 533.88 533.632 533.757 534.04 534.23 534.397 534.532 534.635 534.71 534.715 534.925 534.992 535.12 535.485 535.737 535.337 535.257 535.47 535.54 535.745 535.74 535.72 535.93 535.727 535.47 535.355 535.36 535.455 535.447 535.447 535.54 535.525 535.572 535.575 535.622 535.632 535.5 535.292 535.217 535.295 535.28 535.35 535.347 535.375 535.38 535.382 535.405 535.427 535.497 535.547 535.622 536.015 536.152 536.88 537.167 537.235 537.267 537.35 537.502 537.715 537.767 537.957 538.085 538.197 538.337 538.43 538.59 538.67 538.81 538.95 539.137 539.282 539.422 539.44 539.805 540.055 540.202 540.43 540.71 540.832 540.945 541.082 541.217 541.38 541.542 541.882 542.2 542.36 542.49 542.59 542.645 542.852 542.985 543.072 543.232 543.38 543.385 543.447 543.492 543.479 543.634 543.879 543.969 544.129 544.087 544.124 544.219 544.284 544.314 544.304 544.334 544.424 544.427 544.432 544.459 544.429 544.452 544.512 544.607 544.569 544.617 544.589 544.807 544.822 544.794 544.712 544.507 544.704 545.029 545.164 545.219 545.239 545.177 545.249 545.479 545.499 545.519 545.547 545.492 545.459 545.382 545.047 545.197 545.504 545.397 545.332 545.564 545.822 545.994 546.069 546.194 546.312 546.357 546.292 546.392 546.529 546.597 546.734 546.929 546.949 547.067 547.064 547.354 547.599 547.707 547.844 547.952 548.089 548.204 548.377 548.599 548.754 548.837 548.992 549.209 549.294 549.359 549.394 549.677 549.934 550.182 549.959 549.874 549.939 550.472 550.799 550.574 550.319 550.447 550.922 551.117 551.084 551.262 551.409 551.457 551.602 551.734 551.679 552.132
516.82 516.925 517.07 517.14 517.172 517.177 517.13 517.242 517.437 517.535 517.55 517.835 517.995 518.077 518.155 518.26 518.257 518.1 518.405 518.597 518.732 518.845 518.907 518.912 518.897 518.942 518.995 519.14 519.185 519.092 519.187 519.307 519.427 519.64 519.83 519.9 519.922 519.87 519.92 520.052 520.207 520.242 520.297 520.342 520.535 520.545 520.417 520.332 520.317 520.097 519.992 519.96 519.702 519.287 519.005 518.877 518.492 518.235 518.29 518.335 -9999 -9999 -9999 -9999 -9999 -9999 -9999 -9999 -9999 -9999 -9999 -9999 -9999 -9999 -9999 -9999 -9999 -9999 -9999 -9999 -9999 -9999 -9999 -9999 -9999 -9999 -9999 -9999 -9999 -9999 -9999 -9999 -9999 -9999 -9999 -9999 -9999 -9999 -9999 -9999 -9999 -9999 -9999 -9999 -9999 -9999 521.675 521.792 521.925 522.015 522.112 522.332 522.44 522.407 522.385 522.305 522.302 522.5 522.655 522.715 522.842 522.84 522.99 523 523.175 523.44 523.515 523.65 523.85 524.042 524.135 524.462 524.607 524.667 524.872 524.992 525.03 525.095 525.115 525.192 525.235 525.29 525.492 525.7 525.892 525.965 526.045 526.067 526.21 526.312 526.112 526.222 526.377 526.55 526.797 526.85 526.845 527.027 527.165 527.007 526.805 526.74 526.87 527.105 527.377 527.562 527.822 527.907 528.027 528.595 529.067 529.2 529.3 529.4 529.522 529.65 529.655 529.567 529.512 529.522 529.542 529.685 529.83 529.965 530.072 530.255 530.545 530.82 531.097 531.35 531.565 531.63 531.8 531.98 532.09 532.195 532.237 532.105 532.177 532.382 532.572 532.74 532.937 533.192 533.362 533.427 533.555 533.675 533.645 533.62 533.692 533.71 533.66 533.662 533.687 533.812 534.075 534.41 534.477 534.592 534.6 534.707 534.752 534.97 535.345 535.522 535.362 535.247 535.207 535.237 535.257 535.322 535.437 535.645 535.547 535.395 535.307 535.322 535.347 535.422 535.527 535.55 535.582 535.557 535.407 535.43 535.42 535.31 535.247 535.172 535.2 535.285 535.31 535.285 535.292 535.235 535.315 535.38 535.447 535.46 535.447 535.522 535.795 536.06 536.68 537.09 537.182 537.27 537.299 537.415 537.51 537.627 537.81 537.927 538.087 538.252 538.315 538.39 538.475 538.617 538.747 538.91 539.055 539.217 539.282 539.505 539.78 539.837 539.992 540.22 540.457 540.63 540.867 541.097 541.247 541.55 541.945 541.887 542.075 542.365 542.5 542.485 542.727 542.875 543.049 543.067 543.1 543.105 543.147 543.247 543.314 543.422 543.614 543.712 543.862 544.032 544.099 544.039 544.049 544.094 544.097 544.172 544.209 544.192 544.332 544.372 544.399 544.392 544.359 544.304 544.224 544.217 544.392 544.697 544.629 544.584 544.504 544.392 544.537 544.809 544.807 544.767 544.959 545.249 545.317 545.359 545.414 545.444 545.432 545.354 545.174 544.847 544.884 545.194 545.144 545.132 545.277 545.499 545.599 545.712 545.929 546.034 546.089 546.139 546.112 546.287 546.309 546.477 546.602 546.737 546.764 546.892 547.092 547.289 547.374 547.452 547.557 547.692 547.909 548.064 548.187 548.362 548.567 548.582 548.679 548.959 549.162 549.149 549.194 549.299 549.559 549.802 549.479 549.554 549.779 550.339 550.517 550.147 550.067 550.304 550.554 550.787 550.867 551.107 551.132 551.422 551.814 551.819 551.569 551.824
516.585 516.685 516.795 516.817 516.837 516.842 516.907 517.05 517.177 517.272 517.43 517.555 517.655 517.737 517.857 517.987 518.032 517.99 517.885 518.037 518.317 518.53 518.575 518.567 518.512 518.517 518.605 518.672 518.737 518.71 518.727 518.812 519.09 519.272 519.405 519.465 519.537 519.525 519.48 519.557 519.747 519.915 519.965 519.997 520.13 520.18 520.18 520.052 519.932 519.937 519.66 519.552 519.207 518.877 518.722 518.532 518.177 518.047 518.015 -9999 -9999 -9999 -9999 -9999 -9999 -9999 -9999 -9999 -9999 -9999 -9999 -9999 -9999 -9999 -9999 -9999 -9999 -9999 -9999 -9999 -9999 -9999 -9999 -9999 -9999 -9999 -9999 -9999 -9999 -9999 -9999 -9999 -9999 -9999 -9999 -9999 -9999 -9999 -9999 -9999 -9999 -9999 -9999 -9999 -9999 -9999 -9999 521.432 521.662 521.822 521.872 522.05 522.167 522.045 521.927 521.992 522.142 522.317 522.415 522.44 522.482 522.56 522.647 522.86 523.137 523.187 523.282 523.382 523.492 523.697 524.067 524.175 524.265 524.37 524.587 524.757 524.875 524.832 524.77 524.827 524.945 524.992 525.035 525.157 525.305 525.465 525.487 525.502 525.48 525.567 525.68 525.832 525.992 526.072 526.227 526.545 526.772 526.812 526.775 526.682 526.517 526.477 526.702 526.942 527.1 527.337 527.555 527.78 528.115 528.495 528.787 528.882 529.002 529.072 529.24 529.37 529.465 529.525 529.43 529.365 529.29 529.32 529.415 529.595 529.762 529.912 530.135 530.385 530.662 530.845 531.107 531.307 531.417 531.562 531.775 531.942 532.005 531.865 532.035 532.195 532.347 532.545 532.63 532.857 533.207 533.285 533.405 533.497 533.507 533.542 533.485 533.515 533.467 533.635 533.602 533.845 534.122 534.222 534.357 534.482 534.492 534.56 534.63 534.775 535.045 535.14 535.135 535.122 535.105 535.112 535.135 535.17 535.307 535.405 535.357 535.335 535.252 535.22 535.405 535.265 535.222 535.382 535.64 535.522 535.28 535.212 535.217 535.225 535.177 535.13 535.14 535.162 535.217 535.225 535.205 535.192 535.277 535.29 535.395 535.377 535.457 535.447 535.71 536.032 536.737 537.025 537.12 537.155 537.205 537.327 537.337 537.46 537.647 537.765 537.875 538.077 538.155 538.215 538.382 538.512 538.632 538.777 538.917 539.077 539.16 539.27 539.467 539.49 539.64 540.187 540.425 540.665 540.835 540.992 541.155 541.41 541.765 541.74 541.815 542.112 542.237 542.08 542.362 542.522 542.68 542.755 542.837 542.872 542.819 542.994 543.212 543.309 543.502 543.574 543.539 543.794 543.834 543.807 543.804 543.909 543.977 544.012 544.017 544.119 544.202 544.317 544.309 544.234 544.152 543.959 544.024 544.172 544.379 544.494 544.467 544.469 544.347 544.322 544.564 544.499 544.467 544.807 544.907 544.977 545.149 545.234 545.302 545.364 545.349 545.284 545.114 544.729 544.787 544.994 544.867 544.889 545.139 545.329 545.424 545.507 545.759 545.912 545.837 545.847 545.964 546.062 546.137 546.274 546.422 546.549 546.572 546.739 546.907 546.794 547.147 547.184 547.299 547.467 547.734 547.977 548.002 548.119 548.422 548.504 548.537 548.674 548.697 548.547 548.982 548.954 549.072 549.269 549.232 549.424 549.732 550.089 550.174 549.957 549.957 550.112 550.192 550.437 550.642 550.864 551.014 551.367 551.889 551.907 551.444 551.507
516.14 516.285 516.432 516.492 516.54 516.582 516.602 516.732 516.855 517.047 517.145 517.232 517.34 517.45 517.522 517.595 517.682 517.637 517.655 517.632 517.54 517.97 518.09 518.105 518.105 518.11 518.212 518.347 518.292 518.227 518.207 518.357 518.597 518.887 518.97 519.04 519.135 519.11 519.135 519.19 519.345 519.577 519.645 519.627 519.72 519.857 519.865 519.73 519.595 519.597 519.462 519.09 518.84 518.615 518.475 518.017 517.932 517.947 -9999 -9999 -9999 -9999 -9999 -9999 -9999 -9999 -9999 -9999 -9999 -9999 -9999 -9999 -9999 -9999 -9999 -9999 -9999 -9999 -9999 -9999 -9999 -9999 -9999 -9999 -9999 -9999 -9999 -9999 -9999 -9999 -9999 -9999 -9999 -9999 -9999 -9999 -9999 -9999 -9999 -9999 -9999 -9999 -9999 -9999 -9999 -9999 -9999 -9999 521.41 521.607 521.662 521.717 521.765 521.745 521.815 521.977 522.01 522.12 522.197 522.362 522.342 522.39 522.502 522.68 522.882 522.955 523.02 523.14 523.215 523.535 523.747 524.017 524.107 524.057 524.162 524.287 524.427 524.385 524.39 524.44 524.55 524.53 524.507 524.557 524.655 524.707 524.822 524.812 524.807 524.93 525.115 525.36 525.615 525.9 526.175 526.377 526.422 526.435 526.43 526.427 526.37 526.292 526.63 526.817 526.952 527.167 527.297 527.71 528.062 528.297 528.475 528.57 528.7 528.877 528.955 529.082 529.157 529.21 529.247 529.19 529.172 529.257 529.33 529.387 529.475 529.56 529.68 529.887 530.165 530.365 530.61 530.795 531.012 531.142 531.332 531.525 531.672 531.677 531.82 531.942 532.115 532.3 532.332 532.43 532.832 533.127 533.185 533.312 533.362 533.482 533.45 533.357 533.405 533.465 533.57 533.955 534.105 534.142 534.322 534.352 534.407 534.47 534.487 534.585 534.697 534.867 535.03 535.11 535.09 535.082 535.212 535.205 535.297 535.312 535.245 535.21 535.175 535.217 535.202 535.105 535.232 535.272 535.37 535.367 535.23 535.202 535.14 535.11 535.122 535.095 535.07 535.13 535.117 535.112 535.087 535.137 535.185 535.17 535.312 535.36 535.35 535.38 535.497 535.967 536.64 536.84 536.955 536.997 537.067 537.21 537.217 537.365 537.47 537.622 537.687 537.794 537.867 538.04 538.225 538.41 538.522 538.657 538.782 538.912 539.047 539.227 539.315 539.38 539.587 540.03 540.287 540.597 540.73 540.867 540.932 541.052 541.442 541.542 541.702 541.802 541.592 541.567 541.99 542.07 542.375 542.562 542.582 542.557 542.487 542.719 542.909 543.027 543.227 543.417 543.512 543.579 543.612 543.557 543.689 543.834 543.912 543.942 543.989 544.012 543.997 544.092 544.137 544.142 543.992 543.882 543.984 544.252 544.352 544.392 544.387 544.369 544.354 544.214 544.272 544.407 544.394 544.632 544.759 544.817 544.959 545.077 545.122 545.244 545.247 545.142 544.867 544.579 544.592 544.652 544.609 544.714 544.994 545.147 545.282 545.527 545.622 545.649 545.562 545.737 545.759 545.709 545.694 545.964 546.187 546.257 546.282 546.499 546.777 546.797 546.964 547.047 547.207 547.217 547.474 547.704 547.719 547.704 547.897 548.139 548.119 548.114 548.327 548.362 548.582 548.659 548.637 548.817 548.972 549.279 549.457 549.774 549.732 549.782 549.829 549.997 550.099 550.349 550.839 550.962 551.134 551.437 551.782 551.747 551.442 551.384
515.837 515.955 516.052 516.172 516.27 516.287 516.35 516.415 516.485 516.587 516.765 516.9 517.015 517.082 517.117 517.192 517.25 517.287 517.317 517.41 517.515 517.6 517.502 517.612 517.692 517.752 517.932 518.007 517.957 517.902 517.9 517.972 518.105 518.362 518.525 518.672 518.737 518.76 518.82 518.832 518.995 519.177 519.36 519.365 519.435 519.482 519.502 519.47 519.34 519.407 519.185 518.795 518.595 518.387 517.937 517.805 517.722 -9999 -9999 -9999 -9999 -9999 -9999 -9999 -9999 -9999 -9999 -9999 -9999 -9999 -9999 -9999 -9999 -9999 -9999 -9999 -9999 -9999 -9999 -9999 -9999 -9999 -9999 -9999 -9999 -9999 -9999 -9999 -9999 -9999 -9999 -9999 -9999 -9999 -9999 -9999 -9999 -9999 -9999 -9999 -9999 -9999 -9999 -9999 -9999 -9999 -9999 -9999 -9999 521.21 521.12 521.162 521.31 521.425 521.562 521.65 521.792 521.972 522.067 522.117 522.112 522.28 522.267 522.387 522.462 522.602 522.767 522.91 523.06 523.125 523.282 523.6 523.792 523.697 523.87 523.972 524.052 524.165 524.1 524.075 524.165 524.202 524.26 524.267 524.275 524.412 524.315 524.427 524.552 524.722 524.78 524.967 524.972 525.117 525.532 525.975 526.077 526.12 526.122 526.152 526.15 526.192 526.537 526.73 526.792 526.945 527.102 527.587 527.905 528.092 528.155 528.307 528.425 528.582 528.685 528.76 528.815 528.755 528.85 528.847 528.887 528.975 529.145 529.18 529.21 529.215 529.257 529.407 529.57 529.792 529.982 530.245 530.502 530.63 530.915 531.122 531.25 531.355 531.555 531.662 531.877 532.06 532.082 532.122 532.435 532.837 532.967 533.19 533.232 533.292 533.325 533.302 533.317 533.48 533.735 533.987 534.062 534.092 534.19 534.315 534.39 534.43 534.452 534.477 534.52 534.615 534.922 535.03 535.1 535.137 535.24 535.262 535.212 535.237 535.187 535.18 535.17 535.205 535.115 535.1 535.107 535.15 535.092 535.207 535.197 535.305 535.077 535.07 535.065 535.042 535.017 535.007 535.035 535.027 535.06 535.097 535.097 535.107 535.177 535.255 535.28 535.337 535.59 536.057 536.482 536.66 536.78 536.837 536.942 536.997 537.127 537.265 537.36 537.482 537.547 537.63 537.742 537.845 538.027 538.237 538.424 538.545 538.632 538.72 538.862 539.087 539.217 539.29 539.405 539.475 539.842 540.187 540.57 540.762 540.777 540.73 540.947 541.197 541.412 541.415 541.302 541.287 541.455 541.61 541.855 542.135 542.15 542.162 542.384 542.467 542.602 542.767 543.062 543.237 543.329 543.172 543.284 543.269 543.589 543.739 543.702 543.642 543.834 543.827 543.832 543.817 543.897 543.977 543.869 543.887 543.939 544.179 544.209 544.307 544.287 544.182 543.957 544.034 544.172 544.194 544.354 544.362 544.337 544.627 544.794 544.792 544.952 545.089 545.092 544.924 544.654 544.414 544.439 544.449 544.472 544.642 544.894 544.964 545.009 545.214 545.287 545.392 545.347 545.489 545.464 545.299 545.219 545.452 545.994 546.029 546.024 546.209 546.509 546.654 546.724 546.929 547.007 547.059 547.079 547.179 547.357 547.459 547.587 547.632 547.652 547.777 547.999 548.282 548.449 548.252 548.234 548.419 548.667 548.929 549.194 549.287 549.437 549.592 549.712 549.819 549.987 550.557 550.957 551.009 551.077 551.219 551.487 551.409 551.282 551.197
515.627 515.757 515.785 515.867 515.9 515.972 516.087 516.137 516.232 516.362 516.455 516.537 516.61 516.735 516.867 516.925 517.002 517.007 517.022 517.112 517.225 517.417 517.527 517.372 517.455 517.622 517.757 517.787 517.805 517.805 517.755 517.732 517.775 517.91 518.027 518.177 518.347 518.495 518.52 518.557 518.645 518.817 518.93 519.047 519.132 519.26 519.21 519.235 519.03 519.062 518.852 518.64 518.265 518.012 517.66 517.615 -9999 -9999 -9999 -9999 -9999 -9999 -9999 -9999 -9999 -9999 -9999 -9999 -9999 -9999 -9999 -9999 -9999 -9999 -9999 -9999 -9999 -9999 -9999 -9999 -9999 -9999 -9999 -9999 -9999 -9999 -9999 -9999 -9999 -9999 -9999 -9999 -9999 -9999 -9999 -9999 -9999 -9999 -9999 -9999 -9999 -9999 -9999 -9999 -9999 -9999 -9999 -9999 -9999 -9999 520.72 520.75 520.992 521.222 521.272 521.377 521.442 521.512 521.645 521.715 521.832 522 521.977 522.05 522.202 522.337 522.517 522.637 522.82 522.885 523.1 523.247 523.357 523.42 523.537 523.595 523.712 523.857 523.835 523.745 523.795 523.842 523.962 523.905 523.77 523.942 524.155 524.177 524.122 524.265 524.38 524.52 524.652 524.765 525.127 525.625 525.73 525.752 525.817 525.897 525.995 526.175 526.425 526.582 526.682 526.765 527.03 527.347 527.59 527.757 527.87 528.01 528.177 528.222 528.382 528.482 528.42 528.465 528.505 528.537 528.585 528.68 528.8 528.867 528.9 528.86 528.87 528.895 529.005 529.14 529.357 529.63 529.86 530.157 530.482 530.7 530.84 531.02 531.192 531.312 531.525 531.697 531.745 531.877 532.185 532.622 532.83 533.055 533.142 533.247 533.277 533.075 533.195 533.535 533.73 533.852 534.002 534.027 534.102 534.222 534.287 534.36 534.417 534.525 534.565 534.655 534.837 534.97 535.122 535.172 535.265 535.387 535.235 535.182 535.295 535.122 535.17 535.137 535.115 535.092 534.987 535.002 534.98 534.985 535.022 535.035 534.945 534.977 534.955 534.955 534.967 534.965 534.967 535.042 535.042 535.087 535.09 535.067 535.105 535.174 535.287 535.282 535.5 536.032 536.39 536.527 536.63 536.677 536.73 536.822 537.047 537.075 537.16 537.322 537.45 537.492 537.585 537.617 537.785 538.015 538.217 538.392 538.452 538.457 538.717 538.887 539.082 539.242 539.337 539.33 539.465 539.81 540.405 540.635 540.567 540.39 540.49 540.727 540.924 541.022 541.032 541.057 541.19 541.262 541.36 541.587 541.857 542.047 542.304 542.402 542.582 542.677 542.877 543.009 543.089 543.007 543.067 543.262 543.419 543.579 543.532 543.399 543.644 543.677 543.347 543.289 543.502 543.812 543.742 543.782 543.849 544.012 543.912 544.012 543.949 543.764 544.059 543.972 544.114 544.159 544.214 544.232 544.022 544.379 544.577 544.504 544.674 544.682 544.819 544.684 544.334 544.292 544.344 544.327 544.439 544.719 544.887 544.782 544.797 544.914 544.899 544.887 545.144 545.252 545.287 545.259 545.099 545.322 545.854 545.779 545.834 545.952 546.127 546.329 546.467 546.739 546.909 546.914 546.919 547.052 547.167 547.204 547.334 547.397 547.474 547.589 547.864 548.094 548.274 547.947 547.942 548.194 548.324 548.507 548.719 548.927 549.179 549.334 549.429 549.634 550.022 550.362 550.822 550.902 551.009 551.094 551.119 551.134 551.189 551.157
515.43 515.462 515.48 515.557 515.612 515.685 515.817 515.907 516.02 516.167 516.155 516.242 516.355 516.417 516.575 516.627 516.665 516.757 516.845 516.957 517.007 517.15 517.175 517.18 517.225 517.302 517.555 517.597 517.542 517.53 517.557 517.535 517.592 517.617 517.612 517.627 517.855 518.19 518.312 518.31 518.337 518.4 518.527 518.62 518.747 518.81 518.802 518.88 518.667 518.637 518.57 518.332 518.135 517.902 -9999 -9999 -9999 -9999 -9999 -9999 -9999 -9999 -9999 -9999 -9999 -9999 -9999 -9999 -9999 -9999 -9999 -9999 -9999 -9999 -9999 -9999 -9999 -9999 -9999 -9999 -9999 -9999 -9999 -9999 -9999 -9999 -9999 -9999 -9999 -9999 -9999 -9999 -9999 -9999 -9999 -9999 -9999 -9999 -9999 -9999 -9999 -9999 -9999 -9999 -9999 -9999 -9999 -9999 -9999 -9999 -9999 520.5 520.612 520.787 520.955 521.182 521.155 521.187 521.357 521.46 521.5 521.585 521.692 521.752 521.89 522.042 522.215 522.452 522.557 522.707 522.847 523.01 523.012 523.102 523.14 523.307 523.32 523.362 523.432 523.445 523.467 523.527 523.492 523.515 523.532 523.577 523.64 523.66 523.742 523.947 524.002 524.27 524.44 524.562 524.735 525.3 525.452 525.5 525.627 525.765 525.875 526.127 526.247 526.377 526.507 526.697 526.955 527.137 527.297 527.402 527.502 527.68 527.875 528.017 528.1 528.125 528.085 528.032 528.087 528.215 528.302 528.455 528.527 528.505 528.587 528.565 528.577 528.562 528.595 528.67 528.81 529.027 529.23 529.547 529.897 530.172 530.492 530.71 530.855 531.002 531.19 531.317 531.39 531.58 531.925 532.465 532.782 532.967 533.055 533.14 532.977 532.86 533.02 533.33 533.61 533.71 533.805 533.887 533.992 534.11 534.215 534.312 534.382 534.422 534.537 534.637 534.79 534.902 534.997 535.147 535.002 534.972 535.027 535.007 535.07 534.945 535.087 535.162 535.067 534.96 534.98 534.932 534.882 534.827 534.855 534.862 534.847 534.845 534.802 534.742 534.875 534.9 534.915 534.97 535.032 535.04 535.15 535.042 535.087 535.125 535.247 535.285 535.345 535.762 536.36 536.44 536.467 536.57 536.595 536.642 536.717 536.837 536.965 537.11 537.252 537.352 537.487 537.522 537.622 537.75 537.947 538.19 538.26 538.412 538.59 538.812 538.96 539.195 539.247 539.285 539.4 539.815 540.18 540.337 540.36 540.15 540.137 540.287 540.427 540.627 540.902 540.995 541.052 540.99 541.18 541.45 541.827 541.965 542.122 542.264 542.359 542.532 542.682 542.759 542.807 542.792 543.074 543.219 543.257 543.319 543.289 543.272 543.472 543.477 543.179 543.299 543.539 543.609 543.559 543.494 543.577 543.619 543.437 543.509 543.689 543.874 543.967 543.877 543.897 543.969 543.954 543.819 543.854 544.227 544.314 544.232 544.339 544.314 544.422 544.524 544.169 544.109 544.237 544.277 544.417 544.804 544.852 544.599 544.699 544.719 544.587 544.714 544.847 544.994 544.982 545.052 545.162 545.259 545.497 545.569 545.659 545.784 545.947 546.134 546.292 546.477 546.684 546.677 546.794 546.989 547.194 547.254 547.332 547.382 547.469 547.584 547.834 547.892 547.952 547.874 547.819 547.917 548.014 548.132 548.324 548.582 548.812 548.984 549.202 549.444 549.747 550.047 550.434 550.439 550.722 551.062 551.094 550.982 550.962 551.057
515.137 515.29 515.347 515.365 515.422 515.505 515.632 515.695 515.782 515.82 515.87 516.04 516.132 516.172 516.352 516.39 516.395 516.535 516.57 516.62 516.672 516.767 516.8 516.892 517.052 516.902 516.905 517.24 517.395 517.317 517.247 517.18 517.182 517.337 517.33 517.305 517.48 517.73 517.892 517.927 517.957 518.08 518.327 518.392 518.467 518.545 518.532 518.51 518.347 518.335 518.237 518.062 517.802 -9999 -9999 -9999 -9999 -9999 -9999 -9999 -9999 -9999 -9999 -9999 -9999 -9999 -9999 -9999 -9999 -9999 -9999 -9999 -9999 -9999 -9999 -9999 -9999 -9999 -9999 -9999 -9999 -9999 -9999 -9999 -9999 -9999 -9999 -9999 -9999 -9999 -9999 -9999 -9999 -9999 -9999 -9999 -9999 -9999 -9999 -9999 -9999 -9999 -9999 -9999 -9999 -9999 -9999 -9999 -9999 -9999 -9999 -9999 520.3 520.312 520.65 520.882 520.902 520.922 520.987 521.135 521.232 521.34 521.482 521.577 521.717 521.89 521.972 522.13 522.337 522.347 522.392 522.48 522.592 522.765 522.867 522.98 522.96 522.975 523.08 523.105 523.15 523.11 523.222 523.312 523.295 523.262 523.305 523.292 523.392 523.552 523.697 523.882 524.062 524.215 524.297 524.747 525.045 525.415 525.63 525.672 525.865 526.035 526.075 526.167 526.38 526.46 526.68 526.862 526.977 527.065 527.18 527.352 527.632 527.772 527.75 527.722 527.682 527.737 527.755 527.935 528.097 528.287 528.312 528.24 528.19 528.177 528.187 528.232 528.307 528.337 528.397 528.535 528.662 529.02 529.407 529.747 530.042 530.327 530.535 530.765 530.872 530.987 531.112 531.322 531.655 532.067 532.45 532.752 532.925 532.952 532.815 532.682 532.865 533.047 533.292 533.422 533.515 533.672 533.88 534.007 534.087 534.187 534.237 534.377 534.48 534.612 534.707 534.795 534.882 534.902 534.825 534.775 534.817 534.835 534.842 534.907 534.917 534.865 534.902 534.985 534.937 534.905 534.87 534.78 534.667 534.65 534.65 534.682 534.697 534.517 534.777 534.88 534.925 534.915 534.897 534.955 534.997 535.06 535.087 535.11 535.21 535.205 535.315 535.737 536.157 536.282 536.225 536.272 536.355 536.44 536.522 536.607 536.757 536.935 537.072 537.212 537.347 537.46 537.497 537.535 537.637 537.932 538.042 538.227 538.417 538.665 538.865 539.015 539.162 539.225 539.297 539.465 539.735 540.022 540.2 540.212 540.037 540.07 540.235 540.532 540.937 541.035 540.927 540.672 541.22 541.4 541.602 541.592 541.492 541.942 542.204 542.372 542.429 542.539 542.574 542.667 542.912 543.042 543.089 543.149 543.054 543.192 543.292 543.352 543.099 543.262 543.339 543.492 543.519 543.379 543.379 543.277 543.474 543.569 543.602 543.659 543.699 543.699 543.627 543.627 543.577 543.612 543.779 543.842 543.927 543.872 544.044 544.102 544.239 544.342 544.014 543.962 544.112 544.269 544.317 544.412 544.497 544.462 544.472 544.424 544.529 544.684 544.809 544.959 544.919 544.894 545.057 545.167 545.259 545.354 545.509 545.672 545.762 545.959 546.137 546.164 546.262 546.379 546.677 546.769 546.869 547.114 547.277 547.312 547.447 547.537 547.707 547.824 547.607 547.499 547.657 547.677 547.747 547.822 547.977 548.212 548.472 548.692 548.899 549.152 549.579 549.822 550.027 550.082 550.319 550.639 550.802 550.594 550.502 550.797
514.897 515.035 515.157 515.27 515.205 515.19 515.282 515.342 515.417 515.497 515.627 515.782 515.92 516.007 516.125 516.16 516.24 516.377 516.367 516.372 516.425 516.46 516.502 516.602 516.767 516.78 516.827 516.83 516.945 516.947 516.902 516.885 516.972 517.007 517.075 517.067 517.192 517.352 517.542 517.595 517.675 517.805 518.03 518.18 518.155 518.19 518.14 518.14 518.092 517.997 517.907 517.767 -9999 -9999 -9999 -9999 -9999 -9999 -9999 -9999 -9999 -9999 -9999 -9999 -9999 -9999 -9999 -9999 -9999 -9999 -9999 -9999 -9999 -9999 -9999 -9999 -9999 -9999 -9999 -9999 -9999 -9999 -9999 -9999 -9999 -9999 -9999 -9999 -9999 -9999 -9999 -9999 -9999 -9999 -9999 -9999 -9999 -9999 -9999 -9999 -9999 -9999 -9999 -9999 -9999 -9999 -9999 -9999 -9999 -9999 -9999 -9999 -9999 519.995 520.392 520.642 520.742 520.707 520.765 520.847 520.985 520.935 521.012 521.175 521.425 521.652 521.742 521.87 522.062 522.065 522.182 522.21 522.327 522.477 522.655 522.645 522.662 522.667 522.712 522.757 522.87 522.885 522.885 522.997 523.082 523.112 523.175 523.125 523.137 523.22 523.345 523.532 523.672 523.865 523.845 524.017 524.56 525.182 525.467 525.522 525.735 525.82 525.857 525.932 526.09 526.225 526.407 526.567 526.672 526.77 526.912 527.132 527.317 527.46 527.337 527.36 527.375 527.505 527.56 527.717 527.94 527.997 527.98 527.987 527.905 527.815 527.787 527.902 527.955 528.037 528.095 528.12 528.342 528.672 529.027 529.37 529.647 529.972 530.24 530.48 530.575 530.67 530.917 531.062 531.277 531.63 531.957 532.277 532.637 532.755 532.637 532.515 532.64 532.795 532.86 533.07 533.277 533.385 533.67 533.735 533.787 534.005 534.195 534.375 534.59 534.585 534.597 534.617 534.592 534.605 534.67 534.675 534.662 534.672 534.687 534.81 534.797 534.767 534.777 534.815 534.837 534.77 534.905 534.7 534.517 534.492 534.55 534.585 534.6 534.547 534.622 534.742 534.825 534.84 534.86 534.907 534.935 535.082 535.07 535.12 535.17 535.21 535.23 535.427 535.635 535.862 535.962 536.035 536.102 536.155 536.272 536.437 536.605 536.777 537.06 536.997 537.335 537.445 537.41 537.41 537.487 537.705 537.857 537.965 538.215 538.462 538.685 538.847 539.052 539.207 539.36 539.485 539.565 539.795 539.975 539.995 539.97 540.005 540.185 540.49 540.895 540.987 540.695 540.522 541.025 541.247 541.287 541.33 541.474 541.824 542.037 542.152 542.259 542.309 542.337 542.509 542.739 542.769 542.824 542.872 542.807 542.907 542.962 542.979 543.074 543.084 543.137 543.192 543.177 543.169 543.187 543.447 543.557 543.434 543.379 543.517 543.524 543.514 543.567 543.557 543.464 543.452 543.512 543.594 543.522 543.532 543.684 543.684 543.932 544.009 543.929 543.774 544.004 544.164 544.132 544.144 544.302 544.477 544.389 544.402 544.492 544.652 544.619 544.759 544.792 544.809 544.954 545.057 545.104 545.212 545.322 545.479 545.654 545.849 545.999 546.054 546.062 546.219 546.464 546.534 546.649 546.944 546.964 547.144 547.214 547.279 547.602 547.672 547.154 546.967 547.229 547.244 547.364 547.519 547.627 547.752 548.089 548.374 548.574 548.812 549.134 549.354 549.594 549.799 549.909 550.057 550.234 550.284 550.129 550.414
514.772 514.895 515 515.047 515.082 515.005 514.97 515.102 515.182 515.27 515.307 515.45 515.6 515.717 515.867 515.987 516.03 516.047 516.095 516.135 516.217 516.222 516.315 516.372 516.432 516.465 516.617 516.66 516.512 516.38 516.475 516.51 516.632 516.68 516.68 516.842 516.927 517.152 517.247 517.312 517.397 517.502 517.62 517.742 517.657 517.762 517.74 517.772 517.78 517.647 517.62 -9999 -9999 -9999 -9999 -9999 -9999 -9999 -9999 -9999 -9999 -9999 -9999 -9999 -9999 -9999 -9999 -9999 -9999 -9999 -9999 -9999 -9999 -9999 -9999 -9999 -9999 -9999 -9999 -9999 -9999 -9999 -9999 -9999 -9999 -9999 -9999 -9999 -9999 -9999 -9999 -9999 -9999 -9999 -9999 -9999 -9999 -9999 -9999 -9999 -9999 -9999 -9999 -9999 -9999 -9999 -9999 -9999 -9999 -9999 -9999 -9999 -9999 -9999 520.131 520.295 520.347 520.342 520.427 520.597 520.58 520.66 520.717 520.847 521.062 521.307 521.422 521.515 521.592 521.732 521.917 522.072 522.155 522.357 522.415 522.35 522.39 522.405 522.517 522.745 522.705 522.695 522.707 522.655 522.685 522.785 522.855 522.927 523.005 522.902 523.042 523.115 523.337 523.497 523.502 523.722 524.265 524.785 525.055 525.252 525.337 525.412 525.517 525.622 525.805 525.96 526.12 526.247 526.387 526.562 526.702 526.957 527.025 527.035 527.047 527.12 527.12 527.252 527.312 527.342 527.5 527.56 527.607 527.617 527.56 527.505 527.572 527.645 527.665 527.742 527.8 527.895 528.105 528.382 528.702 529.042 529.377 529.745 529.942 530.147 530.317 530.457 530.727 530.802 530.905 531.167 531.455 531.705 532.082 532.292 532.192 532.062 532.092 532.225 532.502 532.88 533.017 533.07 533.227 533.442 533.65 533.807 533.992 534.102 534.247 534.32 534.442 534.48 534.525 534.542 534.547 534.565 534.58 534.602 534.612 534.655 534.705 534.77 534.76 534.795 534.827 534.68 534.592 534.572 534.585 534.48 534.512 534.522 534.497 534.46 534.522 534.622 534.712 534.69 534.815 534.835 534.955 535.002 535.025 535.065 535.105 535.232 535.185 535.217 535.382 535.542 535.742 535.875 535.947 536.042 536.095 536.217 536.357 536.575 536.802 536.777 537.042 537.237 537.225 537.307 537.402 537.544 537.73 537.757 537.857 538.16 538.347 538.497 538.78 538.895 539.052 539.107 539.277 539.335 539.43 539.545 539.712 539.832 539.955 540.392 540.742 540.827 540.57 540.33 540.64 541.045 541.165 541.135 541.272 541.674 541.814 541.864 541.889 541.989 541.994 542.282 542.482 542.519 542.609 542.637 542.622 542.619 542.702 542.837 542.967 542.999 542.992 542.907 542.769 542.832 542.994 543.057 543.019 542.869 543.004 543.204 543.122 542.947 543.087 543.272 543.364 543.452 543.447 543.392 543.397 543.364 543.497 543.537 543.629 543.712 543.629 543.617 543.892 544.064 544.084 544.144 543.994 544.167 544.192 544.392 544.419 544.487 544.554 544.504 544.697 544.784 544.782 544.892 544.942 545.044 545.134 545.287 545.574 545.667 545.727 545.829 545.852 545.937 546.167 546.307 546.384 546.599 546.764 546.912 546.839 546.987 547.342 547.274 546.834 546.674 546.754 546.857 547.029 547.309 547.334 547.557 547.849 548.244 548.407 548.484 548.677 548.909 549.324 549.569 549.609 549.757 549.937 549.989 549.824 550.187
514.562 514.685 514.76 514.81 514.84 514.832 514.792 514.637 514.71 514.915 515.05 515.192 515.25 515.277 515.362 515.612 515.757 515.73 515.71 515.77 515.855 515.872 516.005 516.07 516.132 516.242 516.35 516.372 516.33 516.325 516.22 516.23 516.362 516.402 516.365 516.512 516.63 516.795 516.88 516.995 517.16 517.235 517.262 517.34 517.33 517.362 517.367 517.417 517.432 -9999 -9999 -9999 -9999 -9999 -9999 -9999 -9999 -9999 -9999 -9999 -9999 -9999 -9999 -9999 -9999 -9999 -9999 -9999 -9999 -9999 -9999 -9999 -9999 -9999 -9999 -9999 -9999 -9999 -9999 -9999 -9999 -9999 -9999 -9999 -9999 -9999 -9999 -9999 -9999 -9999 -9999 -9999 -9999 -9999 -9999 -9999 -9999 -9999 -9999 -9999 -9999 -9999 -9999 -9999 -9999 -9999 -9999 -9999 -9999 -9999 -9999 -9999 -9999 -9999 -9999 -9999 520.052 520.037 520.092 520.155 520.235 520.442 520.52 520.62 520.81 521.04 521.077 521.26 521.317 521.435 521.52 521.73 521.862 521.955 522.037 522.2 522.205 522.22 522.26 522.335 522.34 522.342 522.372 522.347 522.415 522.47 522.592 522.557 522.69 522.792 522.89 522.842 522.895 523.075 523.142 523.405 523.925 524.305 524.677 524.877 524.94 525.025 525.157 525.26 525.497 525.635 525.775 525.935 526.085 526.252 526.395 526.592 526.585 526.602 526.787 526.902 526.832 526.887 526.927 527.017 527.11 527.18 527.227 527.232 527.232 527.272 527.36 527.445 527.315 527.435 527.557 527.66 527.822 528.037 528.367 528.69 529.052 529.415 529.695 529.98 530.237 530.242 530.325 530.425 530.557 530.787 531.07 531.277 531.665 531.945 531.85 531.712 531.685 531.827 532.245 532.48 532.65 532.815 532.985 533.237 533.51 533.575 533.702 533.855 533.947 534.052 534.312 534.34 534.415 534.44 534.532 534.51 534.572 534.575 534.592 534.68 534.79 534.792 534.682 534.705 534.757 534.622 534.565 534.515 534.512 534.45 534.422 534.425 534.335 534.307 534.36 534.465 534.555 534.667 534.717 534.75 534.79 534.905 534.972 535.027 535.06 535.032 535.132 535.132 535.237 535.43 535.655 535.799 535.835 535.872 535.955 535.902 535.96 536.172 536.307 536.402 536.482 536.665 536.832 537.102 537.282 537.317 537.387 537.547 537.792 538.05 538.177 538.375 538.452 538.79 539.017 538.982 539.025 539.202 539.355 539.357 539.372 539.465 539.795 540.195 540.467 540.542 540.53 540.152 540.299 540.625 540.655 540.577 541.014 541.397 541.607 541.594 541.499 541.517 541.704 541.992 542.117 542.152 542.252 542.339 542.482 542.494 542.499 542.569 542.679 542.842 542.759 542.577 542.662 542.642 542.597 542.534 542.529 542.464 542.502 542.509 542.554 542.572 542.589 542.672 542.837 543.167 543.279 543.289 543.277 543.244 543.284 543.429 543.452 543.489 543.477 543.507 543.747 543.907 543.879 543.889 543.699 543.842 543.919 544.162 544.329 544.362 544.422 544.492 544.492 544.599 544.712 544.837 544.927 544.982 545.024 545.069 545.292 545.352 545.544 545.682 545.754 545.817 546.049 546.214 546.107 546.347 546.572 546.664 546.662 546.937 546.962 546.704 546.419 546.292 546.437 546.597 546.807 547.064 547.319 547.867 548.204 548.224 548.339 548.252 548.344 548.684 549.029 549.299 549.362 549.354 549.657 549.677 549.667 549.792
514.417 514.532 514.577 514.607 514.597 514.58 514.545 514.425 514.34 514.542 514.62 514.775 514.747 514.695 514.77 515.127 515.402 515.42 515.375 515.43 515.605 515.6 515.635 515.692 515.707 515.795 515.89 515.897 515.977 516.042 516.105 516.065 515.997 516.092 516.145 516.245 516.33 516.43 516.537 516.69 516.825 516.925 516.882 517.01 517.002 517.007 517.067 -9999 -9999 -9999 -9999 -9999 -9999 -9999 -9999 -9999 -9999 -9999 -9999 -9999 -9999 -9999 -9999 -9999 -9999 -9999 -9999 -9999 -9999 -9999 -9999 -9999 -9999 -9999 -9999 -9999 -9999 -9999 -9999 -9999 -9999 -9999 -9999 -9999 -9999 -9999 -9999 -9999 -9999 -9999 -9999 -9999 -9999 -9999 -9999 -9999 -9999 -9999 -9999 -9999 -9999 -9999 -9999 -9999 -9999 -9999 -9999 -9999 -9999 -9999 -9999 -9999 -9999 -9999 -9999 -9999 -9999 519.835 519.91 519.945 519.977 520.057 520.23 520.38 520.502 520.627 520.835 520.942 520.99 521.192 521.38 521.595 521.687 521.772 521.802 521.822 521.775 521.835 521.955 521.992 522.06 522.06 522.077 522.095 522.122 522.185 522.332 522.22 522.32 522.432 522.472 522.587 522.732 522.787 522.882 523.025 523.447 523.867 524.277 524.432 524.475 524.57 524.767 524.912 525.17 525.347 525.467 525.625 525.765 525.887 526.147 526.225 526.342 526.315 526.46 526.495 526.447 526.49 526.627 526.767 526.817 526.88 526.91 526.935 526.952 527 527.105 527.157 526.93 527.185 527.345 527.46 527.587 527.79 528.05 528.34 528.712 529.185 529.487 529.785 529.872 529.91 529.99 530.01 530.23 530.442 530.655 530.872 531.2 531.46 531.365 531.305 531.282 531.477 531.837 532.107 532.35 532.642 532.875 533.067 533.237 533.365 533.405 533.502 533.595 533.725 534.062 534.17 534.237 534.3 534.295 534.315 534.332 534.427 534.505 534.522 534.58 534.607 534.575 534.46 534.515 534.592 534.602 534.58 534.525 534.552 534.415 534.305 534.247 534.222 534.215 534.277 534.377 534.497 534.585 534.612 534.672 534.795 534.885 534.917 535.012 535.04 535.037 535.06 535.147 535.395 535.632 535.672 535.867 535.962 535.99 535.927 535.947 536.117 536.227 536.377 536.487 536.572 536.707 536.965 537.08 537.195 537.245 537.365 537.772 538.052 538.105 537.94 537.972 538.497 538.71 538.715 538.585 538.692 538.74 538.905 539.102 539.395 539.685 539.947 540.205 540.312 540.185 539.95 540.022 540.267 540.312 540.355 540.734 541.027 541.227 541.282 541.267 541.287 541.499 541.599 541.662 541.742 541.919 542.072 542.232 542.227 542.254 542.262 542.302 542.297 542.437 542.767 542.574 542.212 542.094 542.022 542.162 542.264 542.317 542.392 542.407 542.509 542.462 542.549 542.612 542.904 543.007 543.082 543.172 543.087 543.087 543.262 543.364 543.429 543.514 543.552 543.599 543.692 543.574 543.392 543.539 543.714 543.794 543.874 544.024 544.074 544.179 544.322 544.374 544.442 544.567 544.632 544.832 544.892 544.779 544.927 544.984 545.064 545.442 545.597 545.652 545.637 545.769 545.952 545.917 546.114 546.149 546.282 546.407 546.504 546.344 546.169 546.027 546.134 546.302 546.479 546.872 547.289 547.742 547.904 548.019 548.059 548.017 548.067 548.177 548.492 548.759 548.807 549.007 549.197 549.342 549.309 549.372 549.517
