ncols 451
nrows 29
xllcorner    386020
yllcorner    475744
cellsize     2
NODATA_value -9999
-9999 -9999 -9999 -9999 -9999 -9999 -9999 -9999 -9999 -9999 -9999 -9999 -9999 -9999 -9999 -9999 -9999 -9999 -9999 -9999 -9999 -9999 -9999 -9999 -9999 -9999 -9999 -9999 -9999 -9999 -9999 -9999 -9999 -9999 -9999 -9999 -9999 -9999 -9999 -9999 -9999 -9999 -9999 -9999 -9999 -9999 -9999 -9999 -9999 -9999 -9999 -9999 -9999 -9999 -9999 -9999 -9999 -9999 -9999 -9999 -9999 -9999 -9999 -9999 -9999 -9999 -9999 -9999 -9999 -9999 -9999 -9999 -9999 -9999 -9999 -9999 -9999 -9999 -9999 -9999 -9999 -9999 -9999 -9999 -9999 -9999 -9999 -9999 -9999 -9999 -9999 -9999 -9999 -9999 -9999 -9999 -9999 -9999 -9999 -9999 -9999 -9999 -9999 -9999 -9999 -9999 -9999 -9999 -9999 -9999 -9999 -9999 -9999 -9999 -9999 -9999 -9999 -9999 -9999 -9999 -9999 -9999 -9999 -9999 -9999 -9999 -9999 -9999 -9999 -9999 -9999 535.88 535.815 535.542 535.242 534.955 534.737 534.607 534.61 534.695 534.61 534.435 534.22 534.16 534.163 534.138 534.055 533.905 533.755 533.635 533.493 533.388 533.29 533.182 533.085 532.965 532.795 532.753 532.685 532.658 532.575 532.483 532.425 532.225 532.17 532.173 532.085 532.035 531.94 531.838 531.79 531.7 531.628 531.643 531.463 531.238 531.048 530.875 530.738 530.498 530.253 530.033 529.872 529.7 529.58 529.393 529.158 529.018 529.023 528.96 528.765 528.46 528.165 527.978 527.725 527.48 527.073 526.755 526.425 526.133 525.843 525.56 525.535 525.258 524.933 524.568 524.185 523.72 522.723 522.433 522.263 522.093 521.625 521.38 521.015 520.833 520.608 520.483 520.423 520.463 520.41 520.285 520.293 520.26 520.143 519.89 519.703 519.625 519.553 519.425 519.623 519.81 519.723 519.525 519.26 519.118 518.883 518.695 518.523 518.26 517.81 517.435 517.263 517.1 516.975 516.808 516.583 516.378 516.133 515.705 515.258 515.095 514.818 514.495 514.345 514.198 513.778 513.363 512.993 512.58 512.285 512.065 511.915 511.69 511.405 511.17 510.898 510.813 510.63 510.35 510.118 509.84 509.565 509.305 508.875 508.308 507.498 506.528 505.815 505.15 504.503 504.055 503.835 503.675 503.708 503.598 503.255 502.913 502.73 502.62 502.395 502.178 502.005 502.025 502.173 502.238 502.108 501.828 501.598 501.485 501.253 500.928 500.67 500.548 500.385 500.065 499.663 499.135 498.743 498.41 497.923 497.558 497.265 496.913 496.598 496.443 496.308 496.253 496.213 496.308 496.255 496.053 495.745 495.433 495.19 495.118 494.93 494.738 494.323 493.655 493.103 492.918 492.865 492.958 492.935 492.748 492.505 492.47 492.308 491.858 491.48 491.108 490.858 490.61 490.34 490.098 489.865 489.713 489.378 489.13 488.913 488.818 488.69 488.395 488.393 488.363 488.205 488.015 487.475 487.138 486.94 486.843 486.675 486.553 486.403 486.17 485.958 485.685 485.398 485.133 484.87 484.33 483.978 483.773 483.803 483.858 483.63 483.333 483.073 483.028 483.02 482.935 482.578 482.09 481.725 481.54 480.6 480.075 479.383 478.938 478.708 478.488 478.28 478.033 477.66 477.255 476.898 476.513 476.188 475.973 475.688 475.395 475.143 474.975 474.736 474.573 474.395 474.195 473.978 473.77 473.535 473.315 473.06 472.645 472.313 471.96 471.633 471.233 470.678 470.128 469.708 469.403 469.218 469.085 469.035 468.778 468.363 468.03 467.645 467.293 466.968 466.546 465.953 465.373 465.038 464.728 464.301 463.775 463.218 462.633 462.108 461.608 461.001 460.401 459.821 459.531 459.241 458.791 458.291 457.808 457.323
-9999 -9999 -9999 -9999 -9999 -9999 -9999 -9999 -9999 -9999 -9999 -9999 -9999 -9999 -9999 -9999 -9999 -9999 -9999 -9999 -9999 -9999 -9999 -9999 -9999 -9999 -9999 -9999 -9999 -9999 -9999 -9999 -9999 -9999 -9999 -9999 -9999 -9999 -9999 -9999 -9999 -9999 -9999 -9999 -9999 -9999 -9999 -9999 -9999 -9999 -9999 -9999 -9999 -9999 -9999 -9999 -9999 -9999 -9999 -9999 -9999 -9999 -9999 -9999 -9999 -9999 -9999 -9999 -9999 -9999 -9999 -9999 -9999 -9999 -9999 -9999 -9999 -9999 -9999 -9999 -9999 -9999 -9999 -9999 -9999 -9999 -9999 -9999 -9999 -9999 -9999 -9999 -9999 -9999 -9999 -9999 -9999 -9999 -9999 -9999 -9999 -9999 -9999 -9999 -9999 -9999 -9999 -9999 -9999 -9999 -9999 -9999 -9999 -9999 -9999 -9999 -9999 -9999 -9999 -9999 -9999 -9999 -9999 -9999 -9999 -9999 -9999 -9999 -9999 -9999 -9999 -9999 536.243 536 535.818 535.52 535.225 535.035 535.235 535.215 535.128 535 534.925 534.87 534.868 534.81 534.805 534.673 534.528 534.315 534.125 533.9 533.775 533.63 533.598 533.555 533.423 533.385 533.335 533.295 533.17 533.045 532.933 532.81 532.753 532.75 532.715 532.683 532.545 532.355 532.315 532.28 532.163 532.175 532.138 531.915 531.695 531.528 531.44 531.303 530.968 530.645 530.485 530.393 530.233 529.945 529.773 529.67 529.565 529.488 529.3 529.073 528.803 528.573 528.333 528.155 527.843 527.473 527.13 526.88 526.56 526.183 526.048 525.893 525.68 525.345 525.055 524.518 523.278 522.865 522.705 522.34 521.875 521.698 521.683 521.425 521.18 521.193 521.195 520.913 520.848 520.758 520.643 520.6 520.55 520.433 520.345 520.185 520.07 520.128 520.23 520.413 520.283 520.163 519.975 519.835 519.628 519.375 519.25 519.145 518.71 518.438 518.308 518.128 517.98 517.793 517.535 517.363 517.048 516.468 516.1 515.778 515.698 515.438 515.34 515.175 514.75 514.36 513.878 513.505 513.265 513.228 512.99 512.84 512.568 512.303 512.038 511.928 511.765 511.503 511.248 511.005 510.718 510.395 510.015 509.635 508.995 508.105 507.368 506.793 505.985 505.343 504.76 504.283 504.193 503.875 503.415 502.993 502.733 502.7 502.683 502.55 502.42 502.378 502.515 502.65 502.513 502.223 501.935 501.763 501.56 501.303 501.02 500.835 500.693 500.51 500.253 499.708 499.22 498.845 498.258 497.82 497.603 497.27 497.065 497.088 497.118 497.03 497.04 496.973 496.875 496.76 496.548 496.398 496.245 496.068 495.88 495.61 495.2 494.75 494.323 494.193 494.093 493.925 493.75 493.548 493.325 493.055 492.918 492.585 492.28 491.728 491.415 491.223 490.986 490.753 490.503 490.268 489.973 489.788 489.653 489.373 489.2 489.033 489.025 488.965 488.798 488.35 488.065 487.736 487.478 487.31 487.095 486.993 486.815 486.608 486.388 486.115 485.828 485.623 485.405 484.853 484.563 484.258 483.76 484.301 484.593 484.305 483.938 483.725 483.528 483.355 483.04 482.63 482.278 481.895 481.085 480.773 480.015 479.613 479.378 479.186 478.966 478.688 478.343 477.936 477.598 477.223 476.786 476.568 476.263 475.973 475.721 475.496 475.296 475.121 474.941 474.696 474.421 474.216 473.988 473.806 473.548 473.173 472.766 472.393 471.926 471.468 470.898 470.431 470.076 469.858 469.868 469.956 469.821 469.461 469.046 468.646 468.256 467.931 467.618 467.113 466.526 466.086 465.838 465.426 464.823 464.293 463.768 463.281 462.781 462.248 461.696 461.101 460.518 460.336 459.911 459.316 458.713 458.213 457.788
-9999 -9999 -9999 -9999 -9999 -9999 -9999 -9999 -9999 -9999 -9999 -9999 -9999 -9999 -9999 -9999 -9999 -9999 -9999 -9999 -9999 -9999 -9999 -9999 -9999 -9999 -9999 -9999 -9999 -9999 -9999 -9999 -9999 -9999 -9999 -9999 -9999 -9999 -9999 -9999 -9999 -9999 -9999 -9999 -9999 -9999 -9999 -9999 -9999 -9999 -9999 -9999 -9999 -9999 -9999 -9999 -9999 -9999 -9999 -9999 -9999 -9999 -9999 -9999 -9999 -9999 -9999 -9999 -9999 -9999 -9999 -9999 -9999 -9999 -9999 -9999 -9999 -9999 -9999 -9999 -9999 -9999 -9999 -9999 -9999 -9999 -9999 -9999 -9999 -9999 -9999 -9999 -9999 -9999 -9999 -9999 -9999 -9999 -9999 -9999 -9999 -9999 -9999 -9999 -9999 -9999 -9999 -9999 -9999 -9999 -9999 -9999 -9999 -9999 -9999 -9999 -9999 -9999 -9999 -9999 -9999 -9999 -9999 -9999 -9999 -9999 -9999 -9999 -9999 -9999 -9999 -9999 -9999 -9999 536.418 536.085 535.855 535.733 536.403 536.005 535.7 535.6 535.528 535.52 535.4 535.32 535.293 535.288 535.09 534.938 534.678 534.328 534.255 534.208 534.135 534.11 534.063 534.088 534.068 534.008 533.845 533.743 533.548 533.32 533.19 533.213 533.18 533.16 533.14 533.018 532.935 532.95 532.828 532.73 532.65 532.5 532.293 532.173 532.035 531.84 531.593 531.363 531.123 530.933 530.715 530.478 530.318 530.22 530.06 529.973 529.793 529.575 529.283 529.08 528.88 528.753 528.508 528.168 527.835 527.52 527.14 526.733 526.595 526.56 526.38 526.135 525.773 525.39 524.13 523.53 523.428 522.973 522.828 522.495 522.448 522.185 521.953 521.9 521.835 521.618 521.37 521.28 521.22 521.188 521.263 521.22 521.093 520.865 520.703 520.663 520.73 520.808 520.82 520.7 520.455 520.253 520.178 520.033 519.953 519.855 519.62 519.398 519.203 518.965 518.76 518.53 518.273 518.013 517.7 517.335 517.083 516.875 516.693 516.388 516.31 516.065 515.69 515.248 514.795 514.523 514.403 514.26 514.04 513.785 513.56 513.32 513.135 513.098 513.03 512.723 512.413 512.133 511.788 511.465 511.21 510.843 510.295 509.78 509.09 508.455 507.678 507.033 506.203 505.428 505.048 504.373 503.893 503.43 503.12 502.798 502.715 502.76 502.845 502.858 502.913 503.033 502.87 502.493 502.138 501.935 501.733 501.468 501.22 501.018 500.868 500.703 500.525 500.17 499.765 499.47 498.973 498.203 498.06 497.915 497.798 497.848 497.91 497.813 497.678 497.573 497.505 497.31 497.18 497.023 496.93 496.635 496.533 496.288 495.96 495.645 495.425 495.295 495.073 494.653 494.378 494.32 494.335 494.023 493.77 493.465 493.035 492.523 492.245 492.048 491.855 491.546 491.238 490.921 490.645 490.443 490.36 490.15 489.9 489.765 489.7 489.463 489.15 488.82 488.705 488.448 488.13 487.873 487.623 487.458 487.183 487.078 486.918 486.703 486.361 486.043 485.835 485.483 485.138 484.74 483.991 484.388 484.695 484.94 484.903 484.373 484.035 483.663 483.4 482.988 482.676 482.523 482.048 481.083 480.688 480.303 479.943 479.701 479.536 479.266 478.918 478.581 478.318 477.938 477.556 477.213 476.891 476.576 476.306 476.038 475.828 475.663 475.448 475.206 474.898 474.666 474.411 474.206 473.936 473.638 473.286 472.908 472.326 471.626 471.153 470.648 470.301 470.326 470.541 470.666 470.498 470.126 469.676 469.226 468.831 468.518 468.163 467.681 467.223 466.766 466.508 465.936 465.373 464.891 464.421 463.923 463.446 462.928 462.393 461.796 461.313 461.048 460.508 459.918 459.246 458.766 458.348
-9999 -9999 -9999 -9999 -9999 -9999 -9999 -9999 -9999 -9999 -9999 -9999 -9999 -9999 -9999 -9999 -9999 -9999 -9999 -9999 -9999 -9999 -9999 -9999 -9999 -9999 -9999 -9999 -9999 -9999 -9999 -9999 -9999 -9999 -9999 -9999 -9999 -9999 -9999 -9999 -9999 -9999 -9999 -9999 -9999 -9999 -9999 -9999 -9999 -9999 -9999 -9999 -9999 -9999 -9999 -9999 -9999 -9999 -9999 -9999 -9999 -9999 -9999 -9999 -9999 -9999 -9999 -9999 -9999 -9999 -9999 -9999 -9999 -9999 -9999 -9999 -9999 -9999 -9999 -9999 -9999 -9999 -9999 -9999 -9999 -9999 -9999 -9999 -9999 -9999 -9999 -9999 -9999 -9999 -9999 -9999 -9999 -9999 -9999 -9999 -9999 -9999 -9999 -9999 -9999 -9999 -9999 -9999 -9999 -9999 -9999 -9999 -9999 -9999 -9999 -9999 -9999 -9999 -9999 -9999 -9999 -9999 -9999 -9999 -9999 -9999 -9999 -9999 -9999 -9999 -9999 -9999 -9999 -9999 -9999 -9999 -9999 536.438 536.48 536.46 536.363 536.178 536.05 535.958 535.863 535.748 535.675 535.598 535.618 535.428 535.323 535.043 534.945 535.028 534.883 534.873 534.788 534.79 534.79 534.723 534.575 534.443 534.188 533.855 533.563 533.563 533.743 533.718 533.645 533.56 533.435 533.37 533.385 533.27 533.15 533.033 532.888 532.8 532.62 532.363 532.148 531.895 531.815 531.65 531.36 531.123 530.895 530.73 530.593 530.418 530.183 530.078 529.838 529.63 529.43 529.343 529.128 528.875 528.563 528.23 527.763 527.343 527.07 527.123 527.003 526.863 526.673 526.22 525.255 524.518 524.285 524.195 523.885 523.703 523.41 523.118 522.595 522.335 522.37 522.22 522.05 521.965 521.793 521.938 522.075 521.915 521.7 521.38 521.335 521.178 521.26 521.288 521.28 521.078 520.913 520.843 520.82 520.66 520.645 520.65 520.45 520.31 519.998 519.673 519.445 519.235 518.935 518.643 518.423 518.19 518 517.88 517.583 517.258 517.088 516.88 516.59 516.228 515.683 515.475 515.36 515.213 514.97 514.745 514.55 514.42 514.215 514.308 514.285 513.985 513.553 513.168 512.838 512.565 512.23 511.888 511.453 511.148 510.798 510.133 509.423 508.575 507.78 506.91 506.245 505.615 505.023 504.655 504.173 503.583 503.405 503.31 503.265 503.408 503.558 503.583 503.423 503.12 502.75 502.36 502.03 501.808 501.523 501.3 501.088 500.878 500.765 500.555 500.275 500.055 499.78 499.305 498.998 498.743 498.665 498.66 498.605 498.543 498.493 498.31 498.145 497.963 497.82 497.598 497.44 497.323 497.045 496.873 496.605 496.325 496.158 496 495.56 495.123 494.893 494.843 494.85 494.918 494.69 494.238 493.905 493.528 493.165 492.963 492.698 492.348 491.908 491.598 491.328 491.165 491.03 490.87 490.515 490.41 490.176 489.955 489.768 489.458 489.34 489.055 488.665 488.413 488.103 487.87 487.713 487.508 487.303 487.048 486.653 486.383 486.245 485.998 485.68 485.383 485.015 485.128 485.31 485.283 485.16 485.178 484.508 484.028 483.673 483.295 483.085 482.81 482.473 481.738 481.383 480.93 480.486 480.233 480.003 479.856 479.438 479.186 478.966 478.601 478.248 477.958 477.538 477.143 476.948 476.691 476.443 476.216 476.021 475.773 475.463 475.158 474.898 474.713 474.428 474.161 473.788 473.368 472.688 471.901 471.431 471.081 470.793 470.923 471.178 471.316 471.078 470.701 470.271 469.843 469.468 469.101 468.663 468.201 467.846 467.471 466.993 466.493 466.008 465.488 465.018 464.581 464.128 463.658 463.091 462.456 462.158 461.661 461.066 460.583 460.001 459.443 459.001
-9999 -9999 -9999 -9999 -9999 -9999 -9999 -9999 -9999 -9999 -9999 -9999 -9999 -9999 -9999 -9999 -9999 -9999 -9999 -9999 -9999 -9999 -9999 -9999 -9999 -9999 -9999 -9999 -9999 -9999 -9999 -9999 -9999 -9999 -9999 -9999 -9999 -9999 -9999 -9999 -9999 -9999 -9999 -9999 -9999 -9999 -9999 -9999 -9999 -9999 -9999 -9999 -9999 -9999 -9999 -9999 -9999 -9999 -9999 -9999 -9999 -9999 -9999 -9999 -9999 -9999 -9999 -9999 -9999 -9999 -9999 -9999 -9999 -9999 -9999 -9999 -9999 -9999 -9999 -9999 -9999 -9999 -9999 -9999 -9999 -9999 -9999 -9999 -9999 -9999 -9999 -9999 -9999 -9999 -9999 -9999 -9999 -9999 -9999 -9999 -9999 -9999 -9999 -9999 -9999 -9999 -9999 -9999 -9999 -9999 -9999 -9999 -9999 -9999 -9999 -9999 -9999 -9999 -9999 -9999 -9999 -9999 -9999 -9999 -9999 -9999 -9999 -9999 -9999 -9999 -9999 -9999 -9999 -9999 -9999 -9999 -9999 -9999 -9999 -9999 536.784 536.843 536.625 536.52 536.268 536.15 536.11 536.023 535.978 535.965 535.963 535.835 535.865 535.95 535.8 535.825 535.793 535.675 535.59 535.393 535.233 535.08 534.753 534.388 534.13 534.075 534.253 534.263 534.265 534.068 533.893 533.775 533.673 533.558 533.455 533.54 533.623 533.4 533.11 532.845 532.735 532.578 532.478 532.3 532.043 531.695 531.485 531.323 531.23 530.948 530.765 530.703 530.413 530.228 530.023 529.845 529.71 529.513 529.253 528.908 528.463 528.108 527.883 527.833 527.633 527.473 527.353 526.933 526.243 525.68 525.275 525.3 525.168 524.93 524.488 523.968 523.298 522.87 522.653 522.668 522.628 522.698 522.678 522.775 522.78 522.44 522.063 521.88 521.975 522.023 521.843 521.743 521.723 521.65 521.465 521.463 521.448 521.468 521.388 521.348 521.223 521.058 520.763 520.29 519.91 519.733 519.548 519.325 519.128 519.008 518.84 518.61 518.323 518.003 517.828 517.678 517.473 517.168 516.755 516.468 516.273 516.113 515.865 515.71 515.613 515.478 515.305 515.483 515.638 515.288 514.683 514.208 513.818 513.48 513.135 512.828 512.46 512.178 511.805 511.383 510.948 510.223 509.268 508.663 507.935 507.243 506.52 506.005 505.46 504.9 504.553 504.283 504.023 504.065 504.208 504.195 504.148 504.038 503.738 503.313 502.793 502.483 502.253 502.078 501.88 501.673 501.493 501.265 500.948 500.715 500.535 500.265 499.998 499.83 499.658 499.458 499.26 498.985 498.933 498.848 498.7 498.798 498.615 498.395 498.143 497.905 497.503 497.28 497.113 496.95 496.775 496.543 496.033 495.62 495.465 495.44 495.488 495.445 495.298 495.08 494.823 494.483 494.065 493.72 493.405 493.065 492.66 492.34 492.083 491.888 491.825 491.518 491.268 491.125 490.923 490.633 490.38 490.185 489.875 489.585 489.253 488.968 488.688 488.398 488.123 487.965 487.75 487.385 486.968 486.788 486.71 486.448 486.268 485.955 485.635 485.623 485.68 485.583 485.35 485.073 484.865 484.55 483.875 483.483 483.32 483.2 482.86 482.398 482.053 481.758 481.113 480.896 480.633 480.278 479.953 479.886 479.611 479.198 478.891 478.678 478.336 477.948 477.671 477.378 477.078 476.843 476.641 476.391 476.003 475.683 475.481 475.291 474.993 474.661 474.291 473.816 473.016 472.083 471.731 471.441 471.251 471.466 471.858 471.863 471.588 471.216 470.798 470.431 470.101 469.698 469.218 468.778 468.511 468.136 467.498 467.051 466.616 466.086 465.666 465.256 464.818 464.341 463.763 463.131 462.688 462.233 461.668 461.211 460.723 460.193 459.718
-9999 -9999 -9999 -9999 -9999 -9999 -9999 -9999 -9999 -9999 -9999 -9999 -9999 -9999 -9999 -9999 -9999 -9999 -9999 -9999 -9999 -9999 -9999 -9999 -9999 -9999 -9999 -9999 -9999 -9999 -9999 -9999 -9999 -9999 -9999 -9999 -9999 -9999 -9999 -9999 -9999 -9999 -9999 -9999 -9999 -9999 -9999 -9999 -9999 -9999 -9999 -9999 -9999 -9999 -9999 -9999 -9999 -9999 -9999 -9999 -9999 -9999 -9999 -9999 -9999 -9999 -9999 -9999 -9999 -9999 -9999 -9999 -9999 -9999 -9999 -9999 -9999 -9999 -9999 -9999 -9999 -9999 -9999 -9999 -9999 -9999 -9999 -9999 -9999 -9999 -9999 -9999 -9999 -9999 -9999 -9999 -9999 -9999 -9999 -9999 -9999 -9999 -9999 -9999 -9999 -9999 -9999 -9999 -9999 -9999 -9999 -9999 -9999 -9999 -9999 -9999 -9999 -9999 -9999 -9999 -9999 -9999 -9999 -9999 -9999 -9999 -9999 -9999 -9999 -9999 -9999 -9999 -9999 -9999 -9999 -9999 -9999 -9999 -9999 -9999 -9999 -9999 -9999 537.067 537.098 536.898 536.703 536.645 536.578 536.485 536.428 536.47 536.488 536.675 536.755 536.635 536.63 536.5 536.305 536.033 535.833 535.665 535.34 535.018 534.808 534.69 534.833 534.848 534.83 534.713 534.413 534.223 534.038 533.82 533.85 533.84 534.123 533.763 533.495 533.275 533.243 533.188 533.103 532.933 532.62 532.31 532.115 532.025 532.008 531.678 531.503 531.273 531.025 530.823 530.66 530.478 530.36 530.198 529.883 529.585 529.243 528.953 528.715 528.63 528.525 528.26 528.06 527.658 527.163 526.95 526.59 526.548 526.215 525.828 525.34 524.895 524.28 523.775 523.575 523.49 523.5 523.638 523.528 523.345 523.135 522.96 522.723 522.435 522.383 522.538 522.49 522.368 522.19 522.203 522.343 522.248 522.11 521.99 522.005 521.975 521.938 521.73 521.533 521.138 520.733 520.358 520.15 520.048 519.9 519.748 519.515 519.268 519.018 518.745 518.625 518.463 518.218 517.95 517.62 517.353 517.12 516.94 516.745 516.728 516.71 516.565 516.478 516.44 516.49 516.335 515.76 515.185 514.738 514.353 514.158 513.8 513.445 513.18 512.753 512.403 512.085 511.575 510.975 510.215 509.633 508.835 508.013 507.403 506.83 506.108 505.728 505.468 505.12 504.968 505.053 505.015 505.003 504.943 504.735 504.25 503.675 503.255 503.128 503.14 503.025 502.933 502.61 502.233 501.778 501.46 501.2 501.035 500.803 500.633 500.36 500.028 499.79 499.535 499.348 499.36 499.443 499.485 499.358 499.193 499.093 498.905 498.585 498.028 497.69 497.475 497.315 497.023 496.625 496.213 496.048 496.045 496.138 495.98 496.01 495.808 495.465 495.12 494.768 494.326 493.915 493.66 493.38 493.11 492.796 492.623 492.35 492.168 491.915 491.718 491.58 491.313 490.978 490.79 490.613 490.178 489.94 489.63 489.373 489.145 488.725 488.435 488.19 487.921 487.593 487.445 487.193 486.975 486.773 486.47 486.38 486.468 486.278 485.993 485.7 485.423 484.975 484.58 484.671 483.898 483.585 483.43 483.188 482.863 482.508 482.145 481.676 481.441 481.108 481.023 481.033 480.431 480.373 480.056 479.648 479.303 478.973 478.703 478.376 478.091 477.751 477.496 477.218 476.918 476.553 476.266 476.068 475.818 475.513 475.148 474.793 474.256 473.338 472.323 472.091 471.926 471.858 472.146 472.421 472.303 472.056 471.746 471.388 471.036 470.661 470.191 469.566 469.343 469.111 468.581 468.078 467.671 467.293 466.838 466.406 465.983 465.556 465.013 464.306 463.778 463.361 462.936 462.306 461.903 461.488 460.941 460.448
-9999 -9999 -9999 -9999 -9999 -9999 -9999 -9999 -9999 -9999 -9999 -9999 -9999 -9999 -9999 -9999 -9999 -9999 -9999 -9999 -9999 -9999 -9999 -9999 -9999 -9999 -9999 -9999 -9999 -9999 -9999 -9999 -9999 -9999 -9999 -9999 -9999 -9999 -9999 -9999 -9999 -9999 -9999 -9999 -9999 -9999 -9999 -9999 -9999 -9999 -9999 -9999 -9999 -9999 -9999 -9999 -9999 -9999 -9999 -9999 -9999 -9999 -9999 -9999 -9999 -9999 -9999 -9999 -9999 -9999 -9999 -9999 -9999 -9999 -9999 -9999 -9999 -9999 -9999 -9999 -9999 -9999 -9999 -9999 -9999 -9999 -9999 -9999 -9999 -9999 -9999 -9999 -9999 -9999 -9999 -9999 -9999 -9999 -9999 -9999 -9999 -9999 -9999 -9999 -9999 -9999 -9999 -9999 -9999 -9999 -9999 -9999 -9999 -9999 -9999 -9999 -9999 -9999 -9999 -9999 -9999 -9999 -9999 -9999 -9999 -9999 -9999 -9999 -9999 -9999 -9999 -9999 -9999 -9999 -9999 -9999 -9999 -9999 -9999 -9999 -9999 -9999 -9999 -9999 -9999 -9999 -9999 537.47 537.34 537.263 537.118 536.988 536.995 537.17 537.215 537.16 537.158 537.2 537.058 536.725 536.443 536.173 535.88 535.67 535.538 535.483 535.51 535.483 535.463 535.325 535.043 534.745 534.558 534.388 534.373 534.393 534.385 534.388 534.138 533.818 533.743 533.793 533.675 533.433 533.173 532.845 532.648 532.63 532.548 532.29 532.07 531.868 531.66 531.42 531.245 531.09 531.068 530.928 530.638 530.258 529.965 529.75 529.545 529.435 529.32 529.153 528.985 528.735 528.09 527.605 527.653 527.453 527.098 526.39 526.078 525.818 525.365 525.055 524.905 524.783 524.553 524.448 524.333 524.12 523.733 523.435 523.388 523.258 523.138 522.98 522.86 522.743 522.66 522.678 522.928 522.908 522.675 522.598 522.733 522.76 522.733 522.588 522.39 522.008 521.695 521.425 521.16 521.035 520.908 520.665 520.285 520.005 519.768 519.508 519.365 519.18 518.913 518.663 518.4 518.088 517.863 517.738 517.625 517.643 517.763 517.768 517.658 517.455 517.34 517.195 516.753 516.18 515.71 515.33 515.133 514.785 514.493 514.17 513.525 513.173 512.965 512.495 511.988 511.563 511.038 510.36 509.613 508.953 508.215 507.538 507.085 506.548 506.398 506.29 506.115 506.048 505.935 505.805 505.505 505.073 504.563 504.113 503.823 503.705 503.755 503.868 503.498 503.223 502.828 502.368 501.998 501.738 501.445 501.16 500.868 500.553 500.143 499.955 499.84 499.81 499.913 499.94 499.938 499.933 499.883 499.73 499.53 499.103 498.558 498.18 497.953 497.74 497.488 497.118 496.728 496.788 496.888 496.783 496.62 496.303 495.99 495.593 495.225 494.71 494.445 494.265 494.168 493.88 493.463 493.183 492.943 492.755 492.611 492.44 492.233 491.995 491.595 491.37 491.245 490.973 490.695 490.486 490.19 489.908 489.565 489.27 489.063 488.923 488.611 488.268 487.878 487.615 487.298 487.078 487.365 487.448 487.263 486.673 486.178 485.79 485.228 484.685 484.306 484.46 484.135 483.753 483.52 483.245 482.965 482.635 482.333 482.036 481.793 481.738 481.723 481.396 481.311 480.921 480.941 480.048 479.618 479.346 479.026 478.723 478.386 478.148 477.788 477.483 477.093 476.866 476.681 476.373 476.026 475.641 475.258 474.583 473.581 472.628 472.351 472.318 472.361 472.731 472.873 472.778 472.531 472.203 471.881 471.551 471.108 470.483 470.183 469.991 469.588 469.133 468.733 468.493 468.026 467.601 467.163 466.711 466.218 465.613 465.038 464.448 464.241 463.828 463.218 462.696 462.248 461.778 461.303
-9999 -9999 -9999 -9999 -9999 -9999 -9999 -9999 -9999 -9999 -9999 -9999 -9999 -9999 -9999 -9999 -9999 -9999 -9999 -9999 -9999 -9999 -9999 -9999 -9999 -9999 -9999 -9999 -9999 -9999 -9999 -9999 -9999 -9999 -9999 -9999 -9999 -9999 -9999 -9999 -9999 -9999 -9999 -9999 -9999 -9999 -9999 -9999 -9999 -9999 -9999 -9999 -9999 -9999 -9999 -9999 -9999 -9999 -9999 -9999 -9999 -9999 -9999 -9999 -9999 -9999 -9999 -9999 -9999 -9999 -9999 -9999 -9999 -9999 -9999 -9999 -9999 -9999 -9999 -9999 -9999 -9999 -9999 -9999 -9999 -9999 -9999 -9999 -9999 -9999 -9999 -9999 -9999 -9999 -9999 -9999 -9999 -9999 -9999 -9999 -9999 -9999 -9999 -9999 -9999 -9999 -9999 -9999 -9999 -9999 -9999 -9999 -9999 -9999 -9999 -9999 -9999 -9999 -9999 -9999 -9999 -9999 -9999 -9999 -9999 -9999 -9999 -9999 -9999 -9999 -9999 -9999 -9999 -9999 -9999 -9999 -9999 -9999 -9999 -9999 -9999 -9999 -9999 -9999 -9999 -9999 -9999 -9999 -9999 -9999 537.71 537.668 537.56 537.635 537.758 537.69 537.715 537.788 537.888 537.53 537.04 536.783 536.578 536.46 536.373 536.123 536 536.175 536.133 535.98 535.675 535.403 535.225 535.07 535.025 534.993 535.05 535.103 534.993 534.695 534.425 534.393 534.29 533.96 533.658 533.44 533.208 533.113 533.048 532.86 532.693 532.538 532.268 532.058 531.88 531.713 531.603 531.438 531.223 530.955 530.743 530.488 530.308 530.098 529.985 529.958 529.84 529.528 529.145 528.663 528.515 528.385 528.1 527.65 527.248 527.213 526.858 526.31 526.003 525.815 525.543 525.455 525.4 525.295 524.96 524.758 524.438 524.153 523.82 523.57 523.558 523.453 523.53 523.48 523.575 523.415 523.57 523.733 523.65 523.655 523.673 523.483 523.245 522.823 522.523 522.385 522.31 522.21 522.12 521.875 521.438 520.968 520.603 520.288 520.11 519.975 519.73 519.475 519.11 518.855 518.713 518.593 518.548 518.633 518.87 518.853 518.495 517.958 517.91 517.943 517.668 517.13 516.66 516.345 516.108 515.828 515.548 515.165 514.69 514.238 513.765 513.34 512.903 512.473 511.97 511.483 510.858 510.33 509.745 509.16 508.488 507.9 507.718 507.575 507.313 507.143 506.945 506.668 506.333 505.87 505.46 505.128 504.863 504.655 504.495 504.398 504.305 504.14 503.805 503.325 502.855 502.435 502.113 501.753 501.355 501.085 500.735 500.453 500.313 500.17 500.165 500.153 500.21 500.318 500.348 500.25 500.115 499.828 499.448 498.963 498.528 498.263 498.16 498.045 497.688 497.548 497.518 497.318 497.11 496.733 496.453 496.083 495.72 495.333 495.046 494.945 494.863 494.563 494.205 493.908 493.673 493.451 493.283 493.118 492.868 492.66 492.345 492.023 491.935 491.748 491.54 491.285 490.995 490.74 490.39 490.125 490.073 489.803 489.428 489.158 488.611 488.1 487.818 488.048 488.208 487.998 487.723 487.426 486.885 486.143 485.53 485.015 484.685 484.415 484.458 484.373 483.963 483.535 483.143 482.938 482.753 482.538 482.433 482.411 482.346 482.188 481.986 481.841 481.458 480.983 480.398 479.948 479.668 479.348 478.981 478.663 478.328 478.008 477.683 477.481 477.273 476.958 476.621 476.198 475.601 474.713 473.686 472.946 472.653 472.811 473.106 473.441 473.381 473.238 472.986 472.671 472.351 472.033 471.496 470.926 470.841 470.691 470.116 469.626 469.443 469.161 468.693 468.261 467.841 467.388 466.851 466.243 465.751 465.326 465.098 464.683 464.128 463.586 463.058 462.603 462.116
-9999 -9999 -9999 -9999 -9999 -9999 -9999 -9999 -9999 -9999 -9999 -9999 -9999 -9999 -9999 -9999 -9999 -9999 -9999 -9999 -9999 -9999 -9999 -9999 -9999 -9999 -9999 -9999 -9999 -9999 -9999 -9999 -9999 -9999 -9999 -9999 -9999 -9999 -9999 -9999 -9999 -9999 -9999 -9999 -9999 -9999 -9999 -9999 -9999 -9999 -9999 -9999 -9999 -9999 -9999 -9999 -9999 -9999 -9999 -9999 -9999 -9999 -9999 -9999 -9999 -9999 -9999 -9999 -9999 -9999 -9999 -9999 -9999 -9999 -9999 -9999 -9999 -9999 -9999 -9999 -9999 -9999 -9999 -9999 -9999 -9999 -9999 -9999 -9999 -9999 -9999 -9999 -9999 -9999 -9999 -9999 -9999 -9999 -9999 -9999 -9999 -9999 -9999 -9999 -9999 -9999 -9999 -9999 -9999 -9999 -9999 -9999 -9999 -9999 -9999 -9999 -9999 -9999 -9999 -9999 -9999 -9999 -9999 -9999 -9999 -9999 -9999 -9999 -9999 -9999 -9999 -9999 -9999 -9999 -9999 -9999 -9999 -9999 -9999 -9999 -9999 -9999 -9999 -9999 -9999 -9999 -9999 -9999 -9999 -9999 -9999 -9999 -9999 -9999 538.453 538.46 538.483 538.365 538.383 538.288 537.638 537.408 537.36 537.23 537.078 536.798 536.485 536.735 536.753 536.643 536.37 536.065 535.865 535.743 535.805 535.835 535.83 535.935 535.713 535.473 535.173 535.035 534.823 534.46 534.27 534.07 533.925 533.788 533.623 533.47 533.288 533.045 532.783 532.603 532.448 532.31 532.11 531.98 531.833 531.67 531.478 531.295 531.083 530.838 530.675 530.725 530.668 530.385 530.03 529.54 529.123 528.978 528.97 528.853 528.605 528.54 528.373 527.955 527.405 526.973 526.745 526.725 526.643 526.325 526.328 526.14 525.838 525.483 525.105 524.855 524.613 524.39 524.405 524.298 524.138 524.138 524.175 524.47 524.658 524.71 524.588 524.313 524.098 523.663 523.405 523.28 523.175 523.11 523.1 522.95 522.333 521.798 521.403 521.098 520.908 520.705 520.365 520.128 519.815 519.625 519.598 519.51 519.463 519.498 519.558 519.488 519.218 518.783 518.78 518.848 518.558 518.035 517.69 517.443 517.173 516.91 516.543 516.165 515.62 515.155 514.64 514.268 513.825 513.418 512.908 512.453 511.76 511.253 510.945 510.388 509.85 509.428 509.115 508.878 508.563 508.215 507.84 507.515 507.33 507 506.755 506.46 506.265 506.068 505.748 505.43 505.358 505.16 504.855 504.45 503.643 503.145 502.798 502.418 501.978 501.678 501.388 501.048 500.798 500.57 500.38 500.338 500.373 500.358 500.573 500.658 500.59 500.405 500.083 499.555 499.01 498.88 498.803 498.703 498.51 498.215 497.928 497.73 497.503 497.068 496.671 496.428 496.13 495.783 495.515 495.32 495.283 495.108 494.828 494.546 494.298 494.115 493.94 493.758 493.575 493.343 493.143 492.83 492.673 492.408 492.218 492.063 491.788 491.498 491.183 490.94 490.9 490.54 490.098 489.853 489.218 488.57 488.508 488.798 488.718 488.48 488.188 487.883 487.368 486.698 485.888 485.375 485.13 484.933 484.693 484.478 484.463 484.313 483.578 483.175 483.063 482.956 482.911 482.791 482.756 482.696 482.678 482.616 482.338 482.016 481.468 480.748 480.236 479.958 479.668 479.298 478.923 478.528 478.216 477.926 477.773 477.541 477.218 476.723 476.038 474.871 473.893 473.433 473.286 473.631 473.971 474.013 473.868 473.678 473.403 473.091 472.771 472.406 471.736 471.353 471.326 471.106 470.641 470.256 470.061 469.711 469.313 468.918 468.496 468.018 467.371 466.873 466.496 466.196 465.836 465.393 464.883 464.351 463.883 463.411 462.881
-9999 -9999 -9999 -9999 -9999 -9999 -9999 -9999 -9999 -9999 -9999 -9999 -9999 -9999 -9999 -9999 -9999 -9999 -9999 -9999 -9999 -9999 -9999 -9999 -9999 -9999 -9999 -9999 -9999 -9999 -9999 -9999 -9999 -9999 -9999 -9999 -9999 -9999 -9999 -9999 -9999 -9999 -9999 -9999 -9999 -9999 -9999 -9999 -9999 -9999 -9999 -9999 -9999 -9999 -9999 -9999 -9999 -9999 -9999 -9999 -9999 -9999 -9999 -9999 -9999 -9999 -9999 -9999 -9999 -9999 -9999 -9999 -9999 -9999 -9999 -9999 -9999 -9999 -9999 -9999 -9999 -9999 -9999 -9999 -9999 -9999 -9999 -9999 -9999 -9999 -9999 -9999 -9999 -9999 -9999 -9999 -9999 -9999 -9999 -9999 -9999 -9999 -9999 -9999 -9999 -9999 -9999 -9999 -9999 -9999 -9999 -9999 -9999 -9999 -9999 -9999 -9999 -9999 -9999 -9999 -9999 -9999 -9999 -9999 -9999 -9999 -9999 -9999 -9999 -9999 -9999 -9999 -9999 -9999 -9999 -9999 -9999 -9999 -9999 -9999 -9999 -9999 -9999 -9999 -9999 -9999 -9999 -9999 -9999 -9999 -9999 -9999 -9999 -9999 -9999 -9999 -9999 -9999 538.883 538.85 538.478 538.013 538.015 537.973 537.795 537.618 537.48 537.42 537.303 537.23 537.07 536.693 536.43 536.375 536.445 536.635 536.69 536.585 536.368 536.125 535.923 535.743 535.463 535.095 534.853 534.8 534.653 534.395 534.245 533.998 533.853 533.585 533.348 533.098 532.995 532.923 532.683 532.57 532.543 532.36 532.185 532.013 531.805 531.655 531.525 531.43 531.495 531.115 530.838 530.428 529.993 529.648 529.793 529.778 529.64 529.62 529.42 529.163 528.898 528.675 528.47 528.025 527.69 527.558 527.455 527.22 526.98 526.753 526.43 526.035 525.588 525.228 524.965 524.748 524.523 524.408 524.7 525.145 525.305 525.388 525.32 525.098 524.835 524.538 524.28 524.02 523.89 523.825 523.75 523.7 523.195 522.513 522.143 521.825 521.613 521.355 520.975 520.758 520.603 520.525 520.535 520.37 520.288 520.255 520.158 520.075 519.913 519.658 519.535 519.445 519.293 518.98 518.655 518.383 518.218 518.045 517.663 517.115 516.573 516.048 515.563 515.093 514.748 514.348 513.9 513.34 512.658 512.275 511.688 511.363 511.2 510.92 510.615 510.293 509.873 509.508 509.063 508.805 508.55 508.238 508.045 507.733 507.515 507.255 506.903 506.583 506.318 506.053 505.768 505.335 504.615 503.97 503.63 503.258 502.708 502.28 502 501.663 501.38 501.138 500.82 500.66 500.645 500.688 500.723 500.868 500.955 500.805 500.62 500.105 499.525 499.515 499.495 499.36 498.983 498.673 498.358 497.983 497.835 497.593 497.22 496.98 496.525 496.195 495.973 495.743 495.603 495.55 495.31 495.088 494.94 494.738 494.671 494.443 494.253 494.085 493.955 493.673 493.41 493.093 492.96 492.685 492.426 492.195 491.993 491.673 491.723 491.415 490.923 490.613 489.968 489.49 489.533 489.353 489.265 488.998 488.62 488.29 487.76 486.993 486.39 485.87 485.665 485.573 485.403 485.253 484.863 484.65 484.4 483.838 483.611 483.433 483.333 483.181 483.076 483.023 482.971 482.928 482.976 482.658 482.318 481.768 481.063 480.648 480.311 480.053 479.528 479.166 478.928 478.603 478.381 478.133 477.778 477.263 476.408 475.101 474.238 473.913 473.973 474.423 474.701 474.583 474.351 474.128 473.846 473.506 473.103 472.598 472.113 471.958 471.798 471.523 471.081 470.748 470.466 470.158 469.856 469.516 469.073 468.486 467.811 467.486 467.301 466.978 466.538 466.058 465.583 465.078 464.603 464.198 463.673
-9999 -9999 -9999 -9999 -9999 -9999 -9999 -9999 -9999 -9999 -9999 -9999 -9999 -9999 -9999 -9999 -9999 -9999 -9999 -9999 -9999 -9999 -9999 -9999 -9999 -9999 -9999 -9999 -9999 -9999 -9999 -9999 -9999 -9999 -9999 -9999 -9999 -9999 -9999 -9999 -9999 -9999 -9999 -9999 -9999 -9999 -9999 -9999 -9999 -9999 -9999 -9999 -9999 -9999 -9999 -9999 -9999 -9999 -9999 -9999 -9999 -9999 -9999 -9999 -9999 -9999 -9999 -9999 -9999 -9999 -9999 -9999 -9999 -9999 -9999 -9999 -9999 -9999 -9999 -9999 -9999 -9999 -9999 -9999 -9999 -9999 -9999 -9999 -9999 -9999 -9999 -9999 -9999 -9999 -9999 -9999 -9999 -9999 -9999 -9999 -9999 -9999 -9999 -9999 -9999 -9999 -9999 -9999 -9999 -9999 -9999 -9999 -9999 -9999 -9999 -9999 -9999 -9999 -9999 -9999 -9999 -9999 -9999 -9999 -9999 -9999 -9999 -9999 -9999 -9999 -9999 -9999 -9999 -9999 -9999 -9999 -9999 -9999 -9999 -9999 -9999 -9999 -9999 -9999 -9999 -9999 -9999 -9999 -9999 -9999 -9999 -9999 -9999 -9999 -9999 -9999 -9999 -9999 -9999 -9999 -9999 538.903 538.72 538.633 538.58 538.405 538.308 538.13 537.955 537.845 537.7 537.28 536.978 536.878 536.97 537.135 537.188 537.135 537.06 536.925 536.66 536.455 536.123 535.748 535.53 535.565 535.308 534.94 534.778 534.603 534.343 534.098 533.86 533.663 533.52 533.45 533.32 533.158 533.045 532.943 532.868 532.688 532.548 532.468 532.358 532.198 532.173 532 531.668 531.363 531.035 530.753 530.765 530.863 530.82 530.67 530.415 530.18 529.918 529.733 529.53 529.243 528.988 528.853 528.658 528.403 528.083 527.775 527.485 527.175 526.828 526.49 526.173 526.103 525.76 525.593 525.528 525.593 525.735 525.88 525.835 525.6 525.368 525.335 525.105 524.8 524.785 524.62 524.438 524.183 523.773 523.26 522.945 522.583 522.313 521.995 521.673 521.483 521.428 521.358 521.4 521.335 521.263 521.098 520.853 520.703 520.595 520.333 520.195 520.098 520.04 519.808 519.525 519.283 519.103 518.863 518.48 518.023 517.465 516.97 516.525 516.09 515.668 515.273 514.89 514.325 513.823 513.313 512.638 512.42 512.425 512.158 511.845 511.54 511.165 510.773 510.41 510.08 509.823 509.455 509.088 508.745 508.435 508.068 507.75 507.45 507.13 506.83 506.548 506.205 505.73 505.07 504.508 504.068 503.515 502.998 502.62 502.305 501.99 501.815 501.55 501.13 501.028 501.06 501.038 500.965 501.01 500.953 500.843 500.495 499.938 499.888 499.848 499.675 499.33 499.095 498.745 498.315 498.173 497.968 497.743 497.4 496.96 496.645 496.47 496.228 495.975 495.875 495.72 495.633 495.448 495.285 495.195 495.053 494.873 494.743 494.573 494.423 494.118 493.85 493.653 493.403 493.133 492.94 492.75 492.458 492.43 492.203 491.7 491.338 490.808 490.563 490.315 490.035 489.703 489.453 489.093 488.785 488.26 487.413 486.986 486.705 486.523 486.33 486.29 486.095 485.745 485.213 484.861 484.903 484.361 483.993 483.816 483.696 483.618 483.538 483.456 483.306 483.241 483.208 483.008 482.776 482.391 482.158 481.808 481.473 480.291 479.843 479.626 479.336 479.036 478.653 478.318 477.736 476.818 475.491 474.773 474.593 474.808 475.266 475.333 475.111 474.826 474.558 474.263 473.888 473.403 472.956 472.608 472.451 472.301 471.913 471.526 471.186 470.871 470.631 470.376 470.086 469.511 468.853 468.406 468.218 468.003 467.651 467.193 466.723 466.223 465.773 465.298 464.911 464.438
-9999 -9999 -9999 -9999 -9999 -9999 -9999 -9999 -9999 -9999 -9999 -9999 -9999 -9999 -9999 -9999 -9999 -9999 -9999 -9999 -9999 -9999 -9999 -9999 -9999 -9999 -9999 -9999 -9999 -9999 -9999 -9999 -9999 -9999 -9999 -9999 -9999 -9999 -9999 -9999 -9999 -9999 -9999 -9999 -9999 -9999 -9999 -9999 -9999 -9999 -9999 -9999 -9999 -9999 -9999 -9999 -9999 -9999 -9999 -9999 -9999 -9999 -9999 -9999 -9999 -9999 -9999 -9999 -9999 -9999 -9999 -9999 -9999 -9999 -9999 -9999 -9999 -9999 -9999 -9999 -9999 -9999 -9999 -9999 -9999 -9999 -9999 -9999 -9999 -9999 -9999 -9999 -9999 -9999 -9999 -9999 -9999 -9999 -9999 -9999 -9999 -9999 -9999 -9999 -9999 -9999 -9999 -9999 -9999 -9999 -9999 -9999 -9999 -9999 -9999 -9999 -9999 -9999 -9999 -9999 -9999 -9999 -9999 -9999 -9999 -9999 -9999 -9999 -9999 -9999 -9999 -9999 -9999 -9999 -9999 -9999 -9999 -9999 -9999 -9999 -9999 -9999 -9999 -9999 -9999 -9999 -9999 -9999 -9999 -9999 -9999 -9999 -9999 -9999 -9999 -9999 -9999 -9999 -9999 -9999 -9999 -9999 -9999 539.34 539.31 539.153 539.003 538.888 538.708 538.51 538.405 538.065 537.633 537.39 537.46 537.513 537.46 537.448 537.533 537.463 537.258 537.08 536.785 536.455 536.28 536.11 535.808 535.558 535.348 535.118 534.915 534.675 534.443 534.22 534.035 533.965 533.86 533.85 533.655 533.513 533.405 533.3 533.213 533.138 533.025 532.79 532.615 532.663 532.58 532.33 532.065 531.773 531.615 531.6 531.723 531.535 531.405 531.215 530.968 530.82 530.675 530.393 530.1 529.933 529.683 529.535 529.32 529.088 528.783 528.403 528.123 527.843 527.543 527.333 527.083 526.775 526.608 526.463 526.243 526.223 526.125 526.008 525.913 526.015 525.883 525.57 525.385 525.403 525.178 524.858 524.418 524.013 523.713 523.328 523.035 522.673 522.423 522.318 522.24 522.213 522.188 522.1 521.995 521.858 521.593 521.35 521.263 521.07 520.838 520.745 520.743 520.578 520.353 520.038 519.795 519.505 519.158 518.748 518.378 518.003 517.52 517.053 516.69 516.358 515.903 515.35 514.783 514.318 513.793 513.665 513.568 513.265 512.923 512.555 512.165 511.865 511.49 511.09 510.843 510.425 509.948 509.548 509.243 508.87 508.51 508.19 507.878 507.585 507.293 506.965 506.643 506.213 505.585 505.04 504.36 503.848 503.33 502.928 502.483 502.183 502.003 501.708 501.453 501.398 501.333 501.183 501.16 501.078 501.02 500.773 500.473 500.413 500.213 499.903 499.675 499.43 499.138 498.855 498.483 498.298 498.318 497.986 497.598 497.29 497.085 496.968 496.703 496.473 496.296 496.12 495.853 495.59 495.46 495.49 495.473 495.173 494.95 494.793 494.645 494.475 494.245 493.993 493.808 493.645 493.505 493.27 493.108 492.845 492.46 492.13 491.76 491.305 490.883 490.51 490.21 489.888 489.508 489.198 488.718 488.133 487.95 487.75 487.538 487.288 487.185 486.893 486.495 486.09 485.633 485.285 485.066 484.666 484.366 484.283 484.201 484.096 483.946 483.811 483.703 483.588 483.431 483.271 483.133 482.996 483.026 482.673 481.726 480.716 480.381 480.083 479.703 479.296 478.941 478.173 477.136 476.231 475.728 475.598 475.983 476.163 475.988 475.641 475.308 475.003 474.653 474.211 473.646 473.326 472.981 472.798 472.603 472.333 472.011 471.731 471.386 471.073 470.831 470.446 469.788 469.341 469.076 468.956 468.641 468.283 467.858 467.383 466.923 466.491 466.091 465.678 465.203
-9999 -9999 -9999 -9999 -9999 -9999 -9999 -9999 -9999 -9999 -9999 -9999 -9999 -9999 -9999 -9999 -9999 -9999 -9999 -9999 -9999 -9999 -9999 -9999 -9999 -9999 -9999 -9999 -9999 -9999 -9999 -9999 -9999 -9999 -9999 -9999 -9999 -9999 -9999 -9999 -9999 -9999 -9999 -9999 -9999 -9999 -9999 -9999 -9999 -9999 -9999 -9999 -9999 -9999 -9999 -9999 -9999 -9999 -9999 -9999 -9999 -9999 -9999 -9999 -9999 -9999 -9999 -9999 -9999 -9999 -9999 -9999 -9999 -9999 -9999 -9999 -9999 -9999 -9999 -9999 -9999 -9999 -9999 -9999 -9999 -9999 -9999 -9999 -9999 -9999 -9999 -9999 -9999 -9999 -9999 -9999 -9999 -9999 -9999 -9999 -9999 -9999 -9999 -9999 -9999 -9999 -9999 -9999 -9999 -9999 -9999 -9999 -9999 -9999 -9999 -9999 -9999 -9999 -9999 -9999 -9999 -9999 -9999 -9999 -9999 -9999 -9999 -9999 -9999 -9999 -9999 -9999 -9999 -9999 -9999 -9999 -9999 -9999 -9999 -9999 -9999 -9999 -9999 -9999 -9999 -9999 -9999 -9999 -9999 -9999 -9999 -9999 -9999 -9999 -9999 -9999 -9999 -9999 -9999 -9999 -9999 -9999 -9999 -9999 -9999 -9999 539.66 539.558 539.35 539.13 538.98 538.888 538.518 538.263 538.123 537.935 537.778 537.848 537.903 537.9 537.798 537.623 537.4 537.148 536.898 536.643 536.328 536.145 535.985 535.723 535.52 535.298 535.07 534.838 534.633 534.525 534.563 534.508 534.303 534.1 533.958 533.948 533.973 533.843 533.648 533.638 533.39 533.258 533.085 533.003 532.85 532.56 532.285 532.315 532.568 532.475 532.225 532.075 531.8 531.638 531.468 531.453 531.133 530.833 530.603 530.44 530.293 530.1 529.808 529.493 529.23 528.978 528.713 528.468 528.183 527.908 527.563 527.113 526.865 526.72 526.62 526.618 526.563 526.608 526.54 526.275 526.12 526.098 526.078 525.783 525.348 524.833 524.538 524.223 523.968 523.55 523.28 523.163 523.095 523.055 522.965 522.878 522.965 522.735 522.225 522.073 522.01 521.845 521.758 521.67 521.585 521.38 521.128 520.823 520.393 520.148 519.968 519.69 519.415 519.175 518.588 518.105 517.68 517.32 516.91 516.365 515.84 515.408 515.025 514.77 514.578 514.215 513.823 513.48 513.133 512.83 512.453 512.07 511.708 511.255 510.715 510.355 509.995 509.65 509.235 508.915 508.59 508.328 508.03 507.725 507.398 507.075 506.7 506.27 505.605 504.82 504.1 503.633 503.323 502.788 502.435 502.373 502.118 501.94 501.815 501.648 501.458 501.32 501.203 500.973 500.798 500.798 500.533 500.263 500.018 499.818 499.578 499.405 499.138 498.838 498.796 498.708 498.205 497.893 497.738 497.775 497.568 497.29 497.06 496.908 496.633 496.23 496.033 495.863 495.713 495.49 495.355 495.273 495.13 494.951 494.743 494.535 494.45 494.3 494.088 493.913 493.71 493.398 493.028 492.84 492.4 491.796 491.403 491.103 490.796 490.41 489.99 489.763 489.338 489.06 488.84 488.573 488.253 488.143 488.06 487.833 487.533 487.013 486.4 485.853 485.473 485.228 485.091 484.906 484.783 484.668 484.501 484.308 484.083 483.928 483.821 483.653 483.603 483.456 483.433 483.408 482.908 481.806 481.206 480.818 480.471 480.181 479.813 478.873 477.708 477.148 476.841 476.943 477.068 476.943 476.638 476.266 475.888 475.546 475.111 474.491 473.863 473.641 473.326 473.068 472.986 472.803 472.528 472.208 471.868 471.508 471.183 470.738 470.318 470.053 469.848 469.596 469.333 468.973 468.556 468.038 467.631 467.223 466.793 466.376 465.931
-9999 -9999 -9999 -9999 -9999 -9999 -9999 -9999 -9999 -9999 -9999 -9999 -9999 -9999 -9999 -9999 -9999 -9999 -9999 -9999 -9999 -9999 -9999 -9999 -9999 -9999 -9999 -9999 -9999 -9999 -9999 -9999 -9999 -9999 -9999 -9999 -9999 -9999 -9999 -9999 -9999 -9999 -9999 -9999 -9999 -9999 -9999 -9999 -9999 -9999 -9999 -9999 -9999 -9999 -9999 -9999 -9999 -9999 -9999 -9999 -9999 -9999 -9999 -9999 -9999 -9999 -9999 -9999 -9999 -9999 -9999 -9999 -9999 -9999 -9999 -9999 -9999 -9999 -9999 -9999 -9999 -9999 -9999 -9999 -9999 -9999 -9999 -9999 -9999 -9999 -9999 -9999 -9999 -9999 -9999 -9999 -9999 -9999 -9999 -9999 -9999 -9999 -9999 -9999 -9999 -9999 -9999 -9999 -9999 -9999 -9999 -9999 -9999 -9999 -9999 -9999 -9999 -9999 -9999 -9999 -9999 -9999 -9999 -9999 -9999 -9999 -9999 -9999 -9999 -9999 -9999 -9999 -9999 -9999 -9999 -9999 -9999 -9999 -9999 -9999 -9999 -9999 -9999 -9999 -9999 -9999 -9999 -9999 -9999 -9999 -9999 -9999 -9999 -9999 -9999 -9999 -9999 -9999 -9999 -9999 -9999 -9999 -9999 -9999 -9999 -9999 -9999 -9999 539.868 539.648 539.543 539.475 539.268 539.035 538.775 538.465 538.34 538.385 538.315 538.22 538.16 538.065 537.868 537.685 537.465 537.215 536.98 536.855 536.67 536.403 536.205 535.963 535.655 535.445 535.305 535.263 535.208 535.14 534.94 534.79 534.638 534.618 534.678 534.7 534.53 534.348 534.14 533.865 533.645 533.698 533.695 533.39 533.065 533.223 533.278 533.133 532.98 532.855 532.69 532.53 532.123 532.07 531.975 531.668 531.435 531.32 531.09 530.85 530.605 530.37 530.213 529.988 529.738 529.498 529.188 528.99 528.82 528.358 527.885 527.383 527.085 527.015 527.033 527.14 527.128 526.828 526.713 526.84 527.025 526.745 526.418 525.79 525.388 525.118 524.923 524.495 524.248 524.07 523.963 523.873 523.853 524.005 523.98 523.703 523.025 522.718 522.555 522.485 522.568 522.488 522.315 522.025 521.8 521.52 521.17 520.908 520.68 520.433 520.125 519.98 519.62 519.133 518.62 518.143 517.733 517.258 516.825 516.455 516.135 515.77 515.415 515.103 514.673 514.295 514.013 513.693 513.308 512.945 512.583 512.045 511.523 511.15 510.798 510.408 510.04 509.708 509.418 509.095 508.815 508.545 508.26 507.96 507.688 507.31 506.85 506.048 505.163 504.615 504.385 503.963 503.35 503.03 502.79 502.655 502.48 502.238 501.843 501.55 501.348 501.115 500.93 500.865 500.74 500.62 500.46 500.26 500.12 499.988 499.798 499.73 499.628 499.46 499.07 498.675 498.535 498.375 498.16 497.96 497.861 497.548 497.47 497.22 496.86 496.468 496.385 496.103 495.815 495.635 495.488 495.313 495.195 495.063 494.925 494.743 494.468 494.355 494.085 493.873 493.66 493.338 492.788 492.19 491.905 491.783 491.398 490.993 490.503 490.273 490.193 490.09 489.72 489.391 489.098 488.998 488.818 488.525 488.2 487.833 487.328 486.655 486.138 485.711 485.561 485.673 485.543 485.216 485.056 484.878 484.541 484.356 484.191 484.043 483.893 483.808 483.803 483.596 483.303 482.506 481.961 481.583 481.266 480.946 480.571 480.201 478.746 478.203 477.913 478.011 477.873 477.593 477.253 476.866 476.493 476.086 475.538 474.721 474.273 474.053 473.886 473.668 473.453 473.266 473.003 472.708 472.358 471.931 471.468 471.103 470.896 470.731 470.468 470.146 469.846 469.566 469.193 468.736 468.338 467.936 467.476 467.108 466.678
-9999 -9999 -9999 -9999 -9999 -9999 -9999 -9999 -9999 -9999 -9999 -9999 -9999 -9999 -9999 -9999 -9999 -9999 -9999 -9999 -9999 -9999 -9999 -9999 -9999 -9999 -9999 -9999 -9999 -9999 -9999 -9999 -9999 -9999 -9999 -9999 -9999 -9999 -9999 -9999 -9999 -9999 -9999 -9999 -9999 -9999 -9999 -9999 -9999 -9999 -9999 -9999 -9999 -9999 -9999 -9999 -9999 -9999 -9999 -9999 -9999 -9999 -9999 -9999 -9999 -9999 -9999 -9999 -9999 -9999 -9999 -9999 -9999 -9999 -9999 -9999 -9999 -9999 -9999 -9999 -9999 -9999 -9999 -9999 -9999 -9999 -9999 -9999 -9999 -9999 -9999 -9999 -9999 -9999 -9999 -9999 -9999 -9999 -9999 -9999 -9999 -9999 -9999 -9999 -9999 -9999 -9999 -9999 -9999 -9999 -9999 -9999 -9999 -9999 -9999 -9999 -9999 -9999 -9999 -9999 -9999 -9999 -9999 -9999 -9999 -9999 -9999 -9999 -9999 -9999 -9999 -9999 -9999 -9999 -9999 -9999 -9999 -9999 -9999 -9999 -9999 -9999 -9999 -9999 -9999 -9999 -9999 -9999 -9999 -9999 -9999 -9999 -9999 -9999 -9999 -9999 -9999 -9999 -9999 -9999 -9999 -9999 -9999 -9999 -9999 -9999 -9999 -9999 -9999 -9999 539.93 539.918 539.715 539.493 539.188 538.925 538.9 538.848 538.808 538.698 538.583 538.485 538.278 538.123 537.978 537.743 537.575 537.39 537.198 536.938 536.828 536.66 536.348 536.185 536.1 535.985 535.873 535.795 535.675 535.548 535.415 535.35 535.385 535.468 535.278 535.178 535.005 534.838 534.695 534.563 534.433 534.225 534.08 534.048 534.06 533.895 533.698 533.51 533.423 533.213 533.048 532.708 532.523 532.385 532.158 532.03 531.813 531.6 531.36 531.203 530.965 530.808 530.663 530.453 530.203 529.965 529.858 529.54 529.128 528.725 528.25 527.858 527.773 527.805 527.775 527.415 527.325 527.463 527.59 527.555 527.263 526.783 526.4 526.123 525.878 525.553 525.238 525.005 524.858 524.83 525.01 525.18 524.97 524.535 523.833 523.408 523.228 523.37 523.393 523.25 523.003 522.575 522.328 522.075 521.848 521.645 521.32 520.91 520.66 520.645 520.55 520.13 519.633 519.008 518.453 518.083 517.765 517.428 517.048 516.643 516.293 515.825 515.54 515.208 514.898 514.435 514.098 513.783 513.328 512.8 512.338 511.943 511.533 511.145 510.79 510.45 510.118 509.893 509.603 509.32 509.113 508.883 508.53 508.203 507.848 507.208 506.46 505.718 505.12 504.695 504.195 503.803 503.555 503.298 503.125 502.968 502.615 502.313 502.038 501.765 501.44 501.118 500.983 500.968 500.875 500.885 500.79 500.68 500.508 500.34 500.09 499.838 499.548 499.288 499.195 498.885 498.715 498.641 498.383 498.135 498.025 497.838 497.56 497.255 497.1 496.778 496.43 496.208 496.013 495.808 495.765 495.643 495.44 495.236 495.04 494.815 494.493 494.253 493.895 493.573 493.095 492.705 492.455 492.215 491.898 491.523 491.138 491.085 491.14 491.013 490.728 490.255 489.973 489.723 489.528 489.255 488.855 488.49 488.163 487.43 486.848 486.461 486.183 485.978 486.271 486.061 485.648 485.456 485.121 484.843 484.646 484.346 484.213 484.186 484.093 483.883 483.658 483.356 482.738 482.633 482.158 481.688 481.321 480.936 480.523 479.896 479.001 478.791 478.526 478.183 477.876 477.501 477.103 476.626 475.933 475.083 474.761 474.698 474.736 474.491 474.148 473.806 473.561 473.246 472.738 472.303 471.946 471.566 471.483 471.338 471.043 470.643 470.343 470.046 469.766 469.393 469.008 468.641 468.228 467.808 467.478
-9999 -9999 -9999 -9999 -9999 -9999 -9999 -9999 -9999 -9999 -9999 -9999 -9999 -9999 -9999 -9999 -9999 -9999 -9999 -9999 -9999 -9999 -9999 -9999 -9999 -9999 -9999 -9999 -9999 -9999 -9999 -9999 -9999 -9999 -9999 -9999 -9999 -9999 -9999 -9999 -9999 -9999 -9999 -9999 -9999 -9999 -9999 -9999 -9999 -9999 -9999 -9999 -9999 -9999 -9999 -9999 -9999 -9999 -9999 -9999 -9999 -9999 -9999 -9999 -9999 -9999 -9999 -9999 -9999 -9999 -9999 -9999 -9999 -9999 -9999 -9999 -9999 -9999 -9999 -9999 -9999 -9999 -9999 -9999 -9999 -9999 -9999 -9999 -9999 -9999 -9999 -9999 -9999 -9999 -9999 -9999 -9999 -9999 -9999 -9999 -9999 -9999 -9999 -9999 -9999 -9999 -9999 -9999 -9999 -9999 -9999 -9999 -9999 -9999 -9999 -9999 -9999 -9999 -9999 -9999 -9999 -9999 -9999 -9999 -9999 -9999 -9999 -9999 -9999 -9999 -9999 -9999 -9999 -9999 -9999 -9999 -9999 -9999 -9999 -9999 -9999 -9999 -9999 -9999 -9999 -9999 -9999 -9999 -9999 -9999 -9999 -9999 -9999 -9999 -9999 -9999 -9999 -9999 -9999 -9999 -9999 -9999 -9999 -9999 -9999 -9999 -9999 -9999 -9999 -9999 -9999 540.327 540.225 539.993 539.725 539.568 539.425 539.295 539.165 539.005 538.935 538.853 538.663 538.545 538.418 538.335 538.208 537.973 537.818 537.605 537.475 537.313 537.06 536.988 536.835 536.635 536.625 536.618 536.46 536.293 536.208 536.095 536.063 536.09 536.023 535.87 535.82 535.658 535.473 535.358 535.203 535.053 534.953 534.905 534.793 534.593 534.403 534.233 534.113 533.833 533.588 533.508 533.12 533.005 532.848 532.71 532.525 532.375 532.128 531.975 531.765 531.595 531.525 531.405 531.14 530.835 530.745 530.423 530.155 529.78 529.363 528.965 528.67 528.465 528.16 527.995 527.933 528 528.108 528.24 528.155 527.793 527.358 527.225 526.915 526.613 526.285 526.04 525.903 526.075 526.12 526.073 525.775 525.468 524.803 524.2 524.12 524.425 524.285 524.023 523.69 523.12 522.783 522.535 522.428 522.285 522.08 521.848 521.668 521.57 521.47 521.06 520.585 520.045 519.343 518.993 518.775 518.37 518.02 517.583 517.143 516.783 516.525 516.17 515.838 515.36 514.935 514.583 514.12 513.555 513.065 512.633 512.228 511.848 511.523 511.19 510.893 510.588 510.29 510.003 509.755 509.545 509.258 509.003 508.6 508.078 507.455 506.738 506.218 505.75 505.21 504.793 504.415 504.08 503.843 503.86 503.725 503.553 503.503 503.04 502.333 501.643 501.313 501.21 501.238 501.353 501.335 501.243 501.073 500.863 500.645 500.383 500.15 499.865 499.65 499.368 499.255 499.18 499.02 498.858 498.713 498.56 498.19 497.903 497.665 497.348 497.12 496.99 496.801 496.58 496.46 496.355 496.168 495.943 495.683 495.548 495.133 494.595 493.985 493.668 493.435 493.155 492.893 492.65 492.47 492.323 492.12 492.048 491.908 491.525 491.358 491.088 490.703 490.373 490.046 489.753 489.47 489.165 488.853 488.168 487.546 487.186 486.946 486.721 486.543 486.501 486.473 486.136 485.628 485.333 485.146 484.786 484.591 484.558 484.386 484.173 484.236 483.883 483.348 483.411 483.048 482.576 482.293 481.846 481.538 481.131 480.316 479.536 479.083 478.716 478.403 478.088 477.693 477.151 476.328 475.651 475.308 475.383 475.411 475.146 474.808 474.406 474.066 473.683 473.281 472.993 472.598 472.016 471.931 471.696 471.458 471.083 470.771 470.521 470.266 469.961 469.593 469.241 468.878 468.558 468.278
-9999 -9999 -9999 -9999 -9999 -9999 -9999 -9999 -9999 -9999 -9999 -9999 -9999 -9999 -9999 -9999 -9999 -9999 -9999 -9999 -9999 -9999 -9999 -9999 -9999 -9999 -9999 -9999 -9999 -9999 -9999 -9999 -9999 -9999 -9999 -9999 -9999 -9999 -9999 -9999 -9999 -9999 -9999 -9999 -9999 -9999 -9999 -9999 -9999 -9999 -9999 -9999 -9999 -9999 -9999 -9999 -9999 -9999 -9999 -9999 -9999 -9999 -9999 -9999 -9999 -9999 -9999 -9999 -9999 -9999 -9999 -9999 -9999 -9999 -9999 -9999 -9999 -9999 -9999 -9999 -9999 -9999 -9999 -9999 -9999 -9999 -9999 -9999 -9999 -9999 -9999 -9999 -9999 -9999 -9999 -9999 -9999 -9999 -9999 -9999 -9999 -9999 -9999 -9999 -9999 -9999 -9999 -9999 -9999 -9999 -9999 -9999 -9999 -9999 -9999 -9999 -9999 -9999 -9999 -9999 -9999 -9999 -9999 -9999 -9999 -9999 -9999 -9999 -9999 -9999 -9999 -9999 -9999 -9999 -9999 -9999 -9999 -9999 -9999 -9999 -9999 -9999 -9999 -9999 -9999 -9999 -9999 -9999 -9999 -9999 -9999 -9999 -9999 -9999 -9999 -9999 -9999 -9999 -9999 -9999 -9999 -9999 -9999 -9999 -9999 -9999 -9999 -9999 -9999 -9999 -9999 -9999 -9999 540.488 540.178 539.99 539.875 539.703 539.515 539.39 539.303 539.253 539.095 539.01 538.888 538.865 538.785 538.583 538.385 538.24 538.163 537.923 537.808 537.658 537.528 537.415 537.393 537.32 537.193 537.06 536.948 536.853 536.683 536.673 536.693 536.615 536.378 536.178 536.11 536.008 535.9 535.76 535.625 535.58 535.403 535.213 535.075 534.94 534.743 534.488 534.253 534.078 533.878 533.725 533.6 533.38 533.215 533.013 532.848 532.683 532.545 532.325 532.205 532.145 531.908 531.7 531.575 531.34 531.095 530.818 530.49 530.17 529.795 529.535 529.255 528.773 528.415 528.45 528.543 528.685 528.718 528.568 528.218 528.128 527.985 527.705 527.398 527.158 527.02 527.01 527.01 526.76 526.51 526.185 525.69 525.165 525.19 525.293 525.14 524.74 524.36 523.803 523.403 523.135 523.11 523.048 522.925 522.925 522.738 522.46 522.19 521.94 521.418 520.958 520.28 520.065 519.788 519.325 518.885 518.458 518.038 517.765 517.478 517.14 516.72 516.258 515.77 515.445 515.005 514.413 513.818 513.355 512.905 512.553 512.258 511.933 511.6 511.29 511.055 510.72 510.42 510.1 509.783 509.435 509.238 508.923 508.503 507.865 507.29 506.815 506.173 505.703 505.348 504.858 504.48 504.173 504.018 504.063 504.215 503.993 503.563 502.558 501.628 501.48 501.54 501.615 501.625 501.693 501.71 501.493 501.338 501.128 500.893 500.498 500.095 499.873 499.763 499.618 499.563 499.46 499.22 498.915 498.723 498.388 498.025 497.888 497.9 497.825 497.695 497.423 497.183 497.005 496.995 496.78 496.44 496.163 495.848 495.318 494.518 493.986 493.64 493.475 493.27 493.123 493.053 493.085 492.973 492.825 492.518 492.228 492.008 491.778 491.315 490.893 490.623 490.405 490.303 490.105 489.665 488.743 488.151 487.846 487.646 487.408 487.243 487.056 486.816 486.861 486.443 485.913 485.651 485.411 485.161 485.006 484.756 484.433 484.356 484.121 483.863 483.643 483.371 483.181 483.123 482.616 482.408 482.003 481.661 480.641 479.931 479.306 478.968 478.576 478.188 477.596 476.846 476.206 475.998 476.113 476.033 475.756 475.418 475.006 474.593 474.088 473.851 473.623 473.213 472.581 472.241 471.988 471.763 471.383 471.131 470.883 470.626 470.366 470.071 469.883 469.531 469.263 469.006
-9999 -9999 -9999 -9999 -9999 -9999 -9999 -9999 -9999 -9999 -9999 -9999 -9999 -9999 -9999 -9999 -9999 -9999 -9999 -9999 -9999 -9999 -9999 -9999 -9999 -9999 -9999 -9999 -9999 -9999 -9999 -9999 -9999 -9999 -9999 -9999 -9999 -9999 -9999 -9999 -9999 -9999 -9999 -9999 -9999 -9999 -9999 -9999 -9999 -9999 -9999 -9999 -9999 -9999 -9999 -9999 -9999 -9999 -9999 -9999 -9999 -9999 -9999 -9999 -9999 -9999 -9999 -9999 -9999 -9999 -9999 -9999 -9999 -9999 -9999 -9999 -9999 -9999 -9999 -9999 -9999 -9999 -9999 -9999 -9999 -9999 -9999 -9999 -9999 -9999 -9999 -9999 -9999 -9999 -9999 -9999 -9999 -9999 -9999 -9999 -9999 -9999 -9999 -9999 -9999 -9999 -9999 -9999 -9999 -9999 -9999 -9999 -9999 -9999 -9999 -9999 -9999 -9999 -9999 -9999 -9999 -9999 -9999 -9999 -9999 -9999 -9999 -9999 -9999 -9999 -9999 -9999 -9999 -9999 -9999 -9999 -9999 -9999 -9999 -9999 -9999 -9999 -9999 -9999 -9999 -9999 -9999 -9999 -9999 -9999 -9999 -9999 -9999 -9999 -9999 -9999 -9999 -9999 -9999 -9999 -9999 -9999 -9999 -9999 -9999 -9999 -9999 -9999 -9999 -9999 -9999 -9999 -9999 -9999 540.643 540.425 540.27 540.09 539.943 539.848 539.783 539.66 539.558 539.463 539.33 539.313 539.273 539.045 538.845 538.85 538.76 538.54 538.46 538.31 538.265 538.095 538.05 537.948 537.77 537.703 537.608 537.498 537.393 537.288 537.17 536.96 536.858 536.823 536.763 536.618 536.435 536.265 536.213 536.135 535.998 535.81 535.67 535.558 535.39 535.218 534.908 534.783 534.575 534.305 534.148 533.973 533.848 533.673 533.515 533.37 533.24 532.995 532.913 532.788 532.608 532.468 532.345 532.133 531.928 531.725 531.498 531.193 530.925 530.69 530.435 530.055 529.653 529.13 528.87 529.043 529.183 529.185 529.035 528.888 528.803 528.665 528.385 528.125 527.895 527.668 527.56 527.33 527.133 526.895 526.493 526.113 526.175 526.115 525.9 525.51 525.078 524.493 524.1 523.908 523.923 523.905 523.813 523.7 523.578 523.3 522.92 522.708 522.19 521.635 521.3 521.068 520.74 520.28 519.773 519.358 518.988 518.653 518.273 517.963 517.608 517.15 516.673 516.298 515.868 515.235 514.635 514.123 513.675 513.353 513.02 512.615 512.318 512.025 511.803 511.423 511.013 510.673 510.463 510.155 509.875 509.613 509.283 508.888 508.453 507.87 507.168 506.583 506.153 505.708 505.198 504.768 504.448 504.238 504.223 504.093 503.928 503.485 502.77 502.345 502.023 501.993 501.958 501.975 502.02 501.97 501.933 501.748 501.62 501.32 500.823 500.473 500.133 500.051 499.998 499.93 499.743 499.41 499.135 498.91 498.678 498.608 498.558 498.553 498.333 498.02 497.818 497.668 497.553 497.368 497.118 496.883 496.695 496.153 495.353 494.673 494.083 493.695 493.585 493.463 493.455 493.575 493.488 493.335 493.138 492.943 492.698 492.498 492.075 491.69 491.363 491.185 491.03 490.738 490.228 489.358 488.778 488.541 488.331 488.016 487.726 487.521 487.276 487.056 487.033 486.988 486.303 486.043 485.813 485.481 485.123 484.858 484.598 484.481 484.283 484.048 483.823 483.518 483.383 483.108 482.973 482.856 482.263 481.733 481.226 480.446 479.816 479.236 478.641 477.963 477.426 477.031 476.956 476.901 476.643 476.316 475.966 475.593 475.086 474.673 474.471 474.231 473.803 473.178 472.701 472.476 472.143 471.801 471.523 471.193 470.973 470.746 470.556 470.376 470.133 469.896 469.641
-9999 -9999 -9999 -9999 -9999 -9999 -9999 -9999 -9999 -9999 -9999 -9999 -9999 -9999 -9999 -9999 -9999 -9999 -9999 -9999 -9999 -9999 -9999 -9999 -9999 -9999 -9999 -9999 -9999 -9999 -9999 -9999 -9999 -9999 -9999 -9999 -9999 -9999 -9999 -9999 -9999 -9999 -9999 -9999 -9999 -9999 -9999 -9999 -9999 -9999 -9999 -9999 -9999 -9999 -9999 -9999 -9999 -9999 -9999 -9999 -9999 -9999 -9999 -9999 -9999 -9999 -9999 -9999 -9999 -9999 -9999 -9999 -9999 -9999 -9999 -9999 -9999 -9999 -9999 -9999 -9999 -9999 -9999 -9999 -9999 -9999 -9999 -9999 -9999 -9999 -9999 -9999 -9999 -9999 -9999 -9999 -9999 -9999 -9999 -9999 -9999 -9999 -9999 -9999 -9999 -9999 -9999 -9999 -9999 -9999 -9999 -9999 -9999 -9999 -9999 -9999 -9999 -9999 -9999 -9999 -9999 -9999 -9999 -9999 -9999 -9999 -9999 -9999 -9999 -9999 -9999 -9999 -9999 -9999 -9999 -9999 -9999 -9999 -9999 -9999 -9999 -9999 -9999 -9999 -9999 -9999 -9999 -9999 -9999 -9999 -9999 -9999 -9999 -9999 -9999 -9999 -9999 -9999 -9999 -9999 -9999 -9999 -9999 -9999 -9999 -9999 -9999 -9999 -9999 -9999 -9999 -9999 -9999 -9999 -9999 540.86 540.713 540.43 540.23 540.235 540.108 540.005 539.988 539.873 539.768 539.778 539.745 539.443 539.333 539.388 539.29 539.12 539.01 539 538.89 538.71 538.658 538.5 538.378 538.323 538.213 538.11 537.95 537.833 537.693 537.448 537.358 537.425 537.355 537.163 536.945 536.838 536.755 536.663 536.53 536.443 536.34 536.235 536.095 535.958 535.618 535.375 535.205 534.94 534.763 534.55 534.375 534.333 534.18 534.02 533.9 533.743 533.625 533.483 533.308 533.108 533.04 532.808 532.61 532.475 532.295 532.023 531.85 531.718 531.48 531.17 530.785 530.458 530.083 529.758 529.895 530.045 529.885 529.698 529.548 529.315 529.04 528.74 528.388 528.11 528 527.863 527.705 527.63 527.335 527.143 527.16 527.028 526.795 526.378 525.86 525.293 525.045 524.96 524.85 524.613 524.445 524.335 524.295 524.148 523.793 523.498 522.918 522.543 522.315 522.033 521.623 521.16 520.775 520.253 519.955 519.525 519.09 518.81 518.505 518.093 517.605 517.148 516.685 516.058 515.468 514.935 514.435 514.105 513.758 513.43 513.075 512.763 512.483 512.12 511.83 511.505 511.18 510.93 510.67 510.33 510.01 509.715 509.348 508.855 508.345 507.868 507.265 506.763 506.263 505.933 505.593 505.018 504.768 504.57 504.4 504.31 504 503.568 502.858 502.53 502.43 502.383 502.413 502.408 502.408 502.31 502.243 502.155 501.655 501.118 500.778 500.698 500.568 500.503 500.39 500.111 499.83 499.653 499.488 499.388 499.28 499.258 499.035 498.58 498.358 498.283 498.218 498.013 497.8 497.73 497.693 497.113 496.375 495.895 495.173 494.495 494.168 493.988 494.073 494.035 493.775 493.68 493.543 493.445 493.223 493.043 492.693 492.393 492.095 491.87 491.595 491.31 490.788 489.98 489.513 489.236 488.883 488.661 488.396 488.101 487.803 487.553 487.261 487.253 487.618 486.861 486.461 486.106 485.706 485.383 485.078 484.938 484.668 484.348 484.096 483.893 483.643 483.398 483.208 483.016 482.783 482.336 481.951 481.348 480.928 480.358 479.756 478.576 478.161 478.028 477.876 477.561 477.196 476.813 476.451 476.066 475.563 475.278 474.983 474.731 474.308 473.921 473.528 473.141 472.776 472.416 472.116 471.788 471.508 471.218 470.973 470.771 470.638 470.458 470.156
-9999 -9999 -9999 -9999 -9999 -9999 -9999 -9999 -9999 -9999 -9999 -9999 -9999 -9999 -9999 -9999 -9999 -9999 -9999 -9999 -9999 -9999 -9999 -9999 -9999 -9999 -9999 -9999 -9999 -9999 -9999 -9999 -9999 -9999 -9999 -9999 -9999 -9999 -9999 -9999 -9999 -9999 -9999 -9999 -9999 -9999 -9999 -9999 -9999 -9999 -9999 -9999 -9999 -9999 -9999 -9999 -9999 -9999 -9999 -9999 -9999 -9999 -9999 -9999 -9999 -9999 -9999 -9999 -9999 -9999 -9999 -9999 -9999 -9999 -9999 -9999 -9999 -9999 -9999 -9999 -9999 -9999 -9999 -9999 -9999 -9999 -9999 -9999 -9999 -9999 -9999 -9999 -9999 -9999 -9999 -9999 -9999 -9999 -9999 -9999 -9999 -9999 -9999 -9999 -9999 -9999 -9999 -9999 -9999 -9999 -9999 -9999 -9999 -9999 -9999 -9999 -9999 -9999 -9999 -9999 -9999 -9999 -9999 -9999 -9999 -9999 -9999 -9999 -9999 -9999 -9999 -9999 -9999 -9999 -9999 -9999 -9999 -9999 -9999 -9999 -9999 -9999 -9999 -9999 -9999 -9999 -9999 -9999 -9999 -9999 -9999 -9999 -9999 -9999 -9999 -9999 -9999 -9999 -9999 -9999 -9999 -9999 -9999 -9999 -9999 -9999 -9999 -9999 -9999 -9999 -9999 -9999 -9999 -9999 -9999 -9999 541.178 540.885 540.663 540.585 540.453 540.423 540.44 540.363 540.213 540.21 540.215 539.983 539.893 539.848 539.775 539.678 539.648 539.648 539.468 539.275 539.173 539.013 538.95 538.955 538.835 538.66 538.548 538.453 538.393 538.188 538.033 537.998 537.925 537.763 537.56 537.44 537.348 537.23 537.153 537.063 536.995 536.905 536.768 536.568 536.298 536.038 535.765 535.573 535.438 535.11 534.95 534.888 534.71 534.678 534.618 534.468 534.298 534.115 533.898 533.808 533.67 533.523 533.355 533.13 532.96 532.755 532.6 532.49 532.338 532.098 531.7 531.348 531.255 530.993 530.873 530.805 530.828 530.683 530.453 530.1 529.705 529.308 528.823 528.56 528.423 528.233 528.333 528.255 528.19 528.098 527.968 527.753 527.65 527.323 526.703 526.24 526.115 525.955 525.51 525.22 524.95 524.905 524.92 524.838 524.42 524.14 523.69 523.385 523.145 522.813 522.475 522 521.663 521.305 520.998 520.468 520.023 519.683 519.32 518.94 518.475 517.985 517.46 516.838 516.243 515.698 515.155 514.908 514.593 514.195 513.865 513.513 513.265 512.935 512.605 512.313 511.96 511.65 511.363 511.058 510.783 510.46 510.093 509.715 509.363 509.005 508.453 507.915 507.618 507.27 506.933 506.26 505.538 505.29 505.215 505.15 504.888 504.498 503.985 503.285 503.023 502.93 502.89 502.955 502.938 502.923 502.868 502.77 502.348 501.85 501.593 501.385 501.173 501.06 501.015 500.861 500.585 500.395 500.273 500.165 499.998 499.796 499.66 499.383 499.138 498.89 498.75 498.663 498.538 498.563 498.583 498.278 497.523 496.755 496.32 495.676 495.308 495.228 495.233 494.74 494.255 493.9 493.775 493.708 493.543 493.385 493.135 492.875 492.65 492.41 492.06 491.945 491.425 490.6 490.266 489.948 489.638 489.343 489.056 488.756 488.476 488.171 487.888 487.686 487.683 487.948 487.176 486.821 486.383 486.036 485.786 485.518 485.233 484.866 484.536 484.263 483.993 483.743 483.558 483.301 483.056 482.743 482.658 482.316 481.843 481.298 480.818 479.501 478.981 478.731 478.471 478.113 477.731 477.353 476.948 476.456 476.073 475.746 475.488 475.026 474.753 474.628 474.271 473.806 473.426 473.111 472.766 472.458 472.226 471.991 471.668 471.333 471.188 471.011 470.721
-9999 -9999 -9999 -9999 -9999 -9999 -9999 -9999 -9999 -9999 -9999 -9999 -9999 -9999 -9999 -9999 -9999 -9999 -9999 -9999 -9999 -9999 -9999 -9999 -9999 -9999 -9999 -9999 -9999 -9999 -9999 -9999 -9999 -9999 -9999 -9999 -9999 -9999 -9999 -9999 -9999 -9999 -9999 -9999 -9999 -9999 -9999 -9999 -9999 -9999 -9999 -9999 -9999 -9999 -9999 -9999 -9999 -9999 -9999 -9999 -9999 -9999 -9999 -9999 -9999 -9999 -9999 -9999 -9999 -9999 -9999 -9999 -9999 -9999 -9999 -9999 -9999 -9999 -9999 -9999 -9999 -9999 -9999 -9999 -9999 -9999 -9999 -9999 -9999 -9999 -9999 -9999 -9999 -9999 -9999 -9999 -9999 -9999 -9999 -9999 -9999 -9999 -9999 -9999 -9999 -9999 -9999 -9999 -9999 -9999 -9999 -9999 -9999 -9999 -9999 -9999 -9999 -9999 -9999 -9999 -9999 -9999 -9999 -9999 -9999 -9999 -9999 -9999 -9999 -9999 -9999 -9999 -9999 -9999 -9999 -9999 -9999 -9999 -9999 -9999 -9999 -9999 -9999 -9999 -9999 -9999 -9999 -9999 -9999 -9999 -9999 -9999 -9999 -9999 -9999 -9999 -9999 -9999 -9999 -9999 -9999 -9999 -9999 -9999 -9999 -9999 -9999 -9999 -9999 -9999 -9999 -9999 -9999 -9999 -9999 -9999 -9999 541.498 541.085 540.923 540.878 540.8 540.783 540.715 540.65 540.633 540.548 540.493 540.365 540.31 540.238 540.193 540.155 540.123 540.035 539.79 539.648 539.543 539.498 539.435 539.333 539.19 539.118 539.135 539.035 538.918 538.743 538.598 538.463 538.325 538.198 538.045 537.938 537.8 537.703 537.64 537.6 537.53 537.363 537.223 536.993 536.693 536.49 536.213 535.998 535.743 535.563 535.463 535.358 535.363 535.343 535.108 534.99 534.758 534.57 534.44 534.378 534.043 533.855 533.698 533.548 533.443 533.285 533.093 533.038 532.8 532.423 532.198 532.11 531.9 531.728 531.645 531.705 531.613 531.375 530.968 530.615 530.255 529.71 529.225 528.86 528.825 529.023 529 528.84 528.503 528.483 528.43 528.183 527.925 527.58 527.3 527.01 526.645 526.238 525.793 525.42 525.285 525.31 525.21 524.93 524.713 524.475 524.233 523.95 523.613 523.263 522.788 522.473 522.115 521.628 521.233 520.883 520.428 520.06 519.708 519.27 518.788 518.178 517.59 517.088 516.545 516.103 515.793 515.47 515.078 514.665 514.33 514.045 513.778 513.468 513.183 512.883 512.653 512.258 511.853 511.455 511.198 510.805 510.42 510.073 509.73 509.43 509.033 508.623 508.458 507.99 507.473 506.873 506.38 506.045 505.955 505.803 505.51 505.098 504.405 503.795 503.565 503.57 503.548 503.418 503.45 503.538 503.393 502.928 502.563 502.185 502.018 501.898 501.736 501.515 501.408 501.248 501.155 501.02 500.873 500.693 500.393 500.195 499.933 499.778 499.458 499.265 499.293 499.32 499.368 499.345 499.193 498.778 497.953 497.223 496.655 496.355 496.453 496.275 495.76 495.183 494.688 494.13 493.883 493.785 493.665 493.486 493.365 493.258 493.04 492.738 492.678 492.278 491.611 491.161 490.863 490.441 490.061 489.758 489.371 489.076 488.796 488.541 488.378 488.203 487.966 487.873 487.791 487.136 486.688 486.446 486.118 485.791 485.386 485.051 484.716 484.448 484.096 483.823 483.501 483.403 483.353 482.936 482.693 482.621 482.333 481.711 480.618 480.023 479.351 478.973 478.653 478.291 477.871 477.423 476.871 476.496 476.191 475.848 475.536 475.353 475.266 474.938 474.543 474.148 473.813 473.496 473.196 472.993 472.736 472.378 472.008 471.803 471.561 471.261
-9999 -9999 -9999 -9999 -9999 -9999 -9999 -9999 -9999 -9999 -9999 -9999 -9999 -9999 -9999 -9999 -9999 -9999 -9999 -9999 -9999 -9999 -9999 -9999 -9999 -9999 -9999 -9999 -9999 -9999 -9999 -9999 -9999 -9999 -9999 -9999 -9999 -9999 -9999 -9999 -9999 -9999 -9999 -9999 -9999 -9999 -9999 -9999 -9999 -9999 -9999 -9999 -9999 -9999 -9999 -9999 -9999 -9999 -9999 -9999 -9999 -9999 -9999 -9999 -9999 -9999 -9999 -9999 -9999 -9999 -9999 -9999 -9999 -9999 -9999 -9999 -9999 -9999 -9999 -9999 -9999 -9999 -9999 -9999 -9999 -9999 -9999 -9999 -9999 -9999 -9999 -9999 -9999 -9999 -9999 -9999 -9999 -9999 -9999 -9999 -9999 -9999 -9999 -9999 -9999 -9999 -9999 -9999 -9999 -9999 -9999 -9999 -9999 -9999 -9999 -9999 -9999 -9999 -9999 -9999 -9999 -9999 -9999 -9999 -9999 -9999 -9999 -9999 -9999 -9999 -9999 -9999 -9999 -9999 -9999 -9999 -9999 -9999 -9999 -9999 -9999 -9999 -9999 -9999 -9999 -9999 -9999 -9999 -9999 -9999 -9999 -9999 -9999 -9999 -9999 -9999 -9999 -9999 -9999 -9999 -9999 -9999 -9999 -9999 -9999 -9999 -9999 -9999 -9999 -9999 -9999 -9999 -9999 -9999 -9999 -9999 -9999 -9999 541.593 541.483 541.42 541.298 541.153 541.095 541.088 540.953 540.868 540.888 540.815 540.72 540.745 540.655 540.6 540.543 540.448 540.313 540.223 540.083 540.04 539.953 539.808 539.795 539.683 539.735 539.643 539.498 539.418 539.233 539.03 538.923 538.778 538.678 538.565 538.463 538.34 538.175 538.143 538.058 537.915 537.758 537.525 537.36 537.125 536.928 536.648 536.49 536.183 536.1 536.02 535.973 535.935 535.643 535.49 535.408 535.275 534.938 534.76 534.59 534.49 534.35 534.2 534.028 533.86 533.695 533.645 533.443 533.218 533.048 532.983 532.765 532.538 532.473 532.483 532.275 532.003 531.698 531.503 531.283 530.948 530.483 530.238 529.888 529.555 529.54 529.418 528.97 528.875 528.808 528.678 528.403 528.213 528.03 527.675 527.36 526.96 526.48 525.865 525.533 525.528 525.43 525.218 525.115 525.028 524.865 524.64 524.373 524.008 523.528 523.205 522.973 522.343 521.998 521.663 521.263 520.91 520.555 520.09 519.625 518.983 518.485 518.018 517.52 517.075 516.71 516.365 515.948 515.598 515.23 514.89 514.608 514.373 514.005 513.703 513.42 513.105 512.748 512.373 512.005 511.63 511.19 510.753 510.505 510.33 510.015 509.635 509.21 508.643 508.393 508.11 507.695 507.3 506.883 506.575 506.24 505.83 505.333 504.775 504.373 504.263 504.2 504.093 504.208 504.4 504.198 503.625 503.228 502.963 502.765 502.723 502.595 502.333 502.19 502.003 502.03 501.853 501.54 501.355 501.123 500.945 500.743 500.455 500.103 499.895 499.94 500.043 500.103 500.09 499.968 499.623 499.138 498.448 497.951 497.62 497.658 497.235 496.543 496.105 495.796 495.183 494.455 494.003 493.86 493.738 493.735 493.65 493.515 493.42 493.533 493.268 492.79 492.348 491.941 491.023 490.871 490.448 489.958 489.656 489.463 489.328 489.038 488.768 488.558 488.266 487.986 488.261 487.511 487.091 486.691 486.336 485.953 485.598 485.296 484.926 484.478 484.198 484.033 483.671 483.513 483.373 483.173 482.968 482.753 482.468 481.903 480.768 479.983 479.563 479.221 478.846 478.408 477.861 477.266 476.931 476.626 476.401 476.158 475.868 475.688 475.481 475.176 474.813 474.468 474.201 473.956 473.708 473.386 472.981 472.571 472.293 472.051 471.726
-9999 -9999 -9999 -9999 -9999 -9999 -9999 -9999 -9999 -9999 -9999 -9999 -9999 -9999 -9999 -9999 -9999 -9999 -9999 -9999 -9999 -9999 -9999 -9999 -9999 -9999 -9999 -9999 -9999 -9999 -9999 -9999 -9999 -9999 -9999 -9999 -9999 -9999 -9999 -9999 -9999 -9999 -9999 -9999 -9999 -9999 -9999 -9999 -9999 -9999 -9999 -9999 -9999 -9999 -9999 -9999 -9999 -9999 -9999 -9999 -9999 -9999 -9999 -9999 -9999 -9999 -9999 -9999 -9999 -9999 -9999 -9999 -9999 -9999 -9999 -9999 -9999 -9999 -9999 -9999 -9999 -9999 -9999 -9999 -9999 -9999 -9999 -9999 -9999 -9999 -9999 -9999 -9999 -9999 -9999 -9999 -9999 -9999 -9999 -9999 -9999 -9999 -9999 -9999 -9999 -9999 -9999 -9999 -9999 -9999 -9999 -9999 -9999 -9999 -9999 -9999 -9999 -9999 -9999 -9999 -9999 -9999 -9999 -9999 -9999 -9999 -9999 -9999 -9999 -9999 -9999 -9999 -9999 -9999 -9999 -9999 -9999 -9999 -9999 -9999 -9999 -9999 -9999 -9999 -9999 -9999 -9999 -9999 -9999 -9999 -9999 -9999 -9999 -9999 -9999 -9999 -9999 -9999 -9999 -9999 -9999 -9999 -9999 -9999 -9999 -9999 -9999 -9999 -9999 -9999 -9999 -9999 -9999 -9999 -9999 -9999 -9999 -9999 542.297 542.078 541.965 541.835 541.755 541.623 541.565 541.545 541.43 541.335 541.303 541.27 541.33 541.235 541.195 541.125 541.02 540.888 540.793 540.635 540.43 540.343 540.298 540.418 540.39 540.355 540.283 540.168 539.995 539.828 539.685 539.513 539.455 539.278 539.175 539.075 538.96 538.82 538.73 538.58 538.48 538.298 538.133 537.993 537.72 537.52 537.395 537.188 536.885 536.765 536.675 536.555 536.398 536.228 536.01 535.938 535.795 535.558 535.29 535.18 535.083 534.918 534.733 534.618 534.408 534.305 534.24 534.135 533.915 533.735 533.64 533.488 533.308 533.26 533.218 533.013 532.745 532.465 532.328 532.195 531.983 531.733 531.583 531.283 530.795 530.69 530.635 530.16 529.693 529.273 529.07 528.91 528.6 528.415 528.185 528.008 527.558 526.92 526.318 525.778 525.66 525.598 525.543 525.408 525.353 525.208 525.065 524.843 524.588 524.188 523.835 523.53 523.213 522.748 522.393 522.018 521.635 521.358 520.94 520.428 519.86 519.42 518.985 518.555 518.063 517.72 517.315 516.888 516.483 516.115 515.823 515.488 515.245 514.833 514.533 514.22 513.94 513.605 513.22 512.815 512.478 512.085 511.68 511.373 511.15 510.828 510.593 510.268 509.585 509.11 508.88 508.743 508.52 507.885 507.335 507.003 506.708 506.373 505.778 505.538 505.258 505.068 505.035 505.185 505.223 504.963 504.518 504.318 504.043 503.683 503.48 503.33 503.183 503.073 502.923 502.79 502.66 502.388 502.08 501.745 501.535 501.17 500.978 500.873 500.718 500.736 500.793 500.773 500.808 500.77 500.535 500.15 499.673 499.208 498.793 498.485 497.995 497.218 496.678 496.338 496.085 495.611 495.09 494.365 494.023 493.898 493.91 493.98 494.085 494.173 494.028 493.783 493.376 492.946 492.343 492.026 491.423 490.836 490.628 490.583 490.286 489.848 489.543 489.268 488.938 488.626 488.436 488.548 487.911 487.353 486.956 486.706 486.143 485.873 485.548 485.026 484.633 484.293 484.061 483.896 483.776 483.556 483.366 483.121 482.818 482.721 481.711 480.788 480.133 479.728 479.376 478.916 478.331 477.713 477.403 477.331 477.176 476.726 476.376 476.221 475.988 475.693 475.361 475.043 474.803 474.618 474.336 473.946 473.473 473.066 472.781 472.521 472.198
-9999 -9999 -9999 -9999 -9999 -9999 -9999 -9999 -9999 -9999 -9999 -9999 -9999 -9999 -9999 -9999 -9999 -9999 -9999 -9999 -9999 -9999 -9999 -9999 -9999 -9999 -9999 -9999 -9999 -9999 -9999 -9999 -9999 -9999 -9999 -9999 -9999 -9999 -9999 -9999 -9999 -9999 -9999 -9999 -9999 -9999 -9999 -9999 -9999 -9999 -9999 -9999 -9999 -9999 -9999 -9999 -9999 -9999 -9999 -9999 -9999 -9999 -9999 -9999 -9999 -9999 -9999 -9999 -9999 -9999 -9999 -9999 -9999 -9999 -9999 -9999 -9999 -9999 -9999 -9999 -9999 -9999 -9999 -9999 -9999 -9999 -9999 -9999 -9999 -9999 -9999 -9999 -9999 -9999 -9999 -9999 -9999 -9999 -9999 -9999 -9999 -9999 -9999 -9999 -9999 -9999 -9999 -9999 -9999 -9999 -9999 -9999 -9999 -9999 -9999 -9999 -9999 -9999 -9999 -9999 -9999 -9999 -9999 -9999 -9999 -9999 -9999 -9999 -9999 -9999 -9999 -9999 -9999 -9999 -9999 -9999 -9999 -9999 -9999 -9999 -9999 -9999 -9999 -9999 -9999 -9999 -9999 -9999 -9999 -9999 -9999 -9999 -9999 -9999 -9999 -9999 -9999 -9999 -9999 -9999 -9999 -9999 -9999 -9999 -9999 -9999 -9999 -9999 -9999 -9999 -9999 -9999 -9999 -9999 -9999 -9999 -9999 -9999 -9999 542.72 542.585 542.45 542.335 542.235 542.148 542.103 542.008 541.905 541.88 541.878 541.845 541.82 541.738 541.78 541.668 541.618 541.42 541.293 541.1 540.968 540.918 540.953 540.86 540.873 540.793 540.633 540.523 540.41 540.235 540.093 539.975 539.895 539.868 539.615 539.523 539.425 539.308 539.153 539.088 538.968 538.805 538.583 538.473 538.2 538.028 537.84 537.538 537.34 537.27 537.178 536.983 536.77 536.595 536.465 536.288 536.19 535.99 535.91 535.688 535.445 535.308 535.18 535.053 534.968 534.898 534.79 534.653 534.455 534.253 534.143 533.993 533.88 533.793 533.56 533.265 533.103 533.048 532.983 532.81 532.708 532.563 532.303 531.88 531.67 531.51 531.223 530.83 530.46 530.14 529.835 529.39 528.868 528.64 528.338 528.04 527.74 527.288 526.678 526.165 525.855 525.758 525.68 525.6 525.483 525.38 525.223 525.075 524.765 524.468 524.095 523.845 523.508 523.143 522.845 522.563 522.318 521.85 521.315 520.943 520.54 520.058 519.553 519.158 518.753 518.243 517.795 517.38 517.035 516.725 516.383 516.098 515.728 515.435 515.063 514.723 514.393 514.01 513.545 513.158 512.938 512.663 512.393 511.988 511.603 511.238 511.03 510.77 510.453 510.15 509.91 509.613 509.178 508.498 507.935 507.645 507.47 507.025 506.648 506.44 506.348 506.233 506.065 505.986 505.743 505.093 504.888 504.685 504.408 504.2 504.128 503.965 503.695 503.47 503.32 503.315 503.263 503.083 502.76 502.241 501.873 501.615 501.52 501.535 501.535 501.57 501.54 501.47 501.41 501.273 501.003 500.493 500.016 499.708 499.413 498.963 498.34 497.763 497.165 496.813 496.421 495.973 495.61 495.095 494.613 494.38 494.383 494.5 494.51 494.485 494.393 494.108 493.656 493.298 492.851 492.233 491.758 491.823 491.643 491.266 490.916 490.563 490.166 489.808 489.393 488.996 488.698 488.593 488.258 487.638 487.158 486.763 486.468 486.048 485.581 485.218 484.941 484.523 484.253 484.096 483.838 483.613 483.441 483.208 482.898 482.256 481.443 480.733 480.191 479.853 479.426 478.933 478.498 478.296 478.161 477.906 477.506 477.023 476.758 476.498 476.181 475.881 475.608 475.371 475.118 474.761 474.348 473.988 473.601 473.313 472.971 472.666
-9999 -9999 -9999 -9999 -9999 -9999 -9999 -9999 -9999 -9999 -9999 -9999 -9999 -9999 -9999 -9999 -9999 -9999 -9999 -9999 -9999 -9999 -9999 -9999 -9999 -9999 -9999 -9999 -9999 -9999 -9999 -9999 -9999 -9999 -9999 -9999 -9999 -9999 -9999 -9999 -9999 -9999 -9999 -9999 -9999 -9999 -9999 -9999 -9999 -9999 -9999 -9999 -9999 -9999 -9999 -9999 -9999 -9999 -9999 -9999 -9999 -9999 -9999 -9999 -9999 -9999 -9999 -9999 -9999 -9999 -9999 -9999 -9999 -9999 -9999 -9999 -9999 -9999 -9999 -9999 -9999 -9999 -9999 -9999 -9999 -9999 -9999 -9999 -9999 -9999 -9999 -9999 -9999 -9999 -9999 -9999 -9999 -9999 -9999 -9999 -9999 -9999 -9999 -9999 -9999 -9999 -9999 -9999 -9999 -9999 -9999 -9999 -9999 -9999 -9999 -9999 -9999 -9999 -9999 -9999 -9999 -9999 -9999 -9999 -9999 -9999 -9999 -9999 -9999 -9999 -9999 -9999 -9999 -9999 -9999 -9999 -9999 -9999 -9999 -9999 -9999 -9999 -9999 -9999 -9999 -9999 -9999 -9999 -9999 -9999 -9999 -9999 -9999 -9999 -9999 -9999 -9999 -9999 -9999 -9999 -9999 -9999 -9999 -9999 -9999 -9999 -9999 -9999 -9999 -9999 -9999 -9999 -9999 -9999 -9999 -9999 -9999 -9999 -9999 -9999 543.07 543.065 543.078 542.87 542.643 542.53 542.51 542.428 542.44 542.453 542.405 542.323 542.315 542.328 542.255 542.163 542.023 541.895 541.758 541.655 541.675 541.588 541.423 541.335 541.285 541.128 540.93 540.97 540.645 540.473 540.488 540.515 540.39 540.193 540.13 540.063 539.943 539.77 539.688 539.685 539.493 539.185 539.063 538.853 538.64 538.4 538.168 537.935 537.798 537.683 537.53 537.335 537.17 536.99 536.883 536.788 536.618 536.433 536.195 535.97 535.903 535.813 535.738 535.77 535.713 535.535 535.375 535.245 535.058 534.915 534.798 534.598 534.348 533.933 533.805 533.745 533.665 533.633 533.493 533.42 533.34 533.023 532.773 532.443 532.295 532.123 531.793 531.435 531.09 530.86 530.593 530.04 529.618 529.37 529.188 528.793 528.313 527.855 527.44 526.88 526.355 525.993 525.81 525.675 525.605 525.578 525.415 525.05 524.748 524.56 524.52 524.35 524.055 523.743 523.495 523.195 522.795 522.383 522.133 521.743 521.213 520.753 520.373 519.87 519.178 518.708 518.313 517.94 517.643 517.265 516.97 516.603 516.273 515.953 515.528 515.213 514.783 514.448 514.108 513.8 513.483 513.028 512.735 512.5 512.09 511.66 511.353 511.175 510.945 510.725 510.47 510.215 509.68 508.938 508.503 508.278 508.025 507.828 507.535 507.408 507.383 507.13 506.898 506.645 505.978 505.45 505.195 504.948 504.785 504.738 504.735 504.435 504.125 503.885 503.733 503.88 503.953 503.715 503.465 503.158 502.848 502.59 502.44 502.435 502.453 502.375 502.24 502.088 501.885 501.648 501.23 500.875 500.7 500.445 500.028 499.323 498.736 498.343 497.895 497.428 496.94 496.608 496.308 495.965 495.63 495.223 495.045 494.926 494.933 494.888 494.651 494.331 493.983 493.593 493.113 492.513 492.496 492.453 492.218 491.928 491.511 491.148 490.858 490.236 489.563 489.301 489.003 488.821 488.593 487.983 487.441 486.998 486.638 486.208 485.831 485.471 485.173 484.838 484.458 484.241 483.911 483.661 483.443 483.101 482.573 482.116 481.808 481.063 480.391 479.978 479.623 479.356 479.111 478.876 478.513 478.076 477.626 477.341 477.021 476.701 476.458 476.068 475.801 475.531 475.141 474.721 474.391 474.121 473.806 473.471 473.018
-9999 -9999 -9999 -9999 -9999 -9999 -9999 -9999 -9999 -9999 -9999 -9999 -9999 -9999 -9999 -9999 -9999 -9999 -9999 -9999 -9999 -9999 -9999 -9999 -9999 -9999 -9999 -9999 -9999 -9999 -9999 -9999 -9999 -9999 -9999 -9999 -9999 -9999 -9999 -9999 -9999 -9999 -9999 -9999 -9999 -9999 -9999 -9999 -9999 -9999 -9999 -9999 -9999 -9999 -9999 -9999 -9999 -9999 -9999 -9999 -9999 -9999 -9999 -9999 -9999 -9999 -9999 -9999 -9999 -9999 -9999 -9999 -9999 -9999 -9999 -9999 -9999 -9999 -9999 -9999 -9999 -9999 -9999 -9999 -9999 -9999 -9999 -9999 -9999 -9999 -9999 -9999 -9999 -9999 -9999 -9999 -9999 -9999 -9999 -9999 -9999 -9999 -9999 -9999 -9999 -9999 -9999 -9999 -9999 -9999 -9999 -9999 -9999 -9999 -9999 -9999 -9999 -9999 -9999 -9999 -9999 -9999 -9999 -9999 -9999 -9999 -9999 -9999 -9999 -9999 -9999 -9999 -9999 -9999 -9999 -9999 -9999 -9999 -9999 -9999 -9999 -9999 -9999 -9999 -9999 -9999 -9999 -9999 -9999 -9999 -9999 -9999 -9999 -9999 -9999 -9999 -9999 -9999 -9999 -9999 -9999 -9999 -9999 -9999 -9999 -9999 -9999 -9999 -9999 -9999 -9999 -9999 -9999 -9999 -9999 -9999 -9999 -9999 -9999 -9999 -9999 543.513 543.458 543.353 543.145 542.993 542.978 542.95 542.983 543.023 542.99 542.953 542.86 542.873 542.813 542.675 542.563 542.503 542.373 542.218 542.14 542.028 541.978 541.82 541.698 541.478 541.358 541.355 541.13 540.953 540.94 541.06 541.048 540.768 540.683 540.615 540.495 540.453 540.353 540.245 540.088 539.855 539.538 539.323 539.133 538.958 538.74 538.553 538.373 538.208 538.065 537.83 537.695 537.553 537.425 537.35 537.253 537.073 536.908 536.695 536.588 536.53 536.47 536.43 536.305 536.178 536.1 535.918 535.86 535.68 535.433 535.378 535.018 534.615 534.613 534.553 534.36 534.443 534.193 534.075 533.925 533.71 533.48 533.34 533.098 532.865 532.665 532.283 531.988 531.755 531.478 531.125 530.825 530.47 530.228 529.863 529.48 528.79 528.21 527.878 527.455 527.08 526.553 525.95 525.748 525.725 525.795 525.755 525.27 524.985 524.91 524.918 524.74 524.498 524.195 523.908 523.675 523.408 523.158 522.828 522.288 521.783 521.353 520.85 520.123 519.608 519.18 518.828 518.47 518.12 517.813 517.42 517.098 516.758 516.373 516.038 515.65 515.343 515.05 514.693 514.24 513.728 513.445 513.175 512.843 512.49 512.193 511.868 511.66 511.388 511.083 510.773 510.533 510.053 509.583 509.208 509.02 508.823 508.59 508.59 508.41 508.213 507.913 507.62 507.235 506.64 506.265 505.788 505.546 505.338 505.328 505.328 505.076 504.895 504.683 504.605 504.551 504.703 504.668 504.453 504.158 503.853 503.525 503.361 503.22 503.13 502.993 502.78 502.61 502.44 502.12 501.82 501.695 501.385 501.043 500.348 499.753 499.236 498.826 498.478 498.01 497.398 496.875 496.565 496.28 496 495.643 495.398 495.258 495.163 495.038 494.836 494.528 494.188 493.841 493.398 493.251 493.158 493.016 492.616 492.146 491.838 491.596 491.021 490.316 489.996 489.718 489.433 489.103 489.033 488.231 487.666 487.176 486.806 486.418 485.983 485.646 485.326 484.966 484.626 484.376 484.148 483.763 483.491 483.138 482.956 482.531 481.973 480.978 480.661 480.416 480.061 479.688 479.421 479.046 478.598 478.151 477.891 477.568 477.183 476.886 476.606 476.238 475.936 475.583 475.203 474.853 474.506 473.988 473.513 473.153
-9999 -9999 -9999 -9999 -9999 -9999 -9999 -9999 -9999 -9999 -9999 -9999 -9999 -9999 -9999 -9999 -9999 -9999 -9999 -9999 -9999 -9999 -9999 -9999 -9999 -9999 -9999 -9999 -9999 -9999 -9999 -9999 -9999 -9999 -9999 -9999 -9999 -9999 -9999 -9999 -9999 -9999 -9999 -9999 -9999 -9999 -9999 -9999 -9999 -9999 -9999 -9999 -9999 -9999 -9999 -9999 -9999 -9999 -9999 -9999 -9999 -9999 -9999 -9999 -9999 -9999 -9999 -9999 -9999 -9999 -9999 -9999 -9999 -9999 -9999 -9999 -9999 -9999 -9999 -9999 -9999 -9999 -9999 -9999 -9999 -9999 -9999 -9999 -9999 -9999 -9999 -9999 -9999 -9999 -9999 -9999 -9999 -9999 -9999 -9999 -9999 -9999 -9999 -9999 -9999 -9999 -9999 -9999 -9999 -9999 -9999 -9999 -9999 -9999 -9999 -9999 -9999 -9999 -9999 -9999 -9999 -9999 -9999 -9999 -9999 -9999 -9999 -9999 -9999 -9999 -9999 -9999 -9999 -9999 -9999 -9999 -9999 -9999 -9999 -9999 -9999 -9999 -9999 -9999 -9999 -9999 -9999 -9999 -9999 -9999 -9999 -9999 -9999 -9999 -9999 -9999 -9999 -9999 -9999 -9999 -9999 -9999 -9999 -9999 -9999 -9999 -9999 -9999 -9999 -9999 -9999 -9999 -9999 -9999 -9999 -9999 -9999 -9999 -9999 -9999 -9999 -9999 543.978 543.915 543.68 543.553 543.44 543.425 543.518 543.515 543.535 543.475 543.353 543.32 543.29 543.235 543.033 543.05 542.94 542.71 542.645 542.425 542.355 542.28 542.108 541.903 541.855 541.713 541.57 541.445 541.35 541.438 541.39 541.265 541.193 541.125 541.008 540.983 540.903 540.743 540.568 540.285 539.938 539.72 539.513 539.453 539.268 539.02 538.833 538.66 538.558 538.423 538.275 538.12 537.995 537.905 537.808 537.708 537.583 537.43 537.338 537.16 537.07 536.97 536.86 536.755 536.713 536.605 536.478 536.303 536.12 536.085 535.82 535.52 535.375 535.138 535.028 534.918 534.758 534.64 534.52 534.445 534.203 534.085 533.79 533.643 533.338 533.045 532.85 532.59 532.283 531.973 531.595 531.308 530.995 530.623 530.305 529.838 529.245 528.775 528.405 527.94 527.468 526.95 526.44 526.103 525.968 525.96 525.873 525.56 525.46 525.353 525.395 525.228 524.985 524.75 524.443 524.243 523.968 523.628 523.1 522.495 522.215 521.685 520.935 520.44 520.038 519.62 519.278 518.928 518.59 518.203 517.868 517.555 517.273 516.883 516.495 516.173 515.81 515.47 515.133 514.693 514.213 513.983 513.62 513.298 513.015 512.653 512.413 512.155 511.745 511.483 511.24 510.978 510.66 510.528 510.363 510.04 509.76 509.558 509.32 509.058 508.833 508.568 508.205 507.84 507.603 507.235 506.783 506.263 505.963 505.968 506.06 506.173 506.135 505.933 505.66 505.493 505.46 505.33 505.068 504.763 504.44 504.23 503.82 503.675 503.523 503.318 503.22 503.075 502.93 502.783 502.62 502.34 501.988 501.38 500.796 500.288 499.823 499.38 498.883 498.263 497.558 497.03 496.75 496.495 496.315 495.94 495.765 495.628 495.613 495.256 494.908 494.633 494.366 494.113 493.866 493.711 493.563 493.256 492.803 492.508 492.323 491.811 491.271 490.781 490.408 490.146 489.773 489.333 489.071 488.543 487.933 487.481 487.136 486.786 486.278 485.871 485.536 485.131 484.811 484.508 484.146 483.878 483.588 483.353 483.138 482.516 482.068 482.003 481.473 480.948 480.428 479.978 479.516 479.161 478.728 478.306 477.981 477.703 477.373 477.091 476.753 476.378 476.036 475.658 475.273 474.616 474.008 473.786 473.751
-9999 -9999 -9999 -9999 -9999 -9999 -9999 -9999 -9999 -9999 -9999 -9999 -9999 -9999 -9999 -9999 -9999 -9999 -9999 -9999 -9999 -9999 -9999 -9999 -9999 -9999 -9999 -9999 -9999 -9999 -9999 -9999 -9999 -9999 -9999 -9999 -9999 -9999 -9999 -9999 -9999 -9999 -9999 -9999 -9999 -9999 -9999 -9999 -9999 -9999 -9999 -9999 -9999 -9999 -9999 -9999 -9999 -9999 -9999 -9999 -9999 -9999 -9999 -9999 -9999 -9999 -9999 -9999 -9999 -9999 -9999 -9999 -9999 -9999 -9999 -9999 -9999 -9999 -9999 -9999 -9999 -9999 -9999 -9999 -9999 -9999 -9999 -9999 -9999 -9999 -9999 -9999 -9999 -9999 -9999 -9999 -9999 -9999 -9999 -9999 -9999 -9999 -9999 -9999 -9999 -9999 -9999 -9999 -9999 -9999 -9999 -9999 -9999 -9999 -9999 -9999 -9999 -9999 -9999 -9999 -9999 -9999 -9999 -9999 -9999 -9999 -9999 -9999 -9999 -9999 -9999 -9999 -9999 -9999 -9999 -9999 -9999 -9999 -9999 -9999 -9999 -9999 -9999 -9999 -9999 -9999 -9999 -9999 -9999 -9999 -9999 -9999 -9999 -9999 -9999 -9999 -9999 -9999 -9999 -9999 -9999 -9999 -9999 -9999 -9999 -9999 -9999 -9999 -9999 -9999 -9999 -9999 -9999 -9999 -9999 -9999 -9999 -9999 -9999 -9999 -9999 -9999 544.45 544.338 544.238 544.115 543.995 543.99 544.07 544.003 544.01 543.95 543.955 543.908 543.773 543.648 543.478 543.468 543.373 543.193 543.175 543.093 542.893 542.713 542.595 542.61 542.398 542.218 542.04 541.878 541.74 541.69 541.715 541.628 541.528 541.453 541.45 541.44 541.29 541.088 540.83 540.578 540.265 540.078 539.98 539.845 539.663 539.453 539.253 539.095 538.99 538.868 538.765 538.685 538.585 538.46 538.335 538.275 538.095 537.985 537.895 537.73 537.618 537.475 537.378 537.275 537.285 537.323 537.228 536.89 536.71 536.623 536.383 536.228 535.973 535.823 535.703 535.585 535.403 535.385 535.313 535.275 535.008 534.825 534.515 534.243 534.1 533.84 533.603 533.283 532.963 532.648 532.248 531.965 531.66 531.388 531.118 530.698 530.338 529.815 529.255 528.865 528.445 527.938 527.53 527.125 526.483 526.08 526.125 526.128 525.898 525.78 525.798 525.81 525.778 525.52 525.073 524.82 524.56 524.263 523.65 523.195 522.945 522.348 521.655 521.26 520.875 520.438 520.068 519.693 519.363 519.06 518.755 518.403 518.068 517.665 517.27 516.868 516.41 516.01 515.75 515.448 515.035 514.878 514.5 514.128 513.848 513.448 513.108 512.905 512.685 512.28 512.068 511.748 511.575 511.41 511.253 510.893 510.44 510.258 509.98 509.745 509.553 509.326 509.123 508.9 508.605 508.24 507.823 507.478 507.005 506.808 506.868 507.06 507.178 507.085 506.808 506.593 506.445 506.21 506.073 505.843 505.543 505.333 504.921 504.54 504.293 504.058 503.853 503.788 503.713 503.6 503.498 503.248 502.928 502.34 501.8 501.315 500.865 500.305 499.715 499.14 498.538 498.125 497.87 497.538 497.225 496.748 496.475 496.25 496.061 495.726 495.213 494.923 494.713 494.506 494.366 494.231 494.093 493.841 493.438 493.231 493.093 492.683 492.066 491.678 491.256 490.833 490.616 490.008 489.463 489.006 488.828 488.196 487.846 487.478 487.031 486.521 486.086 485.661 485.228 484.873 484.518 484.233 483.958 483.668 483.528 483.258 482.928 482.753 482.178 481.851 481.263 480.858 480.168 479.608 479.253 478.816 478.426 478.148 477.831 477.541 477.211 476.878 476.523 476.126 475.503 474.708 474.458 474.416 474.476
-9999 -9999 -9999 -9999 -9999 -9999 -9999 -9999 -9999 -9999 -9999 -9999 -9999 -9999 -9999 -9999 -9999 -9999 -9999 -9999 -9999 -9999 -9999 -9999 -9999 -9999 -9999 -9999 -9999 -9999 -9999 -9999 -9999 -9999 -9999 -9999 -9999 -9999 -9999 -9999 -9999 -9999 -9999 -9999 -9999 -9999 -9999 -9999 -9999 -9999 -9999 -9999 -9999 -9999 -9999 -9999 -9999 -9999 -9999 -9999 -9999 -9999 -9999 -9999 -9999 -9999 -9999 -9999 -9999 -9999 -9999 -9999 -9999 -9999 -9999 -9999 -9999 -9999 -9999 -9999 -9999 -9999 -9999 -9999 -9999 -9999 -9999 -9999 -9999 -9999 -9999 -9999 -9999 -9999 -9999 -9999 -9999 -9999 -9999 -9999 -9999 -9999 -9999 -9999 -9999 -9999 -9999 -9999 -9999 -9999 -9999 -9999 -9999 -9999 -9999 -9999 -9999 -9999 -9999 -9999 -9999 -9999 -9999 -9999 -9999 -9999 -9999 -9999 -9999 -9999 -9999 -9999 -9999 -9999 -9999 -9999 -9999 -9999 -9999 -9999 -9999 -9999 -9999 -9999 -9999 -9999 -9999 -9999 -9999 -9999 -9999 -9999 -9999 -9999 -9999 -9999 -9999 -9999 -9999 -9999 -9999 -9999 -9999 -9999 -9999 -9999 -9999 -9999 -9999 -9999 -9999 -9999 -9999 -9999 -9999 -9999 -9999 -9999 -9999 -9999 -9999 -9999 -9999 544.815 544.73 544.61 544.58 544.548 544.568 544.48 544.438 544.44 544.415 544.308 544.215 544.16 544.025 543.97 543.908 543.768 543.718 543.708 543.465 543.27 543.253 543.19 543.05 542.735 542.555 542.343 542.248 542.155 542.105 542.05 542 541.873 541.798 541.72 541.645 541.408 541.178 540.96 540.718 540.52 540.378 540.195 540.005 539.823 539.623 539.465 539.373 539.273 539.213 539.09 539.07 539.03 538.795 538.638 538.488 538.428 538.313 538.213 538.163 537.978 537.738 537.665 537.638 537.655 537.61 537.453 537.283 537.033 536.973 536.908 536.735 536.62 536.483 536.253 536.198 536.093 535.995 536.02 535.748 535.535 535.223 534.988 534.713 534.48 534.223 533.933 533.778 533.513 533.205 532.898 532.48 532.123 531.813 531.548 531.198 530.728 530.255 529.693 529.293 528.843 528.478 528.153 527.69 526.983 526.53 526.335 526.373 526.41 526.465 526.4 526.213 526.073 525.678 525.383 525.115 524.79 524.515 524.08 523.68 522.945 522.408 522.118 521.715 521.278 520.905 520.543 520.203 519.883 519.598 519.343 518.968 518.5 518.15 517.775 517.37 516.915 516.51 516.19 515.898 515.603 515.258 514.923 514.55 514.21 513.738 513.558 513.3 513.083 512.873 512.583 512.4 512.253 511.96 511.668 511.305 510.955 510.653 510.443 510.23 509.953 509.76 509.653 509.373 509.048 508.701 508.455 508.105 507.81 507.85 508.065 508.14 507.993 507.753 507.438 507.268 507.215 507.133 506.935 506.71 506.565 506.308 506.028 505.828 505.395 505.005 504.773 504.603 504.525 504.413 504.148 503.885 503.435 502.935 502.455 501.933 501.326 500.728 500.171 499.73 499.385 499.095 498.74 498.34 497.818 497.34 497.01 496.728 496.318 495.808 495.498 495.066 494.766 494.636 494.563 494.433 494.258 494.036 493.926 493.898 493.671 493.018 492.446 492.023 491.443 491.073 490.723 490.096 489.593 489.216 489.141 488.491 488.108 487.758 487.233 486.681 486.186 485.791 485.351 484.923 484.596 484.321 484.203 483.888 483.636 483.493 483.126 482.786 482.538 481.978 481.506 480.981 480.226 479.716 479.333 478.928 478.586 478.271 477.931 477.628 477.293 476.941 476.568 475.743 475.098 475.236 475.083 475.053
