ncols 377
nrows 31
xllcorner    386068
yllcorner    477072
cellsize     2
NODATA_value -9999
470.157 469.934 469.819 469.762 469.649 469.522 469.407 469.347 469.277 469.159 469.019 468.919 468.812 468.667 468.442 468.242 468.109 467.947 467.684 467.367 467.149 466.929 466.574 466.274 466.089 465.389 465.022 464.739 464.434 464.117 463.792 463.492 463.197 462.922 462.659 462.422 462.237 462.002 461.822 461.662 461.527 461.337 461.199 461.069 460.959 460.839 460.737 460.557 460.442 460.272 460.117 459.927 459.979 460.124 459.229 458.897 458.647 458.344 457.917 457.409 457.014 456.622 456.269 456.022 455.692 455.362 455.112 454.732 454.482 454.402 454.164 453.722 453.299 453.049 452.722 452.449 452.042 451.829 451.684 451.444 451.304 451.124 450.934 450.834 450.642 450.497 450.334 450.117 449.899 449.734 449.577 449.329 449.052 448.862 448.642 448.459 448.222 448.032 447.847 447.617 447.399 447.154 446.882 446.564 446.289 445.994 445.724 445.424 445.094 444.764 444.352 443.999 443.652 443.144 442.724 442.352 441.902 441.504 441.132 440.739 440.232 439.669 439.154 438.582 437.694 436.732 436.747 437.274 437.564 437.322 436.799 436.209 435.672 435.084 434.594 434.119 433.684 433.392 433.147 432.854 432.447 431.964 431.557 431.394 431.137 430.904 430.637 430.454 430.199 429.894 429.652 429.357 429.092 428.939 428.794 428.669 428.589 428.537 428.474 428.327 428.002 427.639 427.704 428.097 427.347 426.777 426.117 425.654 425.197 424.822 424.532 424.334 424.034 423.817 423.662 423.404 423.187 423.019 422.809 422.652 422.409 422.087 421.772 421.434 421.194 420.902 420.602 420.274 419.847 419.384 418.877 418.382 417.832 417.267 416.767 416.319 416.039 415.902 415.762 415.384 415.152 415.024 414.827 414.572 414.349 413.984 413.739 413.507 413.627 413.177 412.849 412.699 412.324 412.072 411.339 411.147 410.959 410.892 410.864 410.602 410.192 409.907 409.664 409.264 409.087 408.964 408.699 408.479 408.262 407.939 407.534 406.992 406.627 406.239 405.802 405.349 404.864 404.409 403.902 403.579 403.087 402.754 402.459 402.187 401.819 401.409 400.979 400.604 400.177 399.844 399.492 399.162 398.857 398.584 398.279 397.924 397.629 397.294 396.972 396.694 396.367 396.139 395.879 395.589 395.294 394.989 394.684 394.417 394.149 393.917 393.669 393.364 393.034 392.664 392.309 391.989 391.699 391.369 391.067 390.842 390.549 390.247 389.942 389.574 389.222 388.924 388.624 388.284 387.889 387.542 387.229 386.902 386.609 386.317 386.077 385.867 385.517 385.087 384.737 384.292 383.782 383.357 382.834 382.429 381.974 381.372 380.699 380.374 380.227 380.037 379.802 379.617 379.432 379.254 379.057 378.829 378.614 378.374 378.114 377.849 377.614 377.402 377.172 376.962 376.719 376.459 376.114 376.197 376.342 375.799 375.429 375.174 374.952 374.732 374.464 374.209 373.957 373.709 373.462 373.067 372.682 372.267 371.917 371.634 371.359 371.094 370.842 370.572 370.264 370.019 369.737 369.422 369.057 368.714 368.327 368.032 367.662 367.347 366.987 366.624 366.277 365.917 365.514 365.189 364.854 364.542 364.212 363.939 363.669 363.374 363.167 362.902 362.664 362.397 362.089 361.804 361.472
469.759 469.659 469.612 469.557 469.422 469.309 469.182 469.109 469.037 468.907 468.784 468.659 468.524 468.372 468.159 467.862 467.697 467.484 467.237 466.937 466.637 466.392 466.079 465.702 465.424 465.289 464.527 464.239 463.972 463.729 463.472 463.187 462.902 462.632 462.392 462.204 462.067 461.854 461.717 461.497 461.314 461.177 461.092 460.877 460.762 460.654 460.542 460.417 460.257 460.129 459.869 459.634 459.412 459.132 459.382 458.622 458.187 457.787 457.472 457.069 456.664 456.282 455.857 455.672 455.307 454.954 454.664 454.424 454.112 453.859 453.739 453.412 453.057 452.762 452.492 452.187 451.884 451.697 451.564 451.309 451.189 451.072 450.832 450.692 450.492 450.319 450.139 449.912 449.689 449.469 449.257 449.044 448.787 448.587 448.484 448.279 448.042 447.767 447.572 447.387 447.169 446.889 446.567 446.302 445.994 445.687 445.407 445.084 444.777 444.504 444.069 443.669 443.242 442.819 442.384 441.962 441.569 441.162 440.764 440.344 439.857 439.467 438.864 438.182 437.387 436.817 437.039 437.494 437.462 437.014 436.427 435.924 435.417 434.912 434.452 434.022 433.687 433.347 433.057 432.717 432.287 431.742 431.489 431.264 431.069 430.829 430.554 430.442 430.164 429.872 429.629 429.317 429.159 429.107 428.779 428.634 428.572 428.524 428.397 428.187 427.702 427.589 427.754 427.444 426.979 426.549 425.947 425.452 425.007 424.697 424.422 424.244 423.979 423.729 423.579 423.282 423.047 422.897 422.584 422.379 422.187 421.894 421.584 421.247 420.972 420.659 420.404 419.987 419.634 419.229 418.619 418.169 417.599 417.137 416.672 416.252 415.974 415.837 415.544 415.277 415.067 414.897 414.717 414.504 414.209 413.907 413.647 413.427 413.449 413.162 412.732 412.522 411.914 411.662 411.254 411.257 411.107 410.904 410.599 410.242 409.902 409.702 409.439 409.157 409.012 408.814 408.617 408.312 408.117 407.852 407.394 406.917 406.529 406.102 405.644 405.229 404.762 404.307 403.854 403.512 403.049 402.732 402.444 402.102 401.729 401.362 400.952 400.614 400.222 399.842 399.532 399.207 398.927 398.667 398.387 398.047 397.679 397.322 397.004 396.692 396.384 396.087 395.822 395.549 395.234 394.932 394.574 394.284 393.999 393.689 393.424 393.199 392.887 392.537 392.172 391.782 391.487 391.139 390.854 390.629 390.387 390.087 389.774 389.467 389.124 388.857 388.517 388.197 387.854 387.507 387.162 386.864 386.582 386.294 386.077 385.849 385.449 385.074 384.724 384.367 383.902 383.437 382.944 382.514 381.987 381.437 380.732 380.297 380.162 379.917 379.692 379.529 379.377 379.229 379.032 378.794 378.562 378.302 378.017 377.749 377.502 377.267 377.032 376.859 376.652 376.437 376.117 375.877 376.289 375.884 375.479 375.164 374.962 374.724 374.482 374.192 373.904 373.654 373.359 373.007 372.574 372.174 371.844 371.557 371.289 371.022 370.802 370.509 370.207 369.954 369.712 369.412 369.072 368.674 368.272 367.919 367.669 367.314 366.939 366.549 366.252 365.854 365.512 365.209 364.882 364.562 364.252 363.937 363.677 363.419 363.194 362.952 362.689 362.454 362.177 361.809 361.499
469.519 469.409 469.394 469.354 469.229 469.134 469.014 468.874 468.772 468.662 468.547 468.392 468.212 468.007 467.807 467.534 467.244 467.052 466.777 466.492 466.159 465.859 465.584 465.244 464.887 464.632 464.254 463.949 463.669 463.417 463.117 462.834 462.587 462.357 462.122 461.929 461.812 461.612 461.517 461.282 461.147 461.042 460.864 460.742 460.604 460.414 460.299 460.157 460.002 459.814 459.552 459.304 459.057 458.802 458.614 458.614 457.912 457.267 456.874 456.564 456.174 455.859 455.452 455.234 454.984 454.602 454.322 454.027 453.857 453.559 453.282 453.034 452.739 452.469 452.237 452.044 451.827 451.569 451.354 451.174 451.052 450.927 450.774 450.599 450.379 450.172 449.989 449.694 449.472 449.277 449.059 448.772 448.582 448.352 448.199 448.059 447.862 447.514 447.317 447.079 446.887 446.607 446.282 445.967 445.694 445.377 445.052 444.762 444.367 444.049 443.682 443.257 442.869 442.427 441.997 441.602 441.217 440.869 440.469 440.047 439.559 439.022 438.379 437.712 437.032 436.957 437.414 437.552 437.274 436.802 436.207 435.689 435.194 434.709 434.302 433.964 433.574 433.337 433.007 432.627 432.239 431.859 431.464 431.149 430.957 430.764 430.489 430.327 430.079 429.757 429.404 429.184 429.119 428.904 428.612 428.607 428.542 428.609 428.344 428.069 427.549 427.419 428.102 427.179 426.847 426.487 425.724 425.304 424.879 424.547 424.289 424.099 423.902 423.642 423.432 423.217 422.912 422.629 422.384 422.187 421.994 421.642 421.402 421.064 420.679 420.462 420.102 419.724 419.317 418.899 418.502 417.982 417.502 416.944 416.619 416.207 416.019 415.702 415.472 415.219 414.964 414.797 414.599 414.464 414.092 413.817 413.559 413.359 413.314 413.417 412.809 412.399 411.682 411.414 411.394 411.139 411.037 410.762 410.302 410.029 409.729 409.454 409.337 409.092 408.874 408.732 408.492 408.202 407.929 407.647 407.229 406.859 406.422 406.012 405.529 405.064 404.599 404.194 403.752 403.382 402.997 402.664 402.347 402.012 401.692 401.302 400.919 400.569 400.257 399.907 399.579 399.272 398.992 398.702 398.424 398.117 397.744 397.379 397.022 396.667 396.387 396.092 395.797 395.494 395.177 394.902 394.542 394.154 393.812 393.514 393.252 392.984 392.697 392.404 391.982 391.609 391.309 390.967 390.689 390.479 390.192 389.897 389.632 389.362 389.044 388.799 388.469 388.099 387.784 387.449 387.102 386.834 386.537 386.272 386.079 385.812 385.434 385.049 384.719 384.354 383.989 383.547 383.034 382.642 382.184 381.609 380.987 380.464 380.192 379.914 379.657 379.482 379.299 379.147 378.982 378.749 378.489 378.262 377.989 377.732 377.457 377.182 376.959 376.772 376.552 376.329 376.042 375.799 375.884 376.202 375.749 375.504 375.199 375.037 374.772 374.437 374.117 373.739 373.462 373.209 372.744 372.179 371.844 371.564 371.267 371.012 370.789 370.454 370.159 369.889 369.654 369.362 369.002 368.594 368.202 367.902 367.634 367.229 366.897 366.529 366.157 365.792 365.489 365.222 364.869 364.524 364.239 363.989 363.739 363.467 363.229 362.962 362.702 362.464 362.207 361.909 361.587
469.344 469.229 469.169 469.134 469.029 468.904 468.744 468.597 468.477 468.382 468.254 468.094 467.884 467.664 467.429 467.144 466.842 466.574 466.312 466.014 465.667 465.322 465.044 464.774 464.409 464.094 464.119 463.897 463.224 463.014 462.762 462.507 462.299 462.089 461.899 461.709 461.522 461.474 461.252 461.139 460.969 460.794 460.672 460.574 460.407 460.247 460.077 459.917 459.732 459.467 459.219 458.944 458.632 458.469 458.022 457.549 457.469 457.194 456.989 456.484 455.777 455.389 455.089 454.847 454.569 454.222 453.899 453.639 453.442 453.189 452.967 452.672 452.422 452.177 451.974 451.779 451.589 451.389 451.207 451.037 450.884 450.689 450.612 450.404 450.189 449.974 449.719 449.487 449.197 448.989 448.799 448.594 448.344 448.147 447.904 447.779 447.592 447.297 446.984 446.772 446.497 446.272 445.972 445.662 445.329 445.019 444.737 444.377 444.007 443.667 443.289 442.812 442.489 442.042 441.682 441.317 441.002 440.602 440.229 439.652 439.104 438.414 437.692 436.909 436.794 437.207 437.479 437.407 437.062 436.554 435.949 435.427 434.962 434.507 434.124 433.807 433.469 433.199 432.954 432.597 432.234 431.832 431.484 431.132 430.859 430.644 430.392 430.147 429.982 429.647 429.392 429.232 429.104 428.882 428.699 428.669 428.519 428.294 427.902 427.767 427.362 427.579 427.832 426.924 426.629 426.249 425.562 425.099 424.707 424.402 424.182 424.069 423.832 423.569 423.352 423.112 422.804 422.474 422.217 422.012 421.812 421.449 421.162 420.864 420.514 420.234 419.822 419.337 418.987 418.519 418.149 417.869 417.379 416.869 416.457 416.189 415.912 415.714 415.459 415.179 414.877 414.717 414.557 414.344 414.054 413.794 413.514 413.319 413.197 413.337 412.764 412.159 411.627 411.479 411.487 411.274 410.962 410.469 410.119 409.869 409.444 409.334 409.227 409.019 408.847 408.609 408.374 408.129 407.772 407.424 407.049 406.672 406.284 405.909 405.472 405.014 404.572 404.127 403.707 403.357 402.944 402.594 402.249 401.912 401.617 401.224 400.869 400.569 400.234 399.899 399.612 399.317 399.064 398.784 398.507 398.182 397.834 397.457 397.057 396.689 396.392 396.072 395.742 395.432 395.159 394.879 394.499 394.082 393.712 393.389 393.082 392.742 392.477 392.244 391.832 391.459 391.154 390.837 390.567 390.332 390.062 389.774 389.552 389.262 388.969 388.702 388.377 388.009 387.699 387.399 387.052 386.822 386.512 386.234 386.037 385.727 385.357 385.022 384.679 384.299 383.972 383.544 383.039 382.624 382.117 381.589 381.022 380.572 380.174 379.839 379.589 379.397 379.262 379.104 378.927 378.699 378.459 378.262 377.977 377.707 377.389 377.149 376.924 376.697 376.464 376.227 375.989 375.762 375.699 376.012 375.739 375.242 375.194 374.742 374.512 374.239 374.207 373.992 373.422 373.152 372.877 372.584 372.192 371.844 371.684 371.394 371.079 371.034 370.529 370.592 370.174 369.932 369.404 368.979 368.889 368.114 367.687 367.254 366.864 366.524 366.174 365.742 365.419 365.209 364.962 364.594 364.264 364.029 363.777 363.517 363.287 363.044 362.784 362.462 362.227 361.962 361.677
469.092 468.979 468.864 468.839 468.772 468.682 468.487 468.312 468.179 468.049 467.907 467.722 467.524 467.302 467.052 466.739 466.394 466.072 465.827 465.539 465.174 464.839 464.539 464.252 463.919 463.712 463.529 463.447 463.162 462.724 462.437 462.254 462.092 461.914 461.742 461.534 461.397 461.289 461.087 460.939 460.767 460.617 460.522 460.407 460.227 460.064 459.867 459.682 459.472 459.147 458.814 458.532 458.177 457.842 457.482 457.009 456.599 456.289 455.869 455.864 455.862 455.162 454.567 454.374 454.154 453.899 453.619 453.349 453.107 452.877 452.647 452.382 452.127 451.904 451.672 451.502 451.392 451.179 451.002 450.807 450.672 450.552 450.369 450.157 449.979 449.677 449.417 449.182 448.954 448.754 448.509 448.314 448.102 447.867 447.674 447.444 447.237 446.947 446.687 446.464 446.174 445.952 445.674 445.352 444.969 444.632 444.327 443.984 443.672 443.272 442.827 442.429 442.079 441.717 441.324 441.002 440.677 440.354 439.872 439.292 438.747 437.804 436.894 436.282 436.639 437.444 437.464 437.097 436.692 436.152 435.627 435.154 434.704 434.294 433.967 433.667 433.364 433.127 432.904 432.599 432.229 431.842 431.479 431.174 430.829 430.577 430.317 430.094 429.824 429.607 429.382 429.274 429.124 428.824 428.694 428.654 428.537 427.957 427.637 427.527 427.364 427.572 427.029 426.674 426.412 425.937 425.439 425.007 424.604 424.297 424.062 423.877 423.747 423.442 423.222 422.929 422.632 422.379 422.027 421.772 421.577 421.277 420.994 420.649 420.344 419.974 419.632 419.234 418.689 418.297 417.927 417.632 417.312 416.842 416.507 416.157 415.857 415.599 415.409 415.104 414.834 414.654 414.447 414.244 413.969 413.689 413.399 413.194 412.994 413.199 412.594 412.007 411.617 411.547 411.484 411.289 410.787 410.359 409.999 409.764 409.462 409.287 409.117 408.927 408.747 408.467 408.259 408.004 407.597 407.147 406.894 406.557 406.177 405.807 405.449 404.989 404.582 404.154 403.664 403.324 402.879 402.492 402.164 401.879 401.507 401.174 400.824 400.582 400.234 399.924 399.637 399.374 399.074 398.817 398.532 398.209 397.889 397.499 397.102 396.719 396.377 396.049 395.722 395.387 395.052 394.737 394.429 394.019 393.667 393.339 392.969 392.567 392.247 392.034 391.702 391.352 391.039 390.717 390.454 390.234 389.964 389.694 389.454 389.164 388.869 388.604 388.254 387.909 387.607 387.322 386.989 386.764 386.474 386.214 385.974 385.614 385.307 384.954 384.599 384.259 383.914 383.472 382.994 382.559 381.997 381.474 380.892 380.549 380.137 379.749 379.539 379.347 379.212 379.057 378.882 378.639 378.412 378.224 377.937 377.667 377.379 377.104 376.877 376.667 376.414 376.144 375.934 375.669 375.584 375.592 375.764 375.152 374.804 374.577 374.307 374.019 373.689 373.332 373.077 372.762 372.344 371.824 371.494 371.234 371.094 370.864 370.519 370.237 370.022 369.824 369.549 369.374 369.009 368.749 368.369 368.417 368.242 367.609 367.404 367.147 366.549 366.039 365.392 365.297 365.219 364.957 364.472 364.132 363.857 363.607 363.367 363.104 362.847 362.522 362.222 361.907 361.602
468.837 468.734 468.612 468.534 468.507 468.399 468.237 468.072 467.927 467.752 467.559 467.337 467.104 466.842 466.607 466.304 465.964 465.632 465.292 465.029 464.719 464.412 464.092 463.794 463.532 463.352 463.177 462.987 462.957 462.644 462.234 462.022 461.909 461.719 461.547 461.372 461.204 461.039 460.869 460.702 460.549 460.462 460.369 460.207 460.029 459.819 459.604 459.342 459.049 458.754 458.399 458.039 457.682 457.269 456.854 456.482 456.104 455.787 455.369 454.999 454.717 454.744 454.939 454.219 453.777 453.499 453.279 453.009 452.802 452.577 452.307 452.057 451.834 451.642 451.547 451.337 451.159 450.917 450.759 450.572 450.439 450.312 450.097 449.907 449.677 449.379 449.144 448.917 448.722 448.447 448.264 448.134 447.874 447.619 447.422 447.197 446.927 446.624 446.389 446.162 445.884 445.584 445.342 444.949 444.647 444.292 443.977 443.667 443.259 442.899 442.462 442.109 441.712 441.399 441.162 440.834 440.522 440.112 439.609 438.972 438.419 437.714 436.842 436.434 436.989 437.444 437.402 436.932 436.367 435.864 435.384 434.899 434.449 434.114 433.812 433.509 433.254 432.982 432.727 432.559 432.224 431.799 431.477 431.094 430.772 430.567 430.327 430.139 429.837 429.617 429.414 429.232 429.044 428.837 428.664 428.597 428.239 427.687 427.714 427.459 427.442 427.639 426.684 426.452 426.209 425.689 425.132 424.757 424.442 424.209 423.954 423.787 423.627 423.332 423.107 422.772 422.524 422.272 421.924 421.729 421.597 421.197 420.859 420.514 420.229 419.809 419.417 419.009 418.642 418.007 417.744 417.514 417.204 416.834 416.467 416.129 415.744 415.527 415.282 415.034 414.754 414.602 414.369 414.074 413.829 413.549 413.304 413.054 412.867 412.979 412.554 412.267 411.744 411.602 411.412 410.997 410.622 410.252 409.989 409.814 409.502 409.257 409.049 408.804 408.604 408.372 408.164 407.917 407.409 407.052 406.762 406.504 406.119 405.704 405.319 404.904 404.519 404.074 403.692 403.357 402.872 402.527 402.152 401.829 401.467 401.107 400.777 400.507 400.214 399.944 399.647 399.422 399.149 398.827 398.562 398.199 397.867 397.474 397.112 396.727 396.384 396.064 395.757 395.377 394.977 394.622 394.339 393.972 393.574 393.219 392.847 392.437 392.084 391.797 391.444 391.169 390.892 390.612 390.342 390.152 389.892 389.599 389.347 389.072 388.774 388.482 388.152 387.787 387.537 387.194 386.904 386.687 386.422 386.192 385.954 385.574 385.252 384.907 384.547 384.202 383.827 383.402 382.954 382.462 381.932 381.362 380.832 380.539 380.132 379.722 379.509 379.294 379.149 379.009 378.837 378.597 378.354 378.179 377.904 377.609 377.357 377.089 376.799 376.564 376.314 376.092 375.869 375.637 375.487 375.422 375.662 375.314 374.792 374.537 374.262 373.964 373.607 373.202 372.869 372.609 372.212 371.752 371.292 371.004 370.904 370.714 370.404 370.107 369.922 369.742 369.509 369.209 368.904 368.587 368.232 367.972 367.579 367.239 366.922 366.627 366.234 365.784 365.457 365.337 365.089 365.014 364.869 364.679 364.272 364.012 363.984 363.534 363.297 362.969 362.834 362.377 362.042
468.584 468.457 468.347 468.272 468.179 468.087 467.944 467.777 467.589 467.364 467.147 466.914 466.629 466.347 466.109 465.832 465.524 465.124 464.777 464.502 464.219 463.864 463.634 463.442 463.242 463.082 462.869 462.724 462.544 462.497 462.357 461.832 461.739 461.544 461.409 461.242 461.074 460.904 460.717 460.499 460.389 460.302 460.127 459.954 459.799 459.582 459.342 459.034 458.634 458.282 457.984 457.579 457.169 456.752 456.362 456.007 455.659 455.289 454.919 454.659 454.347 454.067 453.814 453.912 453.914 453.587 452.919 452.709 452.527 452.322 452.044 451.752 451.554 451.419 451.282 451.149 450.979 450.759 450.567 450.392 450.222 450.029 449.799 449.602 449.399 449.154 448.852 448.634 448.437 448.224 448.084 447.832 447.607 447.359 447.142 446.914 446.702 446.344 446.062 445.809 445.627 445.244 444.979 444.679 444.292 443.954 443.577 443.247 442.934 442.554 442.042 441.784 441.469 441.152 440.832 440.519 440.142 439.749 439.219 438.672 438.097 437.432 436.757 436.937 437.287 437.352 437.089 436.599 436.134 435.629 435.154 434.732 434.272 433.979 433.659 433.384 433.152 432.877 432.639 432.417 432.097 431.649 431.284 430.969 430.707 430.512 430.282 430.047 429.834 429.619 429.432 429.232 429.012 428.809 428.617 428.502 427.984 427.709 427.624 427.369 427.362 427.399 426.459 426.219 425.849 425.284 424.899 424.612 424.367 424.112 423.819 423.659 423.424 423.212 422.904 422.592 422.312 422.022 421.809 421.584 421.349 421.012 420.674 420.342 420.007 419.614 419.259 418.822 418.394 417.879 417.627 417.479 417.242 416.699 416.367 416.064 415.769 415.482 415.172 414.919 414.637 414.522 414.277 413.932 413.652 413.352 413.119 412.894 412.642 413.019 412.407 412.187 411.819 411.482 411.224 410.879 410.534 410.234 409.964 409.699 409.474 409.219 408.904 408.677 408.454 408.262 407.914 407.669 407.262 406.959 406.692 406.402 405.962 405.592 405.277 404.837 404.452 404.084 403.674 403.409 402.929 402.514 402.194 401.827 401.494 401.172 400.844 400.529 400.209 399.962 399.707 399.434 399.177 398.869 398.539 398.247 397.954 397.497 397.097 396.767 396.422 396.089 395.712 395.367 395.014 394.637 394.274 393.879 393.487 393.127 392.789 392.394 392.027 391.734 391.337 390.952 390.682 390.407 390.199 389.999 389.782 389.497 389.262 388.977 388.662 388.374 388.054 387.709 387.459 387.159 386.819 386.617 386.359 386.104 385.852 385.504 385.194 384.859 384.507 384.149 383.767 383.344 382.892 382.399 381.812 381.159 380.714 380.459 380.079 379.692 379.449 379.284 379.162 378.992 378.809 378.574 378.329 378.102 377.849 377.559 377.249 376.979 376.714 376.537 376.309 376.042 375.837 375.639 375.469 375.319 375.284 375.674 374.832 374.519 374.267 373.949 373.514 373.064 372.692 372.367 372.102 371.767 371.349 371.009 370.797 370.634 370.349 370.047 369.837 369.687 369.482 369.184 368.909 368.604 368.254 367.892 367.559 367.212 366.907 366.604 366.274 365.907 365.612 365.289 365.009 364.727 364.414 364.112 363.877 363.604 363.372 363.104 362.804 362.539 362.659 361.977 361.837
468.327 468.202 468.072 467.964 467.842 467.732 467.577 467.389 467.162 466.912 466.664 466.432 466.159 465.889 465.659 465.412 465.097 464.734 464.297 463.967 463.734 463.492 463.332 463.149 462.974 462.977 462.727 462.577 462.394 462.184 462.157 461.789 461.632 461.417 461.242 461.059 460.902 460.722 460.484 460.369 460.197 460.024 459.867 459.674 459.504 459.282 459.094 458.732 458.269 457.702 457.372 457.012 456.667 456.322 455.942 455.554 455.237 454.947 454.594 454.327 453.979 453.807 453.557 453.307 453.062 452.987 453.157 453.179 452.262 452.029 451.777 451.482 451.299 451.204 451.044 450.932 450.772 450.634 450.482 450.227 450.037 449.789 449.527 449.329 449.024 448.819 448.557 448.392 448.217 447.984 447.807 447.569 447.389 447.132 446.867 446.604 446.412 446.064 445.707 445.439 445.169 444.889 444.569 444.229 443.922 443.589 443.239 442.867 442.557 442.119 441.679 441.317 441.049 440.787 440.507 440.109 439.719 439.259 438.759 438.267 437.557 436.909 436.809 437.269 437.414 437.229 436.809 436.349 435.789 435.242 434.882 434.497 434.089 433.787 433.534 433.312 433.069 432.797 432.574 432.317 431.987 431.522 431.127 430.902 430.664 430.462 430.237 429.989 429.797 429.579 429.397 429.249 429.044 428.834 428.639 428.487 428.084 427.822 427.579 427.244 427.272 426.689 426.387 426.004 425.547 425.064 424.694 424.482 424.239 424.042 423.804 423.462 423.222 422.952 422.639 422.399 422.232 421.972 421.669 421.442 421.242 420.929 420.557 420.149 419.727 419.394 419.002 418.709 418.279 417.877 417.567 417.357 417.034 416.624 416.264 415.962 415.799 415.494 415.152 414.842 414.487 414.294 414.067 413.832 413.507 413.257 412.967 412.694 412.464 412.749 412.272 411.889 411.582 411.334 411.109 410.827 410.439 410.152 409.887 409.647 409.357 409.077 408.807 408.504 408.274 408.029 407.782 407.487 407.179 406.777 406.607 406.244 405.887 405.582 405.232 404.872 404.487 404.169 403.669 403.304 402.889 402.529 402.177 401.847 401.517 401.232 400.932 400.602 400.292 400.022 399.779 399.519 399.227 398.969 398.627 398.239 397.887 397.492 397.104 396.767 396.417 396.102 395.769 395.379 395.019 394.632 394.242 393.767 393.412 393.057 392.674 392.289 391.912 391.619 391.319 390.982 390.649 390.339 390.027 389.809 389.657 389.402 389.164 388.864 388.569 388.269 387.979 387.619 387.362 387.077 386.777 386.539 386.274 386.042 385.747 385.429 385.104 384.774 384.439 384.069 383.657 383.232 382.767 382.319 381.779 381.177 380.752 380.424 380.037 379.649 379.407 379.282 379.177 379.009 378.769 378.519 378.257 378.019 377.797 377.489 377.169 376.919 376.662 376.459 376.252 375.987 375.809 375.644 375.492 375.322 375.259 375.422 375.122 374.559 374.277 373.869 373.424 372.944 372.419 372.132 371.919 371.724 371.467 371.099 370.759 370.547 370.324 370.092 369.857 369.694 369.449 369.164 368.924 368.562 368.222 367.877 367.539 367.234 366.897 366.582 366.284 365.939 365.662 365.322 365.004 364.709 364.422 364.159 363.897 363.624 363.404 363.137 362.907 362.662 362.239 361.939 361.657
468.002 467.934 467.769 467.604 467.462 467.324 467.212 466.989 466.754 466.504 466.219 465.974 465.704 465.449 465.224 464.977 464.599 464.197 463.824 463.599 463.389 463.144 463.019 462.902 462.864 462.872 462.692 462.422 462.399 462.224 461.879 461.919 461.557 461.304 461.084 460.872 460.642 460.459 460.302 460.142 459.954 459.762 459.552 459.374 459.122 458.847 458.562 458.322 457.779 457.279 456.794 456.462 456.197 455.862 455.477 455.144 454.864 454.634 454.374 454.069 453.779 453.569 453.352 453.109 452.822 452.637 452.294 452.162 452.357 452.384 451.524 451.289 451.172 450.962 450.819 450.707 450.607 450.479 450.252 450.002 449.752 449.509 449.312 449.064 448.809 448.594 448.359 448.067 447.922 447.797 447.527 447.284 447.119 446.869 446.649 446.367 446.042 445.774 445.312 444.989 444.774 444.457 444.149 443.754 443.477 443.204 442.849 442.382 442.024 441.544 441.147 440.864 440.559 440.232 439.967 439.622 439.209 438.799 438.329 437.797 437.154 436.709 436.834 437.402 437.324 436.984 436.519 436.014 435.422 434.987 434.622 434.214 433.887 433.684 433.459 433.222 432.972 432.744 432.542 432.172 431.914 431.507 431.087 430.872 430.617 430.424 430.204 429.917 429.714 429.534 429.374 429.184 429.004 428.719 428.604 428.432 428.204 427.894 427.342 427.177 427.432 426.564 426.227 425.782 425.277 424.869 424.594 424.374 424.147 423.927 423.697 423.317 423.039 422.752 422.512 422.317 422.097 421.852 421.594 421.339 421.032 420.734 420.272 419.927 419.534 419.177 418.852 418.557 418.104 417.774 417.479 417.277 416.869 416.549 416.089 415.779 415.719 415.439 415.102 414.682 414.392 414.064 413.864 413.647 413.349 413.144 412.884 412.604 412.402 412.422 412.214 411.654 411.432 411.214 411.057 410.792 410.424 410.094 409.769 409.514 409.252 408.992 408.657 408.377 408.089 407.827 407.639 407.317 407.099 406.672 406.487 406.207 405.827 405.557 405.247 404.827 404.512 404.174 403.629 403.349 402.917 402.567 402.212 401.842 401.589 401.324 401.037 400.722 400.407 400.109 399.859 399.617 399.374 399.102 398.739 398.327 397.884 397.504 397.097 396.727 396.414 396.074 395.732 395.367 394.957 394.574 394.182 393.669 393.287 392.912 392.527 392.109 391.737 391.467 391.157 390.837 390.577 390.287 389.952 389.714 389.472 389.282 389.014 388.774 388.459 388.157 387.842 387.529 387.269 387.004 386.684 386.432 386.202 385.982 385.587 385.254 384.962 384.659 384.307 383.857 383.437 383.027 382.572 382.179 381.782 381.147 380.797 380.402 379.992 379.629 379.407 379.277 379.164 379.002 378.754 378.474 378.182 377.937 377.672 377.369 377.119 376.872 376.617 376.432 376.207 375.962 375.787 375.612 375.494 375.329 375.164 375.152 375.232 374.589 374.189 373.819 373.307 372.797 372.297 372.027 371.854 371.697 371.467 371.124 370.784 370.509 370.307 370.119 369.899 369.649 369.422 369.212 368.929 368.594 368.232 367.814 367.494 367.184 366.887 366.554 366.287 365.984 365.687 365.367 365.047 364.747 364.429 364.167 363.922 363.657 363.417 363.179 362.917 362.982 362.682 361.947 361.677
467.677 467.579 467.404 467.249 467.102 466.924 466.742 466.587 466.347 466.044 465.789 465.529 465.257 465.019 464.744 464.429 463.999 463.639 463.402 463.257 463.089 462.939 462.827 462.802 462.722 462.647 462.617 462.327 462.262 462.012 461.827 461.487 461.574 461.269 460.967 460.687 460.427 460.299 460.119 459.892 459.717 459.469 459.239 459.012 458.734 458.314 457.957 457.649 457.162 456.749 456.374 456.109 455.754 455.424 455.124 454.832 454.567 454.357 454.097 453.854 453.587 453.307 453.089 452.849 452.539 452.319 451.999 451.844 451.562 451.517 451.827 451.802 450.944 450.787 450.642 450.517 450.409 450.262 450.127 449.894 449.604 449.237 449.062 448.792 448.514 448.307 448.102 447.882 447.672 447.437 447.244 447.009 446.824 446.569 446.279 446.022 445.714 445.372 444.949 444.732 444.279 444.032 443.772 443.449 443.094 442.719 442.364 441.927 441.304 440.929 440.599 440.379 440.099 439.674 439.349 439.017 438.609 438.174 437.779 437.247 437.014 436.844 437.029 437.357 437.042 436.664 436.197 435.672 435.154 434.674 434.279 433.927 433.667 433.544 433.317 433.097 432.809 432.614 432.359 432.064 431.797 431.459 431.084 430.787 430.552 430.362 430.139 429.867 429.689 429.492 429.332 429.042 428.847 428.674 428.524 428.122 427.779 427.572 427.172 427.549 426.734 426.309 425.927 425.429 425.019 424.672 424.454 424.272 424.082 423.819 423.507 423.199 422.944 422.607 422.397 422.274 422.019 421.654 421.384 421.107 420.907 420.499 420.019 419.594 419.247 418.804 418.504 418.272 417.919 417.654 417.292 417.209 416.807 416.452 416.002 415.637 415.592 415.307 414.992 414.612 414.239 413.922 413.664 413.399 413.262 412.954 412.734 412.489 412.269 412.137 412.097 411.487 411.264 411.069 410.869 410.607 410.279 409.992 409.657 409.429 409.084 408.767 408.474 408.192 407.869 407.662 407.439 407.139 406.989 406.599 406.364 406.077 405.789 405.504 405.174 404.804 404.489 404.117 403.552 403.362 402.979 402.657 402.247 401.932 401.702 401.399 401.087 400.777 400.462 400.169 399.917 399.677 399.442 399.124 398.774 398.349 397.932 397.464 397.072 396.654 396.317 395.984 395.642 395.307 394.892 394.424 394.007 393.557 393.124 392.732 392.364 391.919 391.539 391.287 390.994 390.679 390.447 390.159 389.852 389.619 389.362 389.092 388.884 388.609 388.304 388.034 387.719 387.394 387.157 386.869 386.574 386.332 386.099 385.862 385.509 385.207 384.909 384.562 384.139 383.734 383.352 382.912 382.274 381.667 381.277 380.967 380.674 380.314 379.934 379.607 379.394 379.292 379.157 379.029 378.774 378.492 378.184 377.857 377.619 377.307 377.064 376.837 376.614 376.414 376.189 375.949 375.739 375.639 375.514 375.354 375.192 374.992 375.324 374.787 374.159 373.784 373.342 372.869 372.494 372.237 371.979 371.694 371.447 371.129 370.844 370.547 370.319 370.124 369.902 369.674 369.457 369.239 368.919 368.607 368.367 367.942 367.467 367.132 366.854 366.579 366.302 366.049 365.752 365.402 365.069 364.759 364.479 364.194 363.937 363.674 363.444 363.184 362.982 363.079 362.377 361.977 361.684
467.342 467.209 467.039 466.857 466.719 466.544 466.322 466.129 465.924 465.654 465.367 465.117 464.817 464.534 464.214 463.817 463.474 463.317 463.129 462.992 462.909 462.787 462.727 462.664 462.604 462.494 462.452 462.282 461.997 461.684 461.477 461.244 461.087 460.927 460.797 460.477 460.232 460.067 459.874 459.652 459.449 459.194 458.917 458.609 458.257 457.844 457.454 457.032 456.657 456.352 456.027 455.657 455.359 455.052 454.807 454.477 454.247 454.064 453.812 453.599 453.382 453.069 452.827 452.534 452.239 451.969 451.777 451.599 451.352 451.184 451.059 450.909 451.209 450.937 450.404 450.302 450.169 449.997 449.817 449.579 449.342 449.139 448.887 448.599 448.332 448.072 447.867 447.697 447.517 447.247 447.079 446.757 446.504 446.209 445.944 445.689 445.357 444.984 444.637 444.349 443.989 443.632 443.304 442.977 442.564 442.179 441.879 441.404 440.869 440.489 440.167 439.927 439.612 439.214 438.832 438.497 437.937 437.494 437.409 437.207 437.289 437.389 437.332 437.094 436.784 436.324 435.834 435.304 434.787 434.369 433.972 433.737 433.524 433.374 433.154 432.924 432.697 432.457 432.209 431.927 431.704 431.342 431.009 430.712 430.467 430.289 430.074 429.837 429.652 429.522 429.292 429.104 428.862 428.709 428.492 427.872 427.619 427.439 427.129 427.077 427.234 426.374 425.784 425.327 424.877 424.617 424.377 424.184 423.994 423.679 423.434 423.022 422.669 422.414 422.292 422.097 421.864 421.509 421.219 420.902 420.569 420.239 419.789 419.282 419.009 418.702 418.244 418.009 417.767 417.444 417.294 416.979 416.654 416.334 415.874 415.517 415.459 415.154 414.877 414.474 414.104 413.717 413.459 413.227 413.002 412.764 412.582 412.382 412.109 411.927 411.874 411.342 411.129 410.949 410.689 410.469 410.217 409.849 409.514 409.249 408.857 408.527 408.324 408.059 407.772 407.534 407.334 407.059 406.837 406.419 406.229 405.929 405.672 405.399 405.107 404.754 404.474 404.097 403.572 403.392 403.044 402.712 402.392 402.084 401.769 401.477 401.132 400.802 400.549 400.239 399.967 399.722 399.432 399.092 398.727 398.307 397.867 397.414 396.939 396.569 396.222 395.892 395.572 395.182 394.754 394.327 393.862 393.432 392.979 392.587 392.209 391.792 391.407 391.097 390.797 390.489 390.262 389.994 389.724 389.497 389.249 388.932 388.722 388.457 388.172 387.922 387.634 387.299 387.069 386.789 386.482 386.217 386.034 385.762 385.462 385.197 384.884 384.527 384.007 383.499 383.062 382.642 382.319 381.617 381.007 381.049 380.787 380.237 379.844 379.574 379.384 379.249 379.102 378.979 378.769 378.459 378.099 377.787 377.549 377.294 377.054 376.804 376.584 376.374 376.154 375.927 375.762 375.622 375.527 375.374 375.187 374.944 374.852 375.189 374.239 373.802 373.414 373.097 372.784 372.464 372.092 371.707 371.412 371.122 370.867 370.609 370.362 370.134 369.932 369.717 369.479 369.222 368.924 368.599 368.462 368.094 367.592 367.152 366.854 366.587 366.339 366.064 365.764 365.414 365.102 364.812 364.544 364.259 363.967 363.699 363.472 363.237 362.997 363.469 362.342 361.972 361.679
466.972 466.849 466.654 466.469 466.279 466.127 465.889 465.659 465.492 465.239 464.957 464.639 464.397 464.074 463.652 463.399 463.252 463.122 462.942 462.832 462.749 462.679 462.562 462.494 462.457 462.309 462.229 461.992 461.692 461.442 461.237 461.029 460.794 460.547 460.962 460.329 459.964 459.754 459.552 459.317 459.087 458.827 458.539 458.189 457.757 457.397 456.967 456.584 456.259 455.937 455.582 455.274 454.994 454.732 454.467 454.207 453.972 453.747 453.562 453.307 453.112 452.852 452.522 452.219 451.964 451.732 451.547 451.324 451.172 451.097 450.872 450.632 450.532 450.652 450.967 450.362 450.002 449.767 449.554 449.282 449.059 448.839 448.597 448.342 448.087 447.867 447.624 447.409 447.189 446.979 446.782 446.492 446.154 445.889 445.644 445.259 444.962 444.594 444.214 443.954 443.637 443.207 442.857 442.544 442.264 441.752 441.389 440.984 440.554 440.079 439.659 439.319 439.037 438.689 438.464 438.012 437.414 437.122 437.334 437.622 437.742 437.532 437.254 436.984 436.532 435.989 435.499 434.954 434.482 434.067 433.729 433.532 433.402 433.254 433.024 432.787 432.494 432.284 432.102 431.747 431.479 431.177 430.827 430.574 430.359 430.139 429.947 429.774 429.617 429.474 429.297 429.072 428.844 428.649 428.429 428.094 427.627 427.267 427.239 426.704 426.409 426.754 426.099 425.337 424.812 424.564 424.264 424.034 423.812 423.574 423.264 422.909 422.517 422.184 422.044 421.887 421.689 421.334 421.014 420.674 420.357 419.984 419.524 419.174 418.977 418.552 418.137 417.722 417.364 417.107 417.087 416.789 416.369 416.102 415.767 415.392 415.337 415.064 414.709 414.377 414.042 413.624 413.272 413.019 412.797 412.584 412.457 412.287 411.912 411.634 411.809 411.087 410.872 410.689 410.467 410.274 410.002 409.664 409.337 409.049 408.702 408.339 408.174 407.914 407.702 407.489 407.199 406.889 406.639 406.289 406.027 405.807 405.574 405.342 405.092 404.754 404.449 404.092 403.567 403.297 403.037 402.789 402.504 402.164 401.824 401.502 401.154 400.837 400.579 400.292 400.029 399.762 399.442 399.022 398.577 398.174 397.779 397.342 396.942 396.524 396.129 395.774 395.439 395.054 394.632 394.167 393.719 393.239 392.754 392.382 391.984 391.614 391.272 390.944 390.657 390.394 390.119 389.849 389.567 389.327 389.084 388.789 388.562 388.319 388.024 387.789 387.524 387.227 386.989 386.699 386.399 386.119 385.899 385.637 385.364 385.084 384.839 384.467 384.044 383.549 383.129 382.722 382.342 381.867 381.149 380.829 380.772 380.222 379.774 379.499 379.329 379.244 379.104 378.944 378.729 378.387 378.034 377.742 377.527 377.277 377.057 376.769 376.542 376.324 376.139 375.892 375.767 375.627 375.507 375.402 375.219 374.914 374.697 374.899 374.532 373.839 373.474 373.264 372.927 372.514 372.107 371.729 371.389 371.119 370.879 370.647 370.399 370.134 369.912 369.707 369.472 369.212 368.887 368.597 368.362 367.939 367.542 367.179 366.897 366.609 366.369 366.114 365.809 365.467 365.144 364.857 364.567 364.264 363.974 363.727 363.507 363.279 363.034 363.464 362.297 361.944 361.637
466.552 466.432 466.267 466.109 465.884 465.672 465.497 465.262 465.059 464.809 464.472 464.144 463.894 463.597 463.339 463.132 462.994 462.997 462.857 462.694 462.587 462.544 462.422 462.337 462.174 462.087 461.932 461.617 461.367 461.139 460.957 460.937 460.567 460.299 460.067 460.297 459.842 459.389 459.149 458.889 458.644 458.384 458.117 457.742 457.289 456.814 456.424 456.142 455.849 455.494 455.177 454.912 454.659 454.429 454.184 453.924 453.679 453.487 453.299 453.087 452.849 452.544 452.189 451.889 451.699 451.552 451.292 451.117 450.924 450.772 450.594 450.444 450.337 450.072 450.027 450.342 450.229 449.934 449.214 448.969 448.757 448.562 448.297 448.082 447.927 447.657 447.384 447.144 446.899 446.687 446.407 446.127 445.802 445.402 445.169 444.924 444.529 444.127 443.759 443.509 443.207 442.877 442.464 442.169 441.829 441.324 440.949 440.624 440.152 439.744 439.319 438.834 438.394 438.189 438.164 437.969 437.622 437.447 437.597 437.804 437.664 437.492 437.159 436.814 436.277 435.697 435.132 434.647 434.172 433.864 433.622 433.424 433.289 433.067 432.819 432.564 432.352 432.157 431.934 431.647 431.334 431.024 430.744 430.479 430.252 430.057 429.877 429.697 429.492 429.362 429.107 428.882 428.739 428.532 428.284 428.119 427.642 427.292 427.239 426.752 426.329 425.937 425.394 425.512 425.582 424.654 424.254 424.007 423.639 423.382 423.047 422.662 422.394 422.029 421.832 421.604 421.369 421.097 420.789 420.524 420.209 419.782 419.337 418.997 418.669 418.327 417.964 417.579 417.307 417.019 416.744 416.487 416.104 415.782 415.482 415.357 415.234 414.909 414.532 414.239 413.982 413.649 413.232 412.932 412.719 412.444 412.234 411.984 411.657 411.412 411.617 410.892 410.639 410.419 410.227 410.047 409.824 409.474 409.124 408.824 408.499 408.189 407.934 407.732 407.609 407.369 407.112 406.737 406.432 406.234 405.997 405.714 405.492 405.284 405.024 404.709 404.394 404.022 403.479 403.329 403.057 402.839 402.537 402.202 401.832 401.472 401.144 400.834 400.522 400.252 400.027 399.797 399.437 398.999 398.494 398.107 397.684 397.252 396.872 396.464 396.064 395.692 395.347 394.972 394.499 394.004 393.587 393.057 392.679 392.264 391.834 391.374 391.092 390.809 390.464 390.222 389.979 389.697 389.412 389.172 388.937 388.669 388.437 388.167 387.867 387.639 387.382 387.132 386.914 386.622 386.232 385.937 385.767 385.392 385.144 384.949 384.699 384.362 384.009 383.624 383.242 382.852 382.359 381.852 381.219 380.677 380.399 380.079 379.659 379.452 379.332 379.179 379.094 378.914 378.674 378.357 378.017 377.697 377.482 377.234 377.017 376.784 376.537 376.319 376.109 375.877 375.744 375.627 375.502 375.404 375.267 374.947 374.674 374.452 374.599 373.914 373.544 373.302 372.909 372.479 372.069 371.714 371.419 371.117 370.867 370.632 370.389 370.144 369.932 369.702 369.452 369.189 368.892 368.624 368.317 367.952 367.589 367.217 366.909 366.699 366.419 366.159 365.824 365.529 365.204 364.902 364.599 364.284 364.037 363.729 363.512 363.277 363.027 363.099 362.357 361.949 361.609
466.159 466.019 465.849 465.682 465.512 465.287 465.147 464.854 464.544 464.307 463.994 463.702 463.524 463.432 463.107 462.904 462.859 462.804 462.764 462.589 462.467 462.379 462.244 462.114 461.924 461.792 461.529 461.254 461.034 460.842 460.654 460.432 460.252 460.017 459.767 459.502 459.592 459.062 458.572 458.354 458.179 457.924 457.582 457.234 456.772 456.329 455.969 455.694 455.424 455.109 454.804 454.579 454.369 454.134 453.889 453.669 453.427 453.214 453.037 452.832 452.599 452.272 451.997 451.737 451.472 451.262 451.127 450.987 450.707 450.512 450.454 450.294 450.167 449.959 449.832 449.524 449.369 449.472 449.507 448.742 448.572 448.297 448.094 447.862 447.612 447.314 447.152 446.907 446.664 446.377 446.064 445.814 445.594 445.159 444.699 444.402 444.149 443.772 443.309 443.049 442.772 442.442 442.109 441.639 441.404 440.907 440.387 440.132 439.822 439.469 439.044 438.452 437.624 437.419 437.749 437.957 437.832 437.732 437.692 437.702 437.569 437.244 436.912 436.434 436.007 435.407 434.832 434.359 433.997 433.709 433.472 433.287 433.109 432.909 432.654 432.437 432.252 432.022 431.772 431.462 431.172 430.889 430.659 430.379 430.134 429.962 429.754 429.607 429.424 429.252 428.987 428.767 428.597 428.399 428.117 427.927 427.637 427.337 427.004 426.642 426.172 425.644 425.189 424.939 424.762 424.724 424.607 424.034 423.564 423.169 422.804 422.402 422.114 421.849 421.664 421.397 421.184 420.877 420.627 420.362 420.082 419.677 419.184 418.817 418.484 418.147 417.769 417.432 417.162 416.867 416.517 416.289 415.847 415.522 415.322 415.299 415.169 414.739 414.424 414.099 413.752 413.457 413.127 412.797 412.534 412.209 412.057 411.722 411.424 411.219 411.182 410.639 410.359 410.162 410.014 409.889 409.617 409.239 408.879 408.584 408.267 407.977 407.807 407.612 407.447 407.284 406.992 406.669 406.354 406.112 405.767 405.564 405.342 405.202 404.967 404.704 404.324 403.892 403.462 403.282 403.097 402.827 402.474 402.177 401.802 401.424 401.129 400.817 400.509 400.254 400.022 399.789 399.437 398.992 398.449 398.064 397.657 397.229 396.832 396.397 395.979 395.627 395.232 394.842 394.477 394.052 393.602 393.112 392.702 392.267 391.854 391.459 391.137 390.757 390.419 390.119 389.839 389.457 389.222 389.027 388.809 388.559 388.312 388.002 387.677 387.467 387.254 387.019 386.799 386.462 386.067 385.697 385.409 385.014 384.802 384.674 384.484 384.214 383.899 383.554 383.127 382.707 382.282 381.814 381.189 380.534 380.207 379.937 379.617 379.412 379.282 379.194 379.124 378.949 378.679 378.324 377.979 377.684 377.474 377.252 376.989 376.747 376.519 376.317 376.087 375.882 375.734 375.632 375.514 375.374 375.162 374.907 374.642 374.354 374.552 373.982 373.592 373.282 372.897 372.439 372.074 371.714 371.394 371.109 370.862 370.624 370.397 370.159 369.939 369.682 369.432 369.172 368.902 368.602 368.314 367.994 367.572 367.227 366.944 366.704 366.444 366.172 365.874 365.579 365.277 364.957 364.642 364.347 364.047 363.739 363.507 363.307 363.074 363.252 362.347 361.992 361.604
465.747 465.632 465.437 465.264 465.122 464.877 464.687 464.407 464.074 463.769 463.572 463.427 463.259 463.084 462.874 462.797 462.792 462.657 462.549 462.537 462.282 462.119 461.909 461.697 461.549 461.392 461.144 460.924 460.737 460.554 460.339 460.124 459.937 459.657 459.412 459.122 458.847 458.747 458.422 457.934 457.699 457.447 457.084 456.682 456.222 455.839 455.547 455.319 455.052 454.754 454.522 454.327 454.077 453.864 453.622 453.387 453.157 452.954 452.772 452.574 452.332 451.957 451.789 451.479 451.277 451.077 450.939 450.812 450.657 450.424 450.297 450.189 450.017 449.777 449.564 449.414 449.164 448.954 448.739 448.899 448.442 448.157 447.844 447.619 447.344 447.042 446.744 446.502 446.257 445.964 445.722 445.482 445.222 444.827 444.314 443.904 443.622 443.324 442.994 442.594 442.252 442.039 441.752 441.214 440.797 440.297 439.749 439.529 439.287 438.849 438.417 437.814 436.804 436.834 437.584 438.014 437.954 437.827 437.729 437.577 437.499 437.084 436.614 436.147 435.624 435.154 434.657 434.142 433.787 433.522 433.322 433.169 432.984 432.707 432.517 432.322 432.152 431.912 431.614 431.294 431.042 430.762 430.522 430.294 430.039 429.869 429.682 429.504 429.329 429.139 428.932 428.689 428.407 428.197 427.624 427.477 427.382 427.144 426.724 426.339 425.849 425.382 425.064 424.769 424.452 424.189 423.982 424.122 423.897 423.172 422.609 422.214 421.869 421.614 421.449 421.179 421.047 420.767 420.474 420.254 419.942 419.592 419.199 418.802 418.404 418.037 417.644 417.322 417.039 416.739 416.417 416.129 415.789 415.447 415.279 415.262 414.934 414.522 414.249 413.982 413.687 413.272 412.894 412.627 412.297 412.027 411.714 411.444 411.247 411.044 411.277 410.437 410.137 409.959 409.814 409.717 409.449 409.082 408.704 408.342 408.079 407.854 407.689 407.549 407.332 407.112 406.857 406.629 406.359 406.019 405.747 405.552 405.294 405.119 404.862 404.652 404.254 403.814 403.447 403.259 403.099 402.794 402.459 402.079 401.749 401.382 401.072 400.792 400.524 400.242 400.007 399.739 399.412 398.959 398.442 398.014 397.557 397.139 396.722 396.279 395.827 395.467 395.102 394.779 394.444 394.004 393.529 393.049 392.607 392.172 391.767 391.362 391.017 390.667 390.327 390.059 389.777 389.484 389.157 388.942 388.684 388.382 388.132 387.864 387.504 387.277 387.077 386.854 386.639 386.327 385.982 385.564 385.162 384.677 384.387 384.269 384.174 383.972 383.674 383.274 382.862 382.449 382.064 381.684 381.177 380.507 380.072 379.779 379.542 379.379 379.294 379.214 379.129 378.942 378.624 378.292 377.932 377.664 377.409 377.177 376.944 376.712 376.484 376.264 376.092 375.907 375.722 375.639 375.497 375.324 375.117 374.909 374.602 374.344 374.214 373.989 373.632 373.287 372.864 372.422 372.037 371.679 371.362 371.112 370.844 370.642 370.389 370.167 369.937 369.669 369.414 369.187 368.927 368.607 368.312 368.012 367.607 367.239 366.967 366.719 366.469 366.202 365.912 365.637 365.319 364.992 364.659 364.329 364.047 363.772 363.549 363.347 363.087 363.329 362.352 361.987 361.627
465.344 465.222 465.032 464.807 464.612 464.354 464.149 463.859 463.644 463.539 463.334 463.139 462.989 462.844 462.722 462.647 462.544 462.444 462.322 462.212 462.007 461.767 461.547 461.344 461.164 460.987 460.787 460.552 460.394 460.197 460.014 459.812 459.557 459.272 458.974 458.674 458.414 458.244 457.912 457.647 457.267 456.919 456.609 456.217 455.782 455.444 455.199 454.987 454.742 454.492 454.239 454.002 453.787 453.574 453.337 453.107 452.894 452.749 452.517 452.304 451.997 451.697 451.524 451.332 451.182 450.964 450.922 450.759 450.502 450.364 450.152 449.989 449.784 449.534 449.269 449.104 448.882 448.587 448.309 448.134 448.034 448.194 448.312 447.512 447.087 446.784 446.514 446.277 446.039 445.602 445.372 445.147 444.809 444.464 443.999 443.559 443.162 442.887 442.519 442.159 441.724 441.579 441.234 440.739 440.427 439.907 439.269 438.789 438.484 438.304 438.139 437.684 437.214 437.297 437.749 437.907 437.794 437.707 437.567 437.374 437.174 436.752 436.282 435.764 435.264 434.749 434.267 433.829 433.587 433.357 433.187 433.037 432.799 432.562 432.372 432.197 432.022 431.719 431.417 431.062 430.824 430.582 430.372 430.179 429.974 429.757 429.609 429.427 429.239 428.977 428.797 428.552 428.282 428.072 427.594 427.222 427.009 426.937 426.482 426.049 425.652 425.392 424.852 424.577 424.339 424.024 423.729 423.519 423.329 423.284 423.242 422.282 421.822 421.547 421.324 421.152 420.914 420.602 420.324 420.029 419.812 419.489 419.142 418.749 418.329 417.937 417.529 417.134 416.877 416.644 416.439 416.067 415.667 415.359 415.122 415.124 414.744 414.329 414.044 413.857 413.472 413.184 412.724 412.319 412.164 411.859 411.537 411.284 411.132 410.784 410.879 410.207 409.979 409.759 409.644 409.544 409.282 408.914 408.519 408.167 407.882 407.732 407.584 407.457 407.237 406.994 406.742 406.457 406.284 405.987 405.739 405.564 405.219 405.032 404.799 404.514 404.077 403.642 403.369 403.262 403.052 402.799 402.444 402.059 401.712 401.352 400.979 400.727 400.482 400.167 399.934 399.632 399.277 398.857 398.369 397.877 397.414 396.999 396.544 396.152 395.707 395.262 394.839 394.597 394.352 393.924 393.482 393.012 392.532 392.117 391.674 391.242 390.882 390.547 390.237 389.967 389.707 389.434 389.144 388.914 388.652 388.354 388.059 387.759 387.372 387.084 386.854 386.587 386.434 386.142 385.837 385.464 385.064 384.579 384.119 383.864 383.644 383.454 383.109 382.642 382.317 382.029 381.754 381.502 381.184 380.614 380.139 379.737 379.514 379.359 379.279 379.207 379.074 378.859 378.584 378.227 377.879 377.589 377.377 377.122 376.892 376.639 376.412 376.177 376.062 375.879 375.697 375.564 375.429 375.264 375.094 374.862 374.577 374.399 374.259 374.022 373.542 373.204 372.792 372.367 371.984 371.632 371.347 371.104 370.859 370.597 370.384 370.174 369.942 369.702 369.447 369.209 368.917 368.569 368.269 367.952 367.582 367.242 366.992 366.747 366.489 366.192 365.922 365.629 365.337 364.994 364.694 364.377 364.104 363.827 363.572 363.327 363.112 363.139 362.322 362.019 361.612
464.937 464.714 464.484 464.239 464.042 463.849 463.769 463.609 463.384 463.202 463.022 462.932 462.829 462.749 462.632 462.394 462.237 462.142 462.077 462.002 461.629 461.449 461.232 461.067 460.872 460.674 460.469 460.267 460.067 459.829 459.647 459.442 459.169 458.842 458.549 458.289 458.052 457.789 457.439 457.192 456.824 456.519 456.192 455.822 455.442 455.177 454.964 454.734 454.482 454.232 453.964 453.722 453.494 453.292 453.064 452.862 452.669 452.462 452.287 451.997 451.747 451.617 451.332 451.157 450.987 450.764 450.574 450.469 450.314 450.147 449.957 449.769 449.547 449.304 449.122 448.812 448.622 448.297 448.074 447.839 447.629 447.439 447.279 447.559 447.419 446.999 446.742 445.959 445.714 445.544 445.027 444.739 444.412 444.032 443.604 443.187 442.704 442.297 441.887 441.674 441.382 441.124 440.802 440.407 439.922 439.392 438.682 438.114 437.834 437.809 438.147 438.124 437.942 437.922 437.892 437.812 437.654 437.529 437.367 437.117 436.817 436.382 435.907 435.392 434.847 434.392 433.977 433.547 433.327 433.204 433.082 432.879 432.677 432.449 432.252 432.027 431.807 431.567 431.279 430.937 430.652 430.464 430.259 430.044 429.849 429.689 429.502 429.284 429.099 428.844 428.629 428.387 428.124 427.912 427.467 427.042 426.722 426.617 426.414 425.892 425.504 425.112 424.689 424.369 424.154 423.894 423.582 423.272 422.974 422.692 422.479 422.422 422.327 421.542 421.184 421.039 420.744 420.439 420.164 419.867 419.667 419.352 419.064 418.677 418.304 417.809 417.392 417.019 416.754 416.527 416.372 415.979 415.609 415.277 414.982 414.829 414.569 414.187 414.027 413.762 413.277 412.919 412.474 412.142 411.927 411.672 411.409 411.177 410.919 410.584 410.542 410.147 409.817 409.644 409.507 409.372 409.147 408.692 408.364 407.954 407.832 407.684 407.532 407.412 407.167 406.929 406.664 406.447 406.174 405.884 405.599 405.469 405.177 405.012 404.654 404.262 403.869 403.399 403.264 403.177 402.972 402.689 402.364 402.022 401.649 401.362 401.002 400.734 400.454 400.099 399.792 399.399 399.029 398.642 398.192 397.727 397.304 396.887 396.419 395.974 395.504 395.084 394.659 394.459 394.252 393.874 393.429 392.974 392.489 392.049 391.589 391.147 390.774 390.432 390.154 389.904 389.637 389.314 389.067 388.832 388.534 388.239 387.929 387.624 387.304 387.027 386.767 386.529 386.319 386.022 385.752 385.407 384.939 384.477 383.994 383.662 383.372 383.074 382.609 382.182 381.807 381.587 381.344 381.207 381.062 380.664 380.134 379.707 379.447 379.414 379.324 379.249 379.087 378.812 378.509 378.194 377.844 377.562 377.337 377.104 376.854 376.579 376.384 376.177 375.987 375.819 375.672 375.504 375.389 375.222 375.029 374.729 374.497 374.272 374.442 373.784 373.382 373.034 372.689 372.259 371.879 371.622 371.354 371.102 370.874 370.627 370.437 370.174 369.947 369.744 369.487 369.227 368.897 368.532 368.179 367.904 367.544 367.244 367.002 366.772 366.489 366.202 365.917 365.647 365.324 365.012 364.692 364.389 364.117 363.804 363.572 363.294 363.252 363.042 362.309 361.999 361.664
464.397 464.162 463.924 463.829 463.784 463.654 463.482 463.242 463.067 462.964 462.874 462.789 462.702 462.574 462.404 462.174 461.997 461.842 461.669 461.507 461.387 461.184 461.007 460.787 460.572 460.369 460.154 459.942 459.672 459.389 459.222 458.997 458.729 458.439 458.192 457.882 457.767 457.269 456.967 456.734 456.409 456.112 455.734 455.424 455.052 454.844 454.662 454.459 454.214 453.957 453.729 453.447 453.209 452.989 452.794 452.602 452.397 452.219 452.002 451.744 451.619 451.309 451.134 451.047 450.837 450.724 450.482 450.302 450.097 449.892 449.689 449.519 449.284 449.112 448.904 448.589 448.302 448.039 447.817 447.602 447.307 447.027 446.747 446.639 446.352 446.084 445.749 445.532 445.059 445.132 444.937 444.324 443.987 443.677 443.262 442.797 442.279 441.837 441.479 441.282 441.127 440.792 440.454 440.132 439.559 438.897 438.167 437.269 436.934 437.507 438.252 438.239 438.084 437.914 437.804 437.702 437.559 437.374 437.187 436.897 436.544 436.069 435.624 435.069 434.492 434.022 433.624 433.264 433.052 432.974 432.882 432.694 432.499 432.339 432.099 431.912 431.659 431.352 431.089 430.727 430.499 430.317 430.114 429.919 429.747 429.574 429.402 429.172 428.974 428.752 428.527 428.222 428.027 427.859 427.357 426.984 426.682 426.212 426.007 425.729 425.289 424.912 424.457 424.169 424.009 423.804 423.529 423.172 422.769 422.442 422.167 421.807 421.522 421.382 421.464 421.079 420.702 420.289 420.042 419.842 419.512 419.214 418.937 418.614 418.189 417.719 417.352 416.947 416.619 416.494 416.197 415.897 415.557 415.254 415.002 414.732 414.507 414.159 413.837 413.489 413.082 412.684 412.312 412.059 411.809 411.494 411.339 411.019 410.767 410.379 410.307 410.314 409.694 409.562 409.377 409.219 409.002 408.634 408.362 407.939 407.767 407.652 407.399 407.302 407.112 406.884 406.644 406.359 406.102 405.837 405.572 405.459 405.142 404.834 404.454 404.072 403.697 403.322 403.309 403.072 402.849 402.594 402.269 401.947 401.622 401.372 401.092 400.734 400.362 400.039 399.674 399.232 398.812 398.407 398.002 397.589 397.154 396.742 396.239 395.774 395.374 394.949 394.527 394.322 394.129 393.847 393.374 392.944 392.452 392.014 391.514 391.074 390.707 390.362 390.087 389.827 389.559 389.254 389.007 388.749 388.432 388.104 387.837 387.502 387.199 386.922 386.669 386.439 386.209 385.894 385.632 385.287 384.874 384.439 384.007 383.624 383.432 383.132 382.869 382.497 382.052 381.582 381.269 381.092 380.919 380.572 380.114 379.657 379.317 379.289 379.337 379.254 379.059 378.784 378.489 378.132 377.832 377.544 377.307 377.052 376.807 376.577 376.372 376.174 375.987 375.807 375.657 375.512 375.377 375.219 374.982 374.664 374.444 374.192 374.467 373.622 373.147 372.814 372.534 372.162 371.832 371.587 371.352 371.139 370.887 370.657 370.454 370.192 369.962 369.764 369.497 369.257 368.894 368.539 368.194 367.894 367.552 367.274 367.039 366.779 366.507 366.227 365.939 365.657 365.347 364.994 364.719 364.402 364.144 363.854 363.599 363.289 363.164 362.842 362.242 361.952 361.712
463.839 463.749 463.727 463.612 463.492 463.297 463.119 462.977 462.904 462.829 462.667 462.539 462.459 462.292 462.157 462.014 461.739 461.609 461.414 461.247 461.117 460.949 460.784 460.509 460.242 460.017 459.827 459.582 459.267 459.014 458.749 458.567 458.302 458.067 457.744 457.454 457.389 456.834 456.537 456.272 455.992 455.667 455.324 455.047 454.774 454.527 454.352 454.147 453.919 453.677 453.442 453.212 452.964 452.747 452.524 452.402 452.139 451.927 451.724 451.552 451.389 451.149 450.944 450.819 450.649 450.617 450.392 450.169 449.852 449.644 449.422 449.297 449.067 448.842 448.572 448.314 448.132 447.824 447.522 447.297 447.039 446.674 446.467 446.179 446.052 445.734 445.362 445.092 444.752 444.372 444.347 444.359 443.609 443.217 442.824 442.344 441.844 441.509 441.159 440.837 440.647 440.309 439.867 439.582 439.062 438.404 437.317 436.374 436.612 437.674 438.102 438.064 437.937 437.807 437.637 437.567 437.414 437.224 436.957 436.722 436.329 435.814 435.347 434.677 434.014 433.584 433.409 433.047 432.837 432.737 432.672 432.524 432.342 432.132 431.912 431.702 431.427 431.157 430.804 430.542 430.302 430.149 429.964 429.792 429.637 429.469 429.279 429.044 428.842 428.572 428.322 428.039 427.879 427.717 427.144 426.737 426.569 426.167 425.872 425.472 425.014 424.609 424.252 424.049 423.869 423.692 423.387 423.149 422.827 422.429 422.014 421.684 421.317 420.964 420.697 420.892 420.982 420.497 419.852 419.624 419.332 419.099 418.812 418.447 418.064 417.664 417.264 416.872 416.567 416.314 416.124 415.817 415.479 415.179 414.897 414.549 414.354 414.004 413.694 413.317 412.939 412.519 412.149 411.927 411.597 411.389 411.162 410.849 410.572 410.237 410.032 410.127 409.572 409.392 409.234 409.039 408.864 408.617 408.282 407.937 407.764 407.589 407.384 407.219 407.027 406.812 406.554 406.232 405.952 405.739 405.502 405.332 405.064 404.617 404.232 403.882 403.484 403.227 403.149 402.967 402.782 402.509 402.209 401.884 401.602 401.327 401.052 400.694 400.237 399.852 399.462 399.042 398.604 398.252 397.867 397.432 397.009 396.524 396.057 395.617 395.189 394.782 394.432 394.207 394.024 393.717 393.317 392.829 392.377 391.934 391.469 391.057 390.644 390.319 390.037 389.777 389.492 389.199 388.942 388.679 388.379 388.052 387.737 387.432 387.144 386.829 386.572 386.332 386.087 385.784 385.489 385.154 384.774 384.422 384.079 383.844 383.704 383.539 383.289 382.989 382.514 381.954 381.407 381.039 380.762 380.479 380.074 379.494 379.197 379.282 379.342 379.214 379.039 378.772 378.459 378.117 377.822 377.512 377.289 377.004 376.759 376.544 376.369 376.192 375.972 375.754 375.599 375.472 375.317 375.154 374.879 374.594 374.362 374.144 374.182 373.437 372.974 372.544 372.374 372.092 371.797 371.549 371.342 371.124 370.907 370.672 370.464 370.229 369.962 369.772 369.537 369.234 368.904 368.567 368.234 367.834 367.527 367.259 367.007 366.804 366.492 366.224 365.952 365.637 365.347 365.012 364.697 364.419 364.147 363.847 363.569 363.279 363.264 362.722 362.249 361.939 361.622
463.654 463.529 463.399 463.282 463.154 463.057 462.939 462.812 462.704 462.579 462.432 462.287 462.162 462.044 461.852 461.744 461.534 461.419 461.222 461.039 460.869 460.692 460.449 460.164 459.912 459.679 459.424 459.147 458.867 458.594 458.352 458.142 457.884 457.622 457.327 457.539 456.729 456.429 456.164 455.877 455.607 455.302 455.047 454.739 454.482 454.277 454.079 453.857 453.649 453.419 453.182 452.937 452.714 452.489 452.314 452.127 451.904 451.702 451.487 451.399 451.132 450.947 450.759 450.579 450.487 450.347 450.177 449.894 449.687 449.399 449.194 448.979 448.784 448.514 448.272 448.049 447.829 447.567 447.294 447.032 446.734 446.394 446.172 445.917 445.674 445.377 445.004 444.709 444.392 444.112 443.619 443.269 443.174 442.837 442.314 441.899 441.459 441.094 440.709 440.272 440.039 439.809 439.364 439.007 438.689 437.997 436.917 436.269 436.847 437.739 437.937 437.922 437.774 437.669 437.517 437.399 437.244 436.987 436.704 436.467 436.064 435.452 434.982 434.204 433.602 433.314 433.217 432.804 432.617 432.544 432.447 432.332 432.142 431.899 431.719 431.547 431.187 430.909 430.737 430.399 430.167 430.012 429.812 429.689 429.514 429.347 429.112 428.822 428.552 428.329 428.064 427.842 427.674 427.339 426.904 426.582 426.372 426.124 425.707 425.194 424.699 424.434 424.169 423.959 423.729 423.527 423.249 423.014 422.682 422.317 421.862 421.459 421.129 420.879 420.637 420.319 420.267 420.207 420.212 419.667 419.309 418.957 418.679 418.279 417.949 417.574 417.162 416.799 416.507 416.254 415.984 415.714 415.434 415.097 414.732 414.289 413.982 413.699 413.467 413.057 412.559 412.232 411.904 411.659 411.392 411.174 410.899 410.707 410.322 410.109 409.907 410.174 409.362 409.252 409.099 408.919 408.702 408.514 408.224 407.924 407.707 407.532 407.364 407.137 406.969 406.709 406.447 406.139 405.944 405.719 405.479 405.232 404.864 404.392 403.954 403.639 403.252 403.192 403.024 402.887 402.674 402.419 402.119 401.794 401.529 401.242 400.917 400.594 400.219 399.734 399.292 398.864 398.404 398.084 397.717 397.244 396.762 396.327 395.937 395.499 395.072 394.624 394.282 394.082 393.874 393.547 393.202 392.774 392.329 391.889 391.434 391.042 390.639 390.322 390.004 389.704 389.424 389.154 388.897 388.609 388.327 388.029 387.704 387.389 387.067 386.752 386.454 386.182 385.962 385.672 385.374 384.994 384.594 384.312 384.082 383.969 383.849 383.632 383.364 383.044 382.637 382.152 381.627 381.117 380.639 380.192 379.904 379.504 379.177 379.247 379.312 379.187 379.019 378.759 378.437 378.119 377.807 377.562 377.254 377.009 376.764 376.519 376.352 376.139 375.942 375.722 375.579 375.424 375.254 375.029 374.774 374.517 374.232 374.392 373.822 373.209 372.797 372.477 372.252 371.974 371.742 371.524 371.307 371.107 370.927 370.669 370.452 370.227 369.987 369.784 369.532 369.242 368.872 368.537 368.162 367.819 367.494 367.259 367.024 366.784 366.494 366.219 365.964 365.644 365.337 364.984 364.704 364.424 364.119 363.802 363.487 363.244 363.094 362.779 362.119 361.859 361.402
463.424 463.209 463.112 463.072 462.922 462.849 462.707 462.544 462.349 462.212 462.109 462.092 461.859 461.734 461.587 461.452 461.332 461.164 461.024 460.849 460.602 460.352 460.072 459.874 459.634 459.327 459.017 458.754 458.472 458.197 457.959 457.704 457.452 457.122 456.969 456.677 456.344 456.044 455.764 455.487 455.204 454.979 454.712 454.489 454.209 453.947 453.759 453.507 453.304 453.109 452.909 452.622 452.442 452.244 452.069 451.832 451.622 451.474 451.272 451.122 450.897 450.727 450.499 450.357 450.164 450.074 449.904 449.567 449.294 449.137 448.877 448.629 448.439 448.184 447.972 447.774 447.532 447.289 447.022 446.717 446.379 446.154 445.912 445.604 445.317 444.972 444.612 444.337 444.077 443.742 443.292 442.832 442.412 442.427 442.154 441.784 441.049 440.612 440.224 439.839 439.667 439.434 439.062 438.694 438.337 437.529 436.812 437.147 437.439 437.707 437.774 437.709 437.619 437.527 437.392 437.269 437.147 436.824 436.557 436.267 435.814 435.142 434.444 433.872 433.449 433.027 432.827 432.602 432.449 432.339 432.229 432.104 431.919 431.737 431.517 431.279 431.007 430.699 430.432 430.242 430.034 429.854 429.684 429.589 429.387 429.194 428.927 428.637 428.309 428.077 427.829 427.639 427.354 426.987 426.977 426.467 426.067 425.457 425.079 424.777 424.484 424.282 424.102 423.862 423.614 423.364 423.132 422.914 422.582 422.207 421.759 421.322 420.947 420.737 420.427 420.149 420.024 419.704 419.519 419.474 419.329 419.252 418.457 418.149 417.729 417.432 417.064 416.657 416.369 416.117 415.927 415.627 415.289 415.042 414.592 414.257 413.872 413.454 413.144 412.702 412.402 412.092 411.707 411.437 411.289 410.877 410.652 410.517 410.134 409.917 409.774 409.999 409.272 409.057 408.934 408.739 408.584 408.342 408.094 407.867 407.667 407.519 407.354 407.079 406.907 406.689 406.349 406.097 405.902 405.662 405.367 405.119 404.709 404.187 403.749 403.382 403.159 403.042 402.909 402.787 402.587 402.372 402.019 401.714 401.382 401.089 400.749 400.387 400.079 399.604 399.132 398.717 398.299 397.899 397.519 397.039 396.589 396.189 395.827 395.449 394.999 394.552 394.182 393.907 393.674 393.372 393.104 392.729 392.292 391.882 391.434 391.034 390.647 390.324 389.982 389.682 389.367 389.124 388.847 388.567 388.289 387.967 387.637 387.327 386.992 386.699 386.412 386.117 385.797 385.479 385.124 384.797 384.384 383.957 383.684 383.509 383.394 383.089 382.882 382.592 382.337 381.977 381.489 380.959 380.487 380.104 379.732 379.449 379.162 379.222 379.269 379.194 379.019 378.754 378.437 378.062 377.787 377.517 377.257 377.004 376.739 376.539 376.337 376.107 375.917 375.727 375.589 375.412 375.199 374.937 374.707 374.449 374.304 374.212 373.472 372.977 372.632 372.287 372.067 371.872 371.667 371.459 371.279 371.099 370.897 370.642 370.414 370.182 369.962 369.747 369.497 369.187 368.794 368.504 368.124 367.764 367.494 367.259 367.027 366.777 366.507 366.252 365.977 365.662 365.329 364.974 364.664 364.419 364.067 363.724 363.414 363.149 363.012 362.697 362.022 361.722 361.269
463.167 463.127 462.927 462.789 462.644 462.542 462.444 462.274 462.102 461.994 461.854 461.819 461.712 461.512 461.427 461.269 461.147 460.919 460.724 460.534 460.284 460.027 459.734 459.457 459.234 458.862 458.597 458.289 457.987 457.772 457.509 457.249 456.987 456.694 456.702 456.239 455.989 455.667 455.364 455.122 454.849 454.612 454.432 454.212 453.967 453.664 453.422 453.222 453.032 452.857 452.604 452.404 452.237 452.019 451.784 451.562 451.362 451.177 451.009 450.854 450.664 450.484 450.277 450.114 449.879 449.724 449.537 449.292 448.987 448.777 448.594 448.312 448.094 447.887 447.674 447.459 447.244 446.987 446.647 446.314 446.074 445.819 445.592 445.269 444.879 444.619 444.292 443.972 443.677 443.284 442.847 442.437 442.044 441.637 441.312 441.154 440.882 440.587 439.914 439.529 439.249 439.104 438.809 438.534 438.177 437.814 437.602 437.532 437.634 437.689 437.682 437.567 437.507 437.347 437.249 437.134 436.942 436.657 436.314 436.037 435.524 434.827 434.112 433.584 433.147 432.799 432.497 432.284 432.147 432.082 432.067 431.959 431.792 431.562 431.362 431.047 430.797 430.499 430.284 430.062 429.882 429.684 429.524 429.372 429.217 428.974 428.679 428.354 428.084 427.837 427.632 427.444 427.084 426.929 426.577 426.087 425.634 425.132 424.762 424.554 424.359 424.247 424.094 423.814 423.574 423.254 423.027 422.694 422.424 422.064 421.672 421.309 420.857 420.537 420.287 419.959 419.864 419.494 419.264 418.997 418.757 418.632 418.682 418.212 417.562 417.304 416.927 416.542 416.289 415.999 415.784 415.477 415.099 414.714 414.407 414.104 413.839 413.502 412.999 412.619 412.259 411.894 411.562 411.337 411.069 410.717 410.482 410.204 410.007 409.792 409.612 409.857 409.139 408.902 408.762 408.589 408.404 408.234 408.044 407.822 407.659 407.487 407.287 407.032 406.807 406.547 406.234 406.022 405.819 405.587 405.327 404.984 404.487 403.919 403.422 403.217 403.139 402.947 402.887 402.724 402.499 402.224 401.897 401.564 401.209 400.902 400.572 400.239 399.869 399.452 399.004 398.614 398.224 397.792 397.334 396.887 396.492 396.124 395.772 395.399 394.947 394.497 394.077 393.752 393.454 393.214 392.979 392.667 392.274 391.882 391.399 390.989 390.634 390.324 389.972 389.649 389.364 389.107 388.807 388.509 388.219 387.924 387.589 387.264 386.972 386.664 386.399 386.144 385.779 385.399 385.034 384.654 384.274 383.882 383.352 382.864 382.514 382.242 382.012 381.784 381.559 381.322 380.964 380.574 380.214 379.974 379.694 379.332 379.147 379.209 379.269 379.199 379.017 378.719 378.399 377.987 377.727 377.484 377.214 377.017 376.757 376.537 376.337 376.099 375.889 375.687 375.519 375.357 375.149 374.937 374.617 374.362 374.252 374.282 373.344 372.829 372.432 372.184 371.994 371.799 371.602 371.447 371.267 371.082 370.869 370.637 370.419 370.167 369.949 369.759 369.462 369.147 368.804 368.447 368.087 367.739 367.447 367.264 367.019 366.762 366.487 366.224 365.934 365.637 365.294 364.959 364.652 364.359 364.002 363.612 363.377 363.037 362.782 362.592 361.947 361.629 361.112
462.994 462.972 462.752 462.549 462.362 462.289 462.184 461.959 461.854 461.762 461.624 461.527 461.492 461.299 461.177 461.047 460.869 460.644 460.424 460.202 459.949 459.654 459.297 458.977 458.677 458.372 458.094 457.819 457.567 457.292 457.029 456.802 456.547 456.252 456.117 455.814 455.577 455.287 454.974 454.744 454.517 454.282 454.114 453.887 453.674 453.387 453.089 452.824 452.687 452.499 452.317 452.157 451.984 451.752 451.514 451.359 451.177 450.994 450.802 450.642 450.397 450.229 450.007 449.829 449.634 449.429 449.219 448.994 448.699 448.474 448.267 448.107 447.854 447.627 447.394 447.097 446.882 446.622 446.309 446.052 445.824 445.504 445.252 444.947 444.574 444.242 443.957 443.572 443.232 442.924 442.464 441.987 441.554 441.174 440.817 440.527 440.149 439.719 439.859 439.159 438.829 438.804 438.472 438.292 438.107 437.982 437.864 437.772 437.759 437.672 437.642 437.527 437.374 437.182 437.067 436.894 436.719 436.334 436.052 435.627 435.069 434.319 433.852 433.379 432.917 432.622 432.299 432.059 431.857 431.842 431.834 431.747 431.619 431.322 431.134 430.829 430.587 430.312 430.129 429.919 429.709 429.532 429.354 429.202 428.962 428.714 428.342 428.022 427.797 427.572 427.387 427.229 426.994 426.664 426.157 425.672 425.337 424.989 424.647 424.459 424.317 424.202 423.939 423.702 423.454 423.214 422.944 422.614 422.304 421.934 421.592 421.222 420.817 420.519 420.227 419.844 419.589 419.362 419.042 418.742 418.489 418.237 417.982 417.862 417.749 417.407 416.872 416.494 416.144 415.899 415.687 415.379 414.867 414.519 414.254 413.984 413.644 413.327 412.914 412.602 412.162 411.782 411.404 411.064 410.772 410.519 410.229 410.009 409.842 409.627 409.444 409.759 408.997 408.772 408.597 408.417 408.314 408.097 407.894 407.752 407.609 407.442 407.277 406.969 406.702 406.427 406.194 405.939 405.742 405.467 405.142 404.812 404.287 403.647 403.134 403.029 403.062 402.927 402.844 402.712 402.439 402.089 401.737 401.402 401.052 400.749 400.452 400.104 399.727 399.319 398.909 398.499 398.044 397.657 397.192 396.787 396.392 396.049 395.687 395.304 394.917 394.499 394.042 393.687 393.384 393.137 392.882 392.582 392.214 391.822 391.347 390.982 390.662 390.302 389.944 389.614 389.349 389.052 388.774 388.529 388.227 387.904 387.602 387.297 386.929 386.657 386.432 386.177 385.839 385.484 385.179 384.812 384.457 384.077 383.632 383.157 382.669 382.187 381.787 381.614 381.377 381.044 380.837 380.497 380.197 379.969 379.649 379.262 379.124 379.222 379.254 379.127 378.927 378.704 378.397 377.992 377.689 377.452 377.252 377.002 376.769 376.527 376.259 376.067 375.872 375.714 375.457 375.277 375.102 374.894 374.609 374.349 374.314 373.764 373.187 372.734 372.367 372.082 371.942 371.752 371.582 371.427 371.237 371.059 370.844 370.572 370.369 370.149 369.942 369.722 369.434 369.084 368.739 368.382 368.009 367.697 367.464 367.209 366.977 366.734 366.459 366.237 365.907 365.577 365.267 364.952 364.614 364.294 363.939 363.617 363.312 362.907 362.589 362.542 361.827 361.477 361.024
462.939 462.754 462.544 462.399 462.194 462.014 461.897 461.727 461.644 461.574 461.457 461.304 461.197 461.034 460.882 460.742 460.559 460.347 460.112 459.872 459.439 458.994 458.614 458.389 458.177 457.917 457.664 457.399 457.109 456.859 456.647 456.384 456.079 455.859 455.632 455.409 455.154 454.859 454.587 454.417 454.219 453.994 453.779 453.579 453.359 453.099 452.832 452.517 452.349 452.184 452.032 451.882 451.704 451.469 451.287 451.129 450.949 450.794 450.622 450.389 450.169 449.962 449.792 449.587 449.402 449.104 448.882 448.662 448.507 448.239 447.959 447.782 447.647 447.267 447.024 446.797 446.504 446.172 445.992 445.774 445.542 445.254 444.999 444.629 444.277 443.874 443.474 443.109 442.719 442.419 441.969 441.344 440.924 440.509 440.149 439.837 439.614 439.317 438.557 438.479 438.572 438.317 438.062 437.979 437.847 437.849 437.852 437.804 437.742 437.672 437.634 437.489 437.324 437.082 436.884 436.684 436.349 436.019 435.757 435.379 434.784 434.062 433.622 433.184 432.712 432.449 432.107 431.859 431.619 431.574 431.557 431.517 431.344 431.129 430.904 430.609 430.307 430.119 429.974 429.734 429.537 429.369 429.227 429.024 428.719 428.407 428.084 427.759 427.559 427.347 427.094 426.819 426.509 426.199 425.787 425.452 425.172 424.849 424.567 424.377 424.254 424.072 423.837 423.519 423.294 423.049 422.807 422.527 422.242 421.887 421.577 421.222 420.792 420.439 420.114 419.834 419.462 419.194 418.867 418.517 418.369 418.092 417.792 417.522 417.222 417.007 416.822 416.604 416.074 415.759 415.499 415.109 414.607 414.284 413.989 413.699 413.417 413.159 412.799 412.437 412.049 411.689 411.277 411.009 410.704 410.304 410.014 409.829 409.497 409.394 409.257 409.512 408.972 408.652 408.457 408.374 408.217 408.007 407.794 407.669 407.544 407.322 407.152 406.882 406.637 406.374 406.054 405.892 405.714 405.437 405.042 404.479 403.964 403.347 402.939 402.917 402.982 402.869 402.764 402.592 402.322 401.959 401.522 401.187 400.912 400.664 400.344 400.009 399.657 399.209 398.777 398.342 397.959 397.517 397.097 396.697 396.344 396.009 395.627 395.262 394.937 394.494 394.007 393.604 393.267 393.042 392.777 392.464 392.112 391.697 391.314 390.974 390.647 390.277 389.884 389.609 389.344 389.054 388.772 388.479 388.162 387.859 387.604 387.287 386.939 386.657 386.452 386.219 385.932 385.614 385.332 384.967 384.672 384.317 383.942 383.599 383.202 382.899 382.607 382.332 381.982 381.624 381.244 380.869 380.404 380.087 379.772 379.417 379.234 379.277 379.252 379.137 378.909 378.687 378.339 377.954 377.627 377.377 377.167 376.962 376.719 376.467 376.239 375.989 375.847 375.684 375.477 375.312 375.152 374.849 374.579 374.634 374.514 373.549 373.134 372.689 372.289 372.044 371.879 371.727 371.589 371.412 371.222 371.029 370.804 370.574 370.332 370.107 369.904 369.699 369.392 369.027 368.687 368.314 368.004 367.707 367.442 367.214 366.962 366.727 366.449 366.197 365.899 365.539 365.204 364.879 364.564 364.164 363.864 363.549 363.272 362.787 362.457 362.369 361.669 361.292 360.779
462.692 462.407 462.222 462.074 462.022 461.764 461.624 461.527 461.449 461.352 461.159 461.007 460.894 460.757 460.579 460.454 460.249 460.002 459.719 459.394 458.812 458.489 458.264 457.967 457.679 457.454 457.242 456.967 456.684 456.464 456.212 455.944 455.732 455.897 455.204 455.042 454.779 454.484 454.274 454.117 453.909 453.702 453.457 453.237 453.069 452.774 452.524 452.292 452.062 451.872 451.742 451.612 451.449 451.267 451.109 450.884 450.757 450.572 450.369 450.189 449.964 449.749 449.517 449.322 449.139 448.864 448.557 448.337 448.129 447.929 447.649 447.397 447.169 446.934 446.719 446.384 446.062 445.854 445.679 445.519 445.254 444.884 444.554 444.192 443.799 443.472 443.082 442.644 442.214 441.867 441.327 440.782 440.454 439.992 439.562 439.224 438.939 438.749 437.894 437.332 437.942 438.149 437.684 437.657 437.654 437.714 437.742 437.707 437.657 437.617 437.532 437.359 437.097 436.844 436.609 436.347 436.087 435.757 435.459 435.039 434.399 433.792 433.379 432.947 432.519 432.197 431.997 431.672 431.379 431.284 431.174 431.157 431.074 430.859 430.662 430.349 430.114 429.944 429.754 429.589 429.402 429.267 429.049 428.877 428.534 428.284 428.017 427.757 427.454 427.194 426.929 426.489 426.127 425.767 425.509 425.227 425.029 424.707 424.364 424.174 424.029 423.879 423.604 423.404 423.109 422.897 422.739 422.432 422.087 421.719 421.379 420.992 420.709 420.392 419.982 419.749 419.349 419.039 418.649 418.342 418.154 417.892 417.649 417.384 417.082 416.749 416.474 416.347 416.584 415.742 415.357 414.892 414.439 414.124 413.772 413.409 413.222 412.967 412.672 412.272 411.824 411.442 411.112 410.877 410.579 410.224 409.894 409.632 409.422 409.399 409.257 409.189 409.247 408.597 408.399 408.252 408.089 407.959 407.929 407.579 407.434 407.244 407.064 406.869 406.549 406.317 406.069 405.864 405.654 405.314 404.827 404.207 403.687 403.092 402.877 402.899 402.902 402.784 402.649 402.469 402.244 401.877 401.424 400.977 400.724 400.532 400.289 399.939 399.519 399.117 398.687 398.269 397.804 397.409 397.022 396.629 396.287 395.942 395.549 395.269 394.937 394.529 394.002 393.564 393.184 392.889 392.649 392.384 392.032 391.657 391.259 390.932 390.547 390.207 389.862 389.567 389.257 389.012 388.767 388.487 388.169 387.869 387.612 387.299 386.972 386.692 386.477 386.247 385.997 385.714 385.439 385.074 384.779 384.467 384.134 383.877 383.569 383.362 383.097 382.797 382.482 382.082 381.667 381.209 380.679 380.299 379.992 379.712 379.439 379.339 379.297 379.157 378.942 378.667 378.339 377.974 377.584 377.299 377.087 376.904 376.624 376.384 376.177 376.284 376.314 375.954 375.642 375.364 375.114 374.834 374.582 374.669 373.972 373.417 373.024 372.587 372.239 371.999 371.827 371.679 371.584 371.404 371.194 370.949 370.724 370.507 370.267 370.059 369.884 369.679 369.359 369.059 368.657 368.274 367.964 367.704 367.442 367.204 366.939 366.727 366.434 366.127 365.882 365.527 365.177 364.824 364.487 364.137 363.769 363.502 363.252 362.749 362.322 362.174 361.489 361.107 360.557
462.312 462.084 461.927 461.767 461.657 461.549 461.457 461.289 461.199 461.042 460.864 460.694 460.564 460.462 460.119 459.822 459.694 459.434 459.122 458.872 458.387 458.119 457.832 457.437 457.209 456.997 456.812 456.602 456.334 456.074 455.777 455.509 455.409 455.314 454.882 454.654 454.409 454.167 453.994 453.797 453.597 453.382 453.144 452.967 452.727 452.544 452.224 451.994 451.812 451.642 451.474 451.342 451.229 451.077 450.869 450.694 450.497 450.324 450.132 449.992 449.727 449.539 449.254 449.029 448.817 448.609 448.317 448.074 447.762 447.554 447.319 447.097 446.842 446.554 446.294 446.037 445.812 445.549 445.397 445.132 444.767 444.469 444.032 443.669 443.277 442.969 442.577 442.134 441.692 441.227 440.679 440.174 439.939 439.499 438.997 438.387 437.799 438.099 437.849 437.652 437.749 437.997 438.119 437.607 437.622 437.739 437.702 437.654 437.607 437.489 437.349 437.182 436.889 436.679 436.329 436.047 435.859 435.537 435.137 434.562 433.937 433.549 433.137 432.724 432.337 432.012 431.709 431.447 431.147 431.004 430.862 430.784 430.667 430.517 430.317 430.079 429.929 429.714 429.577 429.407 429.234 429.127 428.872 428.662 428.382 428.112 427.834 427.587 427.362 427.034 426.754 426.394 425.912 425.597 425.359 425.132 424.849 424.552 424.292 424.057 423.852 423.632 423.452 423.149 422.902 422.702 422.514 422.242 421.904 421.582 421.284 420.852 420.549 420.197 419.817 419.617 419.262 418.972 418.549 418.209 417.949 417.764 417.532 417.257 416.884 416.574 416.282 415.944 415.772 416.027 415.247 414.619 414.254 413.932 413.562 413.229 413.084 412.707 412.412 412.099 411.562 411.269 411.067 410.704 410.442 410.132 409.774 409.482 409.334 409.397 409.089 409.092 409.312 408.549 408.334 408.172 408.014 407.802 407.629 407.632 407.359 407.164 406.987 406.789 406.512 406.277 406.034 405.839 405.599 405.232 404.794 404.214 403.689 403.202 402.874 402.869 402.997 402.757 402.544 402.332 402.094 401.729 401.254 400.842 400.514 400.292 400.097 399.772 399.337 398.939 398.557 398.042 397.617 397.304 396.929 396.584 396.217 395.887 395.554 395.247 394.932 394.537 394.084 393.562 393.117 392.739 392.519 392.277 391.947 391.602 391.229 390.837 390.444 390.107 389.834 389.547 389.259 388.979 388.722 388.424 388.122 387.877 387.607 387.317 387.012 386.729 386.522 386.242 386.029 385.769 385.459 385.099 384.844 384.574 384.332 384.079 383.769 383.489 383.174 382.874 382.509 382.067 381.687 381.289 380.834 380.449 380.097 379.779 379.514 379.417 379.304 379.142 378.924 378.694 378.357 377.982 377.609 377.294 377.037 376.789 376.562 376.309 376.119 376.357 375.787 375.594 375.699 375.629 375.577 375.194 375.024 374.817 373.849 373.357 372.952 372.572 372.232 371.977 371.779 371.649 371.584 371.382 371.147 370.909 370.672 370.472 370.217 370.044 369.877 369.672 369.409 369.147 368.714 368.287 367.987 367.692 367.449 367.184 366.917 366.659 366.394 366.112 365.852 365.529 365.149 364.762 364.447 364.087 363.709 363.354 362.932 362.494 362.304 361.979 361.302 360.852 360.367
461.832 461.694 461.574 461.482 461.369 461.269 461.139 461.027 460.864 460.689 460.504 460.322 460.169 459.959 459.404 458.982 458.887 458.724 458.369 458.189 457.974 457.667 457.319 456.957 456.749 456.584 456.412 456.184 455.939 455.662 455.404 455.092 455.492 454.802 454.504 454.287 454.079 453.904 453.729 453.497 453.269 453.069 452.874 452.689 452.444 452.237 451.932 451.732 451.597 451.432 451.274 451.087 450.967 450.832 450.634 450.442 450.207 450.119 449.952 449.769 449.509 449.187 448.952 448.747 448.549 448.337 448.032 447.739 447.472 447.264 447.034 446.779 446.469 446.154 445.879 445.644 445.484 445.284 445.034 444.729 444.282 443.867 443.412 443.104 442.732 442.329 441.914 441.517 441.117 440.679 440.204 439.739 439.284 438.894 438.162 437.737 437.617 438.012 438.012 437.762 437.794 437.877 437.982 438.147 437.774 437.782 437.679 437.579 437.462 437.322 437.144 436.914 436.644 436.389 436.132 435.804 435.559 435.234 434.814 434.214 433.674 433.312 432.917 432.512 432.124 431.839 431.532 431.242 430.952 430.759 430.632 430.517 430.337 430.209 430.034 429.819 429.642 429.489 429.329 429.192 429.027 428.879 428.637 428.419 428.212 427.929 427.654 427.202 426.972 426.552 426.222 426.097 425.739 425.449 425.214 424.939 424.672 424.444 424.187 423.969 423.737 423.512 423.312 423.037 422.807 422.574 422.334 422.059 421.764 421.447 421.092 420.659 420.294 419.934 419.684 419.334 419.064 418.764 418.399 418.099 417.829 417.579 417.377 417.039 416.717 416.397 416.167 415.809 415.519 415.262 415.294 414.589 414.059 413.644 413.387 413.037 412.777 412.534 412.222 411.764 411.432 411.134 410.864 410.587 410.352 409.989 409.622 409.377 409.169 409.074 409.044 408.999 409.199 408.447 408.214 408.022 407.859 407.722 407.507 407.417 407.344 407.104 406.884 406.712 406.497 406.189 405.937 405.739 405.499 405.129 404.564 403.884 403.422 403.199 402.987 402.842 402.824 402.554 402.427 402.194 401.932 401.564 401.144 400.824 400.512 400.197 399.874 399.514 399.164 398.742 398.277 397.837 397.497 397.159 396.832 396.517 396.157 395.849 395.509 395.254 394.874 394.462 394.057 393.557 393.062 392.647 392.362 392.144 391.824 391.434 391.109 390.722 390.324 390.019 389.754 389.479 389.209 388.934 388.639 388.359 388.084 387.837 387.569 387.312 387.029 386.784 386.574 386.292 386.067 385.794 385.449 385.122 384.892 384.622 384.377 384.174 383.829 383.459 383.127 382.842 382.412 381.877 381.564 381.274 380.844 380.474 380.132 379.799 379.564 379.434 379.287 379.084 378.842 378.567 378.302 377.969 377.669 377.369 377.037 376.739 376.407 376.217 376.064 376.149 375.659 375.467 375.327 375.089 374.897 374.654 374.492 374.029 373.662 373.292 372.902 372.549 372.212 371.957 371.749 371.619 371.539 371.362 371.097 370.877 370.657 370.419 370.214 370.024 369.802 369.619 369.429 369.204 368.689 368.252 367.929 367.612 367.412 367.157 366.902 366.647 366.344 366.052 365.799 365.479 365.082 364.729 364.409 364.024 363.602 363.289 362.819 362.352 362.322 361.794 361.119 360.662 360.232
461.479 461.394 461.279 461.214 461.124 461.037 460.874 460.677 460.452 460.254 460.107 459.962 459.777 459.424 458.894 458.564 458.429 458.229 457.934 457.777 457.494 457.189 456.857 456.559 456.377 456.222 456.014 455.802 455.589 455.307 455.034 454.814 454.769 454.317 454.154 453.962 453.799 453.622 453.387 453.164 452.954 452.749 452.577 452.357 452.142 451.934 451.702 451.547 451.389 451.284 451.084 450.857 450.679 450.532 450.399 450.202 449.999 449.842 449.704 449.477 449.214 448.927 448.689 448.482 448.264 447.954 447.742 447.492 447.222 446.974 446.732 446.482 446.149 445.852 445.584 445.372 445.199 445.047 444.697 444.179 443.684 443.252 442.857 442.539 442.204 441.779 441.304 440.829 440.467 440.214 439.854 439.249 438.752 438.449 438.012 438.029 438.244 438.332 438.227 438.022 437.992 437.952 437.854 438.094 437.959 437.759 437.609 437.467 437.264 437.047 436.869 436.659 436.484 436.252 435.979 435.559 435.127 434.737 434.414 434.017 433.549 433.119 432.757 432.374 431.989 431.712 431.429 431.109 430.849 430.617 430.447 430.337 430.137 429.997 429.849 429.674 429.452 429.274 429.104 428.947 428.747 428.574 428.264 428.114 427.929 427.702 427.352 426.874 426.624 426.287 426.042 425.752 425.517 425.272 425.082 424.849 424.564 424.252 424.034 423.814 423.587 423.364 423.159 422.894 422.677 422.509 422.212 421.939 421.634 421.324 420.962 420.532 420.099 419.724 419.409 419.152 418.869 418.572 418.262 418.019 417.687 417.389 417.222 416.997 416.684 416.339 416.019 415.624 415.339 414.787 414.684 414.684 413.979 413.507 413.172 412.847 412.604 412.349 411.987 411.632 411.329 411.009 410.719 410.444 410.194 409.797 409.514 409.327 409.164 409.049 409.054 408.947 408.997 408.414 408.092 407.882 407.822 407.602 407.429 407.262 407.192 406.964 406.849 406.572 406.292 406.042 405.754 405.529 405.214 404.794 404.117 403.512 403.254 403.129 402.949 402.727 402.579 402.429 402.292 402.019 401.769 401.492 401.187 400.897 400.599 400.302 399.932 399.492 399.094 398.612 398.142 397.739 397.389 397.067 396.759 396.474 396.109 395.794 395.449 395.139 394.792 394.364 393.974 393.492 393.009 392.569 392.222 391.957 391.637 391.294 390.989 390.604 390.209 389.922 389.659 389.372 389.102 388.847 388.587 388.314 388.042 387.827 387.554 387.284 387.047 386.849 386.594 386.322 386.092 385.764 385.429 385.177 384.912 384.634 384.402 384.122 383.774 383.402 383.062 382.749 382.369 381.984 381.642 381.247 380.867 380.497 380.137 379.819 379.634 379.439 379.189 378.947 378.674 378.442 378.179 377.897 377.642 377.322 376.957 376.652 376.329 376.129 376.199 376.442 375.657 375.439 375.267 374.992 374.752 374.522 374.202 373.864 373.532 373.172 372.829 372.532 372.207 371.974 371.764 371.629 371.487 371.277 371.059 370.824 370.599 370.384 370.172 369.994 369.792 369.547 369.344 369.034 368.579 368.194 367.859 367.612 367.369 367.139 366.902 366.609 366.304 366.064 365.729 365.344 364.989 364.582 364.284 363.907 363.554 363.187 362.739 362.324 362.342 361.964 361.012 360.584 360.119
461.179 461.162 460.979 460.922 460.824 460.684 460.524 460.289 460.072 459.907 459.717 459.524 459.319 458.954 458.634 458.247 458.009 457.782 457.572 457.367 457.059 456.734 456.434 456.189 456.012 455.829 455.597 455.402 455.197 454.937 454.692 454.659 454.324 454.054 453.834 453.709 453.487 453.272 453.049 452.802 452.632 452.459 452.274 452.059 451.834 451.672 451.489 451.314 451.169 451.064 450.912 450.674 450.414 450.292 450.169 449.954 449.772 449.569 449.362 449.152 448.929 448.682 448.432 448.212 448.009 447.677 447.472 447.232 446.952 446.672 446.402 446.147 445.822 445.569 445.297 445.067 444.872 444.534 444.102 443.657 443.222 442.822 442.427 442.007 441.574 441.262 440.717 440.222 439.939 439.792 439.587 439.069 438.584 438.474 438.372 438.414 438.414 438.372 438.254 438.109 438.007 437.942 437.819 437.717 438.054 437.847 437.499 437.302 437.022 436.797 436.629 436.494 436.272 436.054 435.764 435.404 434.977 434.614 434.242 433.869 433.437 432.994 432.672 432.307 431.852 431.467 431.122 430.844 430.529 430.337 430.192 430.104 429.989 429.782 429.627 429.489 429.259 429.077 428.877 428.707 428.484 428.207 427.952 427.777 427.602 427.447 427.207 426.659 426.382 426.177 425.857 425.619 425.372 425.119 424.907 424.754 424.474 424.184 423.919 423.707 423.412 423.179 422.969 422.782 422.547 422.347 422.072 421.779 421.542 421.259 420.854 420.427 419.972 419.517 419.164 418.914 418.654 418.432 418.119 417.839 417.542 417.279 417.004 416.789 416.499 416.182 415.844 415.537 415.129 414.619 414.297 413.974 413.972 413.457 413.012 412.724 412.402 412.142 411.929 411.577 411.154 410.884 410.554 410.294 409.949 409.727 409.572 409.392 409.282 409.112 408.927 408.847 409.152 408.344 408.049 407.807 407.672 407.462 407.279 407.167 407.042 406.819 406.714 406.477 406.124 405.879 405.602 405.317 404.967 404.454 403.634 403.262 403.257 403.127 402.834 402.639 402.464 402.314 402.174 401.964 401.679 401.397 401.124 400.884 400.612 400.324 399.922 399.482 399.032 398.492 398.187 397.702 397.344 397.017 396.764 396.484 396.079 395.732 395.347 394.992 394.657 394.187 393.772 393.337 392.907 392.464 392.074 391.707 391.389 391.114 390.824 390.464 390.104 389.822 389.582 389.272 389.067 388.822 388.542 388.264 388.009 387.814 387.554 387.289 387.054 386.824 386.572 386.324 386.089 385.752 385.407 385.167 384.909 384.587 384.314 384.067 383.762 383.422 383.112 382.769 382.424 382.052 381.779 381.284 380.849 380.494 380.149 379.837 379.624 379.372 379.102 378.829 378.494 378.299 378.057 377.779 377.542 377.232 376.874 376.549 376.284 376.119 376.197 376.082 375.607 375.392 375.212 374.934 374.647 374.397 374.039 373.672 373.377 373.064 372.757 372.447 372.154 371.944 371.794 371.617 371.387 371.222 371.014 370.787 370.562 370.342 370.117 369.927 369.699 369.434 369.227 368.877 368.512 368.127 367.842 367.594 367.342 367.074 366.857 366.537 366.299 366.002 365.682 365.262 364.859 364.472 364.152 363.822 363.494 363.139 362.697 362.302 362.494 361.634 360.774 360.439 360.054
460.922 460.792 460.722 460.614 460.494 460.277 460.102 459.884 459.709 459.494 459.279 459.052 458.869 458.584 458.352 457.994 457.697 457.284 457.079 456.814 456.569 456.299 456.077 455.884 455.662 455.464 455.259 455.044 454.824 454.562 454.429 454.397 453.974 453.787 453.574 453.369 453.162 452.932 452.759 452.549 452.347 452.149 451.989 451.767 451.617 451.404 451.217 451.082 450.982 450.774 450.589 450.382 450.182 449.934 449.832 449.647 449.429 449.227 449.047 448.834 448.624 448.399 448.184 447.967 447.679 447.397 447.192 446.864 446.589 446.302 445.997 445.737 445.504 445.234 444.997 444.824 444.459 444.009 443.549 443.079 442.702 442.389 442.032 441.577 441.022 440.842 440.362 439.912 439.642 439.509 439.102 438.832 438.747 438.744 438.644 438.524 438.402 438.312 438.112 438.024 437.942 437.879 437.784 437.677 437.629 437.769 437.679 437.159 436.832 436.649 436.424 436.259 436.069 435.832 435.489 435.127 434.659 434.162 433.919 433.587 433.219 432.834 432.502 432.074 431.587 431.244 430.889 430.572 430.292 430.087 429.979 429.917 429.719 429.584 429.422 429.252 429.072 428.844 428.599 428.404 428.234 428.007 427.752 427.507 427.339 427.174 426.964 426.557 426.227 425.932 425.657 425.409 425.169 424.982 424.782 424.567 424.312 424.059 423.837 423.567 423.299 423.067 422.812 422.577 422.374 422.172 421.919 421.649 421.327 421.109 420.632 420.264 419.817 419.382 419.039 418.714 418.489 418.154 417.899 417.719 417.342 417.062 416.762 416.527 416.302 415.997 415.624 415.327 414.984 414.487 414.094 413.772 413.389 413.252 413.349 412.629 412.207 411.982 411.702 411.382 410.982 410.582 410.332 410.099 409.904 409.747 409.617 409.489 409.329 409.019 408.864 408.692 408.872 408.339 408.059 407.804 407.554 407.354 407.144 406.919 406.829 406.727 406.459 406.232 405.962 405.719 405.517 405.057 404.577 404.139 403.427 402.917 403.017 402.952 402.727 402.562 402.427 402.269 402.112 401.937 401.647 401.324 401.052 400.802 400.582 400.232 399.802 399.332 398.847 398.402 398.034 397.634 397.317 397.007 396.739 396.389 396.012 395.657 395.294 394.864 394.437 393.874 393.504 393.119 392.702 392.294 391.829 391.422 391.094 390.869 390.654 390.327 390.022 389.789 389.562 389.279 389.044 388.792 388.507 388.214 387.972 387.767 387.567 387.277 387.044 386.834 386.554 386.324 386.074 385.684 385.397 385.139 384.824 384.534 384.247 383.992 383.727 383.409 383.117 382.784 382.414 381.979 381.604 381.224 380.799 380.377 380.079 379.814 379.544 379.257 378.944 378.662 378.377 378.177 377.962 377.692 377.474 377.179 376.847 376.502 376.269 376.119 376.299 375.939 375.562 375.387 375.142 374.847 374.547 374.254 373.902 373.527 373.197 372.922 372.654 372.357 372.079 371.919 371.749 371.557 371.329 371.144 370.947 370.747 370.527 370.284 370.064 369.839 369.639 369.384 369.099 368.787 368.422 368.042 367.782 367.559 367.307 367.064 366.802 366.549 366.239 365.949 365.574 365.157 364.784 364.432 364.114 363.769 363.477 363.104 362.614 362.204 362.264 361.474 360.734 360.332 359.932
460.689 460.562 460.454 460.277 460.072 459.894 459.777 459.574 459.349 459.102 458.864 458.662 458.432 458.139 457.812 457.542 457.194 456.762 456.499 456.317 456.119 455.914 455.722 455.557 455.337 455.137 454.919 454.719 454.489 454.327 454.522 453.842 453.632 453.439 453.279 453.029 452.809 452.657 452.454 452.284 452.044 451.879 451.662 451.477 451.342 451.134 450.977 450.817 450.684 450.477 450.332 450.102 449.847 449.679 449.449 449.277 449.124 448.892 448.732 448.554 448.309 448.109 447.884 447.632 447.352 447.104 446.754 446.477 446.222 445.962 445.629 445.394 445.207 444.977 444.687 444.432 444.049 443.484 442.964 442.544 442.174 441.777 441.529 441.137 440.684 440.554 440.087 439.637 439.142 438.907 438.427 438.517 438.787 438.774 438.637 438.494 438.307 438.192 438.039 437.947 437.844 437.757 437.679 437.597 437.417 437.299 437.609 437.084 436.682 436.494 436.299 436.094 435.799 435.477 435.137 434.559 434.174 433.929 433.494 433.244 432.949 432.597 432.192 431.837 431.347 430.934 430.589 430.284 430.022 429.787 429.739 429.692 429.442 429.384 429.239 429.097 428.844 428.637 428.434 428.164 427.944 427.722 427.462 427.264 427.099 426.902 426.602 426.119 425.969 425.699 425.469 425.252 424.969 424.787 424.669 424.399 424.139 423.947 423.672 423.389 423.174 422.932 422.727 422.454 422.194 421.967 421.727 421.417 421.099 420.799 420.334 420.037 419.597 419.247 418.914 418.564 418.267 417.984 417.744 417.432 417.169 416.897 416.707 416.414 416.127 415.912 415.582 415.169 414.827 414.334 414.009 413.679 413.259 412.957 412.707 412.654 412.189 411.782 411.524 411.204 410.744 410.547 410.374 410.122 410.042 409.754 409.579 409.337 409.124 408.949 408.747 408.557 408.699 408.332 407.944 407.762 407.609 407.407 407.112 406.809 406.604 406.374 406.254 405.962 405.767 405.394 405.109 404.752 404.269 403.862 403.297 402.899 402.969 402.859 402.669 402.504 402.367 402.207 402.024 401.827 401.579 401.279 400.959 400.697 400.414 400.077 399.612 399.182 398.754 398.322 397.897 397.587 397.282 396.989 396.704 396.309 395.899 395.574 395.207 394.734 394.114 393.684 393.292 392.944 392.519 392.114 391.682 391.224 390.954 390.759 390.549 390.284 389.994 389.782 389.514 389.224 388.987 388.774 388.522 388.197 387.952 387.737 387.532 387.247 386.972 386.782 386.464 386.242 385.949 385.624 385.359 385.069 384.747 384.472 384.167 383.909 383.634 383.362 383.064 382.747 382.304 381.822 381.429 381.074 380.677 380.294 379.982 379.669 379.359 379.112 378.832 378.537 378.262 378.069 377.832 377.579 377.379 377.112 376.769 376.524 376.277 376.142 376.169 375.827 375.554 375.362 375.012 374.717 374.477 374.112 373.779 373.437 373.097 372.807 372.549 372.277 372.067 371.882 371.694 371.467 371.279 371.092 370.872 370.709 370.487 370.267 370.047 369.767 369.577 369.317 369.037 368.707 368.382 368.004 367.714 367.557 367.242 367.019 366.762 366.527 366.214 365.914 365.537 365.099 364.717 364.364 364.047 363.699 363.397 363.012 362.487 362.134 362.182 361.364 360.622 360.217 359.809
