ncols 374
nrows 32
xllcorner    386030
yllcorner    479232
cellsize     2
NODATA_value -9999
467.78 465.242 469.467 467.142 460.9 464.44 464.977 470.535 463.277 465.072 464.892 468.65 463.215 464.275 466.245 466.462 471.232 469.46 465.927 465.417 467.852 468.025 469.735 468.135 469.767 468.922 468.527 463.932 470.172 467.615 470.86 471.377 466.602 470.377 471.697 466.947 463.584 468.707 465.062 461.387 460.037 457.264 457.307 457.437 457.177 460.239 466.072 467.919 471.347 471.369 470.842 469.742 474.727 470.622 472.017 471.664 468.989 473.987 473.287 469.347 473.212 469.472 470.062 471.062 463.342 467.334 470.417 473.822 471.572 469.694 472.929 471.777 469.849 472.789 471.469 474.514 475.329 471.809 469.824 469.464 473.212 472.272 462.267 460.002 470.494 471.684 469.872 472.657 469.782 472.594 472.679 472.014 475.562 474.219 472.637 472.699 472.707 472.037 474.157 469.274 471.322 465.374 471.877 474.129 466.834 470.482 473.339 469.122 469.547 471.059 467.344 470.627 470.442 469.862 470.847 464.707 468.252 463.364 464.369 470.797 471.077 471.862 474.154 466.032 472.649 471.039 472.392 468.187 463.082 466.599 467.512 464.912 461.634 461.959 466.074 465.114 465.524 466.487 463.792 462.744 463.222 465.027 464.292 462.662 463.887 461.779 464.624 462.562 463.042 463.502 462.819 463.229 462.252 463.217 461.589 462.597 461.702 463.664 464.654 465.287 464.089 461.954 460.809 461.009 461.089 460.964 461.734 462.537 462.724 462.664 461.742 461.464 463.402 466.442 467.194 470.272 461.872 460.469 460.309 461.269 462.849 465.492 468.297 470.269 472.694 472.922 469.142 465.097 467.004 471.752 473.767 471.089 473.979 471.502 469.779 468.349 469.537 470.677 468.757 472.579 469.249 464.464 467.162 467.119 465.309 463.689 467.559 467.719 468.184 467.134 463.287 463.389 468.549 469.942 468.874 470.889 465.464 461.884 465.659 469.402 468.732 464.969 471.752 472.909 471.654 475.044 473.292 472.484 474.157 472.907 473.327 471.362 469.277 472.074 469.084 471.891 473.926 474.824 470.966 474.104 467.556 464.602 469.996 472.181 466.146 466.546 466.376 468.731 464.891 472.232 469.301 467.084 472.134 466.477 469.319 463.846 468.232 470.774 471.329 472.051 471.996 473.194 471.531 469.836 472.417 469.946 471.504 470.204 466.921 471.966 462.229 473.629 469.607 470.859 468.174 469.977 462.469 467.671 472.161 466.704 463.561 469.734 469.059 468.854 466.389 465.954 471.416 471.676 468.219 470.156 469.814 468.149 470.721 467.061 466.229 466.369 468.034 468.401 465.516 466.606 464.494 463.406 464.061 469.856 464.879 464.896 466.436 463.926 464.879 463.816 461.801 468.209 466.121 466.486 465.884 467.191 466.296 466.386 467.934 463.314 466.789 467.386 466.759 467.161 465.346 465.774 465.091 466.589 459.926 463.904 466.789 466.094 465.526 460.844 465.704 465.949 465.759 462.814 459.419 458.204 451.119 449.451 451.474 461.991 462.976 462.586 462.309 463.629 461.554 462.374 458.429 458.289 463.834 463.706 463.261 461.701 461.924 461.451 458.249 463.561 461.926 458.389 463.666 460.884 459.646 463.394 461.899 460.994 463.259 465.064 463.756 463.329 461.019 453.009
468.19 465.52 469.752 468.047 470.22 464.272 468.387 466.69 467.422 463.21 460.015 464.145 463.157 467.807 466.622 468.287 471.415 470.232 464.452 462.125 468.16 468.072 470.49 468.745 468.117 467.42 470.15 468.112 469.397 472.89 471.052 472.73 464.617 471.107 470.942 471.197 462.519 470.134 465.432 469.262 464.487 459.867 458.244 458.027 458.087 460.192 467.467 471.917 471.252 471.524 472.837 474.317 472.134 471.377 471.939 472.672 473.519 469.762 473.742 473.444 471.427 471.544 472.239 470.534 462.292 463.717 470.294 472.902 471.447 471.254 474.024 473.714 467.717 473.867 472.594 473.284 472.057 469.779 471.612 472.157 473.389 472.642 462.307 463.514 472.809 473.902 470.852 472.532 470.547 471.312 473.222 474.212 472.279 474.542 473.462 469.292 472.607 469.767 469.917 471.414 472.237 467.869 473.964 474.544 469.734 467.804 473.029 473.634 473.319 472.084 470.779 471.674 474.392 469.622 473.539 472.677 470.314 468.379 465.072 473.584 473.559 472.652 473.492 463.002 469.887 469.017 464.949 466.232 461.189 464.452 469.414 466.454 466.569 461.869 463.647 463.342 463.402 467.734 466.349 466.569 463.039 464.422 466.079 464.437 468.539 463.404 465.062 464.747 466.014 465.572 462.804 465.097 465.559 460.869 460.502 464.444 462.322 466.769 464.734 463.169 463.377 467.327 462.512 461.047 461.084 461.534 462.242 462.804 462.669 461.669 462.954 461.509 465.167 470.489 473.882 474.512 472.912 462.739 461.157 462.389 462.764 461.569 466.997 470.064 472.132 471.752 474.162 466.542 471.229 475.917 473.784 473.457 474.149 472.699 470.912 463.334 466.994 470.744 467.074 470.607 470.489 463.754 461.787 463.797 464.722 463.529 462.407 463.072 466.719 463.714 464.584 463.537 471.207 473.544 466.114 468.907 468.322 468.322 467.862 470.859 470.992 464.917 469.867 473.362 471.519 473.592 472.052 471.554 473.022 472.444 472.347 473.769 475.344 474.534 469.667 470.461 474.321 473.011 473.917 470.602 469.574 464.771 465.039 470.991 470.244 469.926 466.149 468.461 464.507 464.574 470.206 471.686 471.886 467.016 471.144 465.477 462.244 472.102 472.996 473.761 473.234 473.739 472.896 474.759 473.459 473.352 469.981 469.749 468.257 467.206 471.724 468.251 469.899 473.536 468.524 467.172 471.289 467.579 470.876 468.516 464.086 472.246 470.024 462.556 466.661 464.806 469.384 469.871 467.994 469.681 470.381 470.584 469.456 467.004 463.721 464.476 467.571 468.121 468.746 470.489 463.799 458.456 459.789 463.464 466.016 467.104 464.641 467.269 468.364 464.266 465.356 465.144 467.116 463.536 467.914 467.431 467.529 469.654 468.674 462.666 465.041 468.656 467.726 466.446 468.861 465.761 464.549 466.811 466.324 465.066 466.496 466.611 466.356 466.479 459.449 467.336 467.074 464.591 458.121 461.551 455.631 450.004 457.234 464.644 463.804 462.469 461.626 461.319 464.089 465.059 462.101 459.971 458.399 463.914 463.239 463.454 461.574 460.281 455.566 463.841 464.476 462.376 462.244 465.271 463.076 461.701 462.064 460.659 462.946 465.334 464.156 465.996 459.929 457.139
468.837 470.847 469.362 469.412 467.357 468.422 468.702 463.737 466.772 462.002 457.25 462.625 469.49 468.255 467.732 470.7 471.035 470.93 467.69 464.835 468.735 468.22 467.282 467.82 470.08 468.542 469.585 464.252 466.472 469.94 470.712 471.772 470.375 473.28 471.617 468.672 467.369 473.237 466.527 472.134 468.629 462.052 459.252 458.852 458.792 460.519 469.262 473.284 472.517 471.227 473.064 473.492 472.487 472.284 475.557 470.392 473.769 470.572 473.424 473.324 471.869 472.577 472.169 470.477 465.744 465.187 473.334 475.334 471.192 472.749 474.734 474.052 469.962 472.107 473.024 475.912 469.532 471.689 474.652 471.764 472.719 473.602 468.784 466.929 471.749 473.589 472.979 470.172 468.027 473.239 473.109 474.704 475.374 474.284 472.394 473.517 472.519 472.639 474.779 470.752 473.152 472.187 473.967 475.062 474.992 471.869 472.992 475.404 475.234 473.474 469.197 471.134 470.817 472.702 473.057 473.089 473.152 470.589 464.989 470.819 475.222 475.252 472.982 466.982 464.769 467.162 464.084 465.247 463.047 462.042 464.344 465.957 465.109 463.382 464.464 466.564 466.059 463.767 464.139 463.792 463.319 464.482 463.232 463.967 464.609 465.169 464.302 464.639 463.014 463.547 464.269 462.902 462.809 461.844 461.974 465.032 467.549 463.307 465.492 465.184 464.474 466.702 465.267 464.507 461.977 462.047 462.054 462.294 461.344 463.414 464.329 463.259 464.512 469.772 474.899 472.377 471.224 466.117 466.529 461.777 461.497 462.664 466.374 472.394 470.737 471.709 471.819 466.884 471.052 472.532 474.512 475.032 474.497 475.802 475.854 474.277 473.762 474.954 471.119 467.557 472.942 468.634 462.502 466.129 470.737 469.354 463.784 465.109 468.102 466.137 464.892 462.024 469.537 471.124 473.699 468.194 468.977 470.517 470.964 469.952 470.789 464.754 472.052 468.757 469.894 470.977 473.012 471.737 474.332 474.874 473.567 471.399 468.357 472.557 471.879 474.376 472.826 472.616 472.184 471.391 471.792 462.206 467.076 467.021 468.271 468.636 471.046 468.256 467.996 468.251 469.102 472.404 471.206 471.141 473.879 471.146 461.264 473.106 473.636 473.599 473.574 471.659 474.711 474.274 472.934 473.214 469.434 475.024 469.934 465.156 474.066 471.661 471.784 468.349 471.816 470.646 471.611 471.699 468.229 469.679 468.724 465.609 467.949 470.939 467.924 467.101 464.091 468.659 470.631 467.209 468.791 466.871 468.189 467.116 462.116 463.491 468.206 469.481 468.634 470.919 467.744 461.506 459.409 460.019 463.716 465.214 459.709 464.379 468.016 464.306 465.149 468.689 462.319 463.801 466.696 469.401 464.356 468.331 466.861 465.881 459.489 467.246 467.586 460.976 466.276 468.106 466.369 464.149 469.979 468.376 468.189 464.524 467.766 464.474 463.414 467.311 466.046 462.189 459.621 464.504 462.234 454.044 461.704 464.969 465.311 465.544 462.721 463.394 460.744 463.581 458.289 459.446 463.009 463.369 463.496 463.361 463.161 464.719 460.251 461.924 464.416 464.651 461.956 463.884 463.011 463.824 463.204 463.876 464.924 464.794 465.269 465.021 457.851 459.589
468.725 464.817 468.867 469.445 472.502 468.477 470.34 463.705 469.63 470.852 462.002 460.765 469.05 469.437 469.662 470.89 470.255 470.715 470.152 463.367 469.69 469.172 465.9 470.115 468.492 468.992 470.43 466.292 468.06 470.677 471.547 472.167 469.897 473.962 472.017 470.004 466.317 471.912 470.899 472.634 468.554 462.792 459.934 459.592 459.534 460.134 464.599 468.949 471.244 472.319 471.454 472.229 473.747 474.542 473.954 472.354 474.399 472.174 472.254 472.444 466.987 474.602 473.772 475.149 467.587 472.197 473.379 473.977 472.647 468.987 469.904 475.119 470.994 467.472 473.664 474.369 470.752 475.422 474.174 469.912 468.834 474.622 472.342 471.787 468.754 474.197 474.902 469.519 468.524 475.369 474.829 473.339 475.564 474.824 473.062 474.469 475.589 477.809 475.522 471.059 473.709 473.879 470.299 476.322 476.832 468.194 473.727 472.762 475.424 472.484 471.977 471.772 473.422 474.422 473.209 473.064 471.397 472.407 469.864 467.662 465.137 468.604 471.049 469.682 462.559 467.449 463.854 463.644 468.769 463.939 463.812 462.672 463.757 464.577 467.144 469.454 464.047 464.837 467.052 464.754 464.727 464.114 463.957 465.289 464.037 464.507 466.509 464.902 462.519 462.552 462.772 463.854 464.439 464.472 462.447 465.184 468.909 465.864 464.839 463.564 463.424 463.037 464.889 466.317 461.972 462.069 461.952 462.294 462.447 462.557 463.569 463.477 464.052 469.609 470.744 473.104 472.907 463.412 462.239 462.779 462.837 463.357 468.014 471.297 469.032 473.307 468.852 464.747 467.754 472.002 473.379 473.864 473.692 473.822 475.294 475.354 476.007 474.662 473.469 469.099 471.544 472.287 467.967 466.939 472.899 471.352 464.649 469.614 468.072 467.794 468.064 464.644 464.219 468.599 471.539 467.474 471.339 473.282 471.409 470.884 474.152 469.699 471.862 469.929 470.079 473.227 473.464 474.542 474.592 473.942 472.739 474.374 474.642 472.734 473.229 473.766 473.749 469.689 473.126 468.609 472.564 473.036 473.771 470.686 474.257 471.639 468.084 472.191 466.186 469.704 472.569 468.544 470.459 474.536 472.044 471.811 469.839 471.314 474.641 473.624 475.434 475.016 473.656 473.294 475.019 473.371 474.164 471.864 473.684 466.801 473.047 467.321 468.971 471.559 469.546 469.946 469.286 468.274 467.736 468.216 466.389 468.919 472.346 471.524 472.179 467.249 472.021 471.174 469.061 463.066 464.794 461.874 468.041 467.856 468.511 468.529 466.974 469.129 469.879 469.686 468.576 460.654 462.329 462.384 462.399 457.971 456.924 461.481 466.486 462.896 462.976 468.154 464.884 459.899 462.606 466.849 467.989 465.749 463.771 465.154 463.716 461.194 468.411 468.871 469.676 469.076 469.036 468.261 467.779 467.779 469.291 468.216 467.924 468.621 464.101 459.361 468.029 464.891 459.376 458.764 457.431 453.909 461.034 464.134 463.941 464.574 463.094 463.789 461.656 463.966 459.059 452.596 457.774 464.954 464.699 464.369 463.376 462.174 463.181 463.986 459.476 463.884 464.339 462.076 465.221 464.026 462.831 465.964 465.151 466.369 460.596 463.021 460.939 458.396
471.5 466.98 471.602 471.617 471.192 470.51 468.335 465.975 471.077 473.362 465.192 459.93 470.56 470.155 470.187 470.542 471.622 474.4 469.657 465.885 470.79 469.64 468.607 468.747 471.247 469.16 467.81 468.482 469.03 473.557 470.95 469.355 470.447 471.785 468.677 470.254 469.507 471.002 471.129 469.072 469.984 464.612 464.769 464.219 463.179 461.064 462.072 468.399 472.452 472.997 472.527 471.094 475.009 474.129 476.634 474.939 476.229 468.052 472.524 471.849 472.212 475.519 471.314 473.302 471.152 476.002 473.154 473.784 470.777 465.282 467.192 473.137 470.029 470.514 471.624 475.479 476.704 472.244 474.547 472.142 472.782 474.052 467.159 475.162 469.637 470.742 474.419 466.547 465.967 473.972 474.992 474.644 475.249 475.944 474.109 474.127 473.587 476.529 475.362 472.417 474.417 474.112 475.284 476.264 475.679 475.424 475.132 474.282 473.984 474.377 471.512 473.749 475.177 473.814 472.047 473.144 470.614 476.592 473.539 467.424 462.197 462.537 463.734 466.172 463.357 464.632 463.082 466.704 468.107 464.069 464.264 465.662 466.999 463.957 467.209 465.479 466.194 467.472 467.999 465.852 467.352 465.167 466.042 468.329 465.349 465.117 466.589 464.862 463.104 462.964 466.184 468.804 467.662 463.479 464.464 465.752 466.839 463.747 464.067 462.747 462.474 463.032 465.789 467.222 465.722 462.829 462.179 462.067 462.534 462.047 462.272 464.597 463.327 465.864 471.649 469.009 470.562 463.249 462.667 463.214 463.832 463.612 465.164 466.129 466.089 466.607 468.922 463.052 463.997 471.032 475.249 474.364 470.787 474.827 468.544 474.309 476.497 476.689 474.092 472.439 470.004 470.919 471.199 467.167 467.062 466.892 466.652 469.459 468.312 466.614 467.224 469.077 464.879 469.619 472.992 471.452 469.724 470.442 468.704 468.632 474.737 471.569 473.867 469.629 472.784 474.347 475.462 473.814 473.747 475.764 473.062 474.097 475.277 474.534 475.302 476.546 476.029 472.289 473.734 471.941 467.339 469.906 472.112 469.219 470.589 472.811 471.324 473.331 470.469 467.069 473.294 474.801 472.514 472.664 472.529 473.674 475.036 468.134 472.579 475.711 476.169 474.144 472.636 474.507 476.536 474.016 475.156 472.561 476.009 473.949 472.531 471.621 470.536 473.387 463.466 473.014 468.334 465.784 469.034 471.237 469.926 468.444 472.961 469.546 470.406 472.724 471.766 469.321 467.979 464.791 459.046 457.714 460.999 466.809 468.294 471.859 470.626 470.646 469.741 466.859 467.136 466.349 462.921 465.416 466.829 465.179 458.779 465.679 465.554 461.419 461.624 469.566 468.574 462.764 466.871 464.641 470.149 468.221 468.866 466.269 470.321 468.874 466.256 468.261 468.924 470.051 468.171 468.644 470.326 469.491 468.874 469.131 461.449 467.371 463.879 461.689 467.461 464.376 461.934 458.899 456.156 455.231 461.459 465.706 464.534 464.301 463.974 463.721 465.296 461.384 462.966 457.304 458.366 464.096 466.094 463.899 461.434 464.871 465.709 467.061 458.906 461.119 465.251 463.736 465.216 463.284 462.251 466.291 466.384 465.881 464.259 460.784 460.604 456.234
468.272 468.785 472.46 466.64 469.985 471.335 470.385 470.077 473.197 472.125 468.292 461.112 463.457 471.8 473.592 473.092 471.79 471.455 469.987 468.192 471.032 470.632 469.852 467.475 467.747 469.07 472.152 470.722 468.852 473.487 472.322 469.797 472.192 474.447 471.505 471.027 468.779 470.522 469.684 470.819 474.254 473.249 470.159 469.712 470.767 466.559 461.942 469.339 474.977 474.172 475.334 474.514 474.299 474.024 476.084 474.077 475.479 474.189 472.719 476.144 471.127 475.987 473.627 472.972 477.177 476.682 475.484 474.492 468.009 463.157 462.619 467.059 468.479 466.492 473.289 474.369 474.769 471.287 475.194 472.122 471.419 467.767 471.912 474.064 468.049 469.824 468.179 466.187 465.067 475.734 475.527 476.592 475.864 472.807 474.069 474.917 468.324 476.509 470.507 474.949 471.994 472.779 477.942 477.732 477.159 476.059 475.372 475.514 475.437 473.614 470.544 471.514 469.802 474.457 475.482 474.207 475.274 471.072 473.949 469.552 462.457 464.512 463.102 466.307 469.067 466.424 467.729 466.824 467.794 464.157 464.867 464.214 467.799 467.557 464.327 464.107 466.217 465.082 466.134 466.952 466.699 464.719 466.774 466.314 464.772 463.589 466.954 466.172 463.444 465.282 466.702 470.412 466.054 466.104 467.547 466.859 464.434 464.692 462.912 465.149 466.084 466.129 467.052 465.614 466.359 467.574 463.714 462.687 466.444 463.719 465.542 467.012 466.762 464.059 471.167 467.477 468.609 466.202 463.044 463.634 467.092 464.624 464.899 465.299 465.729 466.304 464.712 465.762 468.087 470.784 473.659 473.207 468.687 466.512 470.359 472.997 474.852 474.847 473.184 476.034 473.512 471.744 471.624 467.439 465.964 468.332 468.959 468.514 470.184 467.472 469.907 470.942 468.159 469.469 473.852 474.299 470.912 468.999 466.872 465.447 471.802 473.222 474.717 469.407 470.987 469.164 474.709 474.552 473.979 475.572 476.632 475.292 475.607 474.387 475.354 476.234 471.919 475.029 472.781 473.691 473.949 471.014 473.889 471.701 472.199 475.199 468.679 466.979 471.977 467.346 473.607 473.951 474.917 471.727 475.526 472.874 472.854 474.619 467.911 469.426 475.001 475.569 473.999 472.141 475.244 475.216 473.634 475.917 472.771 473.994 475.136 471.621 469.331 469.879 473.151 469.909 473.456 469.809 466.001 470.294 467.171 471.664 472.197 471.896 468.947 464.801 470.051 473.204 469.916 466.901 458.361 457.691 458.216 461.961 465.611 469.321 469.251 470.684 471.479 467.151 468.096 465.736 464.144 470.044 466.884 466.134 464.381 467.409 466.196 468.044 468.121 470.699 470.576 470.094 470.881 465.881 470.416 469.359 469.166 470.636 468.551 470.761 470.646 466.636 470.259 469.961 469.629 469.469 464.621 467.634 468.974 467.849 469.681 470.451 467.234 468.041 467.634 461.189 465.831 464.906 459.269 461.064 463.366 461.281 464.636 463.731 465.744 462.781 466.961 465.801 464.644 457.026 458.096 461.501 463.851 466.404 462.314 465.304 465.401 465.206 465.241 463.781 461.744 460.094 463.221 464.954 464.919 463.881 464.221 466.986 461.934 455.384 460.054 456.766
469.422 468.482 468.347 468.57 468.73 464.945 471.052 471.372 468.132 467.855 472.467 467.282 465.702 465.757 468.012 471.15 470.412 473.275 469.175 467.22 470.002 471.217 470.842 469.335 466.997 468.082 470.84 473.582 471.242 475.115 474.042 472.25 471.152 473.215 469.417 474.202 470.484 473.309 470.497 472.804 475.092 475.589 474.792 469.927 476.092 472.199 467.587 465.852 469.002 471.557 475.592 474.517 475.949 475.472 474.289 472.739 472.844 476.604 475.497 476.427 476.157 477.464 475.234 472.414 475.674 475.082 473.767 473.699 470.044 467.174 465.502 466.467 475.369 469.972 473.459 474.454 474.899 475.364 475.949 476.244 468.987 469.502 468.474 469.349 469.839 469.279 465.414 468.064 470.027 475.699 475.829 477.004 477.019 477.027 473.547 473.309 469.264 468.944 468.107 475.194 469.769 466.974 475.409 478.207 477.824 476.277 477.057 476.772 474.299 474.242 473.437 474.769 473.699 473.792 474.569 472.914 473.707 469.312 470.572 472.914 463.359 468.397 469.909 467.179 470.114 466.032 464.827 469.434 468.432 467.267 465.684 468.314 465.274 467.444 467.954 468.459 466.834 463.829 464.104 464.812 467.759 465.432 466.912 466.759 465.624 464.772 464.284 467.399 468.337 467.844 465.132 470.132 470.709 468.184 469.649 467.217 464.557 464.572 465.284 466.087 464.937 465.924 469.789 465.062 466.684 469.822 464.749 463.072 468.869 466.999 467.367 467.722 470.362 464.934 470.397 468.407 471.552 471.559 464.192 465.244 471.764 469.917 469.479 470.042 464.814 464.747 464.634 465.637 468.742 472.137 473.997 474.954 468.437 464.352 470.064 470.942 474.864 475.107 476.847 475.927 474.407 472.052 472.137 468.202 468.874 471.909 473.374 469.212 468.537 470.842 467.019 467.134 464.354 464.582 469.502 471.459 472.669 467.022 467.159 464.444 467.149 473.217 472.247 472.189 476.239 471.784 475.517 476.932 473.972 473.574 476.017 475.162 476.247 475.537 476.404 474.596 474.169 475.134 475.324 473.879 475.669 470.589 473.019 475.021 473.941 471.216 474.289 474.804 470.149 468.289 475.664 474.419 474.136 473.632 475.564 472.024 471.401 477.906 473.826 469.349 471.744 477.104 475.086 474.447 472.246 476.139 470.391 473.971 476.011 477.229 475.339 473.986 468.461 469.819 472.249 473.621 470.119 466.609 471.279 467.369 465.066 470.559 472.314 468.264 467.197 470.504 469.651 470.744 472.274 470.711 464.516 457.326 457.746 460.986 465.966 470.056 468.521 471.391 472.014 465.074 462.789 466.591 469.404 470.686 468.436 467.701 469.314 468.396 466.459 470.159 468.849 468.924 469.379 469.784 468.071 466.876 467.474 470.936 471.216 467.026 468.699 469.686 470.194 471.111 467.874 471.121 471.736 467.166 468.144 469.409 467.664 470.784 467.811 468.994 468.144 467.251 464.061 465.026 465.614 466.609 457.944 461.054 465.344 463.329 464.941 465.129 463.351 464.844 464.009 463.636 463.086 464.199 465.859 465.951 461.804 463.986 464.401 465.159 465.819 464.571 465.169 465.866 462.911 458.049 460.646 462.229 464.681 465.151 461.491 457.824 462.724 459.149 461.549 459.751
470.922 466.317 471.995 467.97 467.245 467.785 471.46 470.702 466.952 461.705 471.14 468.892 467.597 466.01 466.13 470.86 472.672 470.59 468.257 468.317 469.567 470.152 472.63 467.762 465.467 470.412 474.057 473.142 475.292 474.805 473.052 473.15 472.035 475.177 475.117 473.314 474.374 475.217 470.289 472.499 473.624 474.012 472.949 467.589 474.122 474.424 472.739 469.657 462.309 469.934 475.387 474.149 476.559 475.017 477.192 472.402 474.147 476.257 474.017 474.622 476.384 477.034 476.972 475.939 475.812 474.829 475.597 473.614 470.832 471.057 473.292 470.277 477.272 470.114 471.659 472.614 472.594 476.649 476.579 472.659 466.047 466.597 467.052 467.722 467.244 466.637 465.699 469.327 469.429 469.737 473.732 476.772 474.964 475.174 470.104 470.877 465.529 467.572 463.582 463.514 470.839 469.619 474.054 477.814 477.274 477.012 476.514 476.869 475.974 473.977 471.822 473.189 471.639 474.279 475.607 473.782 474.722 465.929 465.359 474.229 466.112 467.877 467.164 465.029 470.902 469.547 466.344 466.102 468.989 469.089 467.512 469.634 465.514 467.794 468.819 467.482 471.282 470.482 464.729 463.904 466.189 468.987 468.517 467.027 468.464 465.699 468.327 465.814 465.897 467.657 465.024 469.584 469.879 467.534 467.317 468.687 465.549 468.069 469.534 467.087 469.142 467.997 470.219 466.132 465.642 470.004 463.774 464.229 470.897 471.627 466.482 469.129 470.687 467.599 471.047 464.647 466.259 474.072 468.494 466.194 472.172 474.342 475.554 472.979 468.592 466.974 468.079 466.717 471.782 471.179 469.039 473.007 469.724 470.814 469.782 474.264 477.182 473.057 476.294 475.969 476.227 471.629 470.689 466.794 465.034 469.294 471.007 467.537 467.059 469.724 470.467 469.594 467.507 465.527 465.914 470.939 473.252 472.382 473.389 470.319 467.254 473.132 468.429 469.169 474.737 477.522 477.029 476.877 473.802 474.707 478.244 477.022 477.929 476.539 476.102 475.531 469.059 476.461 475.069 475.686 474.151 467.966 472.024 476.396 471.889 469.929 473.676 471.104 477.406 472.874 473.179 476.046 477.269 469.891 469.316 473.311 470.124 476.091 476.672 476.439 469.034 472.324 476.566 476.706 476.394 475.481 476.284 476.694 475.371 475.349 472.431 474.864 469.881 472.634 470.364 469.371 468.449 471.661 466.389 472.051 463.959 465.491 473.109 473.569 468.339 471.851 466.484 471.516 469.349 468.039 466.641 461.096 457.494 461.681 466.174 469.881 472.304 471.611 470.854 466.896 468.649 464.914 468.664 471.131 470.786 469.019 469.169 469.469 470.726 469.651 471.676 470.849 469.161 470.159 469.851 464.216 464.974 467.521 469.714 471.304 470.301 471.964 470.961 470.911 468.421 470.354 469.211 468.391 466.954 470.106 469.986 467.221 469.389 468.631 464.856 468.046 466.221 462.754 466.806 464.206 457.089 462.061 464.701 457.349 464.561 462.914 466.539 463.974 466.501 465.426 464.119 465.356 465.501 464.739 467.674 463.151 464.499 466.156 463.034 465.354 464.361 464.464 462.664 459.881 462.004 463.286 463.644 461.879 461.599 458.116 455.821 454.141 460.936 463.829
468.787 473.44 472.542 467.662 463.225 467.237 468.762 472.565 472.52 463.69 472.58 473.5 472.507 467.282 466.51 470.777 472.075 471.377 467.692 467.42 466.487 472.675 471.347 465.565 473.127 473.85 474.767 472.607 474.692 475.15 475.042 473.62 474.225 474.79 477.777 476.117 476.339 475.349 471.239 473.742 476.472 477.079 471.292 466.664 473.244 474.902 476.349 472.924 464.724 469.292 474.834 475.119 475.064 475.294 476.442 474.902 473.689 474.959 476.962 475.067 471.244 477.799 474.909 477.599 476.672 472.657 474.434 474.609 470.162 472.924 469.859 466.662 475.019 470.519 467.172 470.109 472.364 469.737 474.292 472.657 468.332 466.169 466.094 465.599 465.379 465.782 466.757 468.764 468.599 470.357 476.127 476.877 474.487 477.737 468.254 463.442 464.552 463.664 463.719 464.492 466.024 469.489 470.072 476.404 475.472 475.852 475.689 476.249 470.794 474.157 474.917 470.799 471.499 472.774 474.639 470.219 473.019 464.532 466.132 472.279 465.832 469.829 469.604 464.789 472.689 471.302 466.724 464.642 468.204 468.582 469.589 469.464 468.989 467.464 466.972 467.169 471.649 466.667 466.889 464.889 464.264 464.164 466.252 466.449 465.307 467.754 470.444 469.874 464.677 471.617 466.499 469.607 469.314 469.434 466.239 466.232 467.527 468.962 465.512 467.709 469.339 469.702 470.832 466.084 464.817 467.039 469.557 465.932 470.327 471.932 466.322 469.254 468.169 469.329 469.972 464.657 467.017 473.792 475.074 474.279 475.944 474.557 475.259 474.999 475.214 475.762 475.612 471.697 473.822 476.789 470.072 472.052 475.317 470.897 473.184 473.457 476.772 477.097 479.284 475.809 474.584 472.177 470.654 471.834 466.222 465.852 470.677 473.449 471.047 472.469 471.759 474.177 473.287 469.987 472.459 471.629 476.129 474.597 474.147 476.797 471.707 474.214 467.752 466.769 472.247 475.247 476.289 479.277 477.402 474.667 476.124 476.057 472.854 475.712 475.872 477.926 475.096 470.921 475.071 473.094 474.564 468.456 468.619 475.701 476.314 472.324 472.461 469.911 473.779 476.329 476.089 474.391 476.569 475.761 475.154 473.786 472.589 470.599 476.301 475.254 475.416 473.616 477.231 472.764 474.602 469.789 473.134 476.664 475.369 472.949 475.739 474.556 471.736 473.386 473.199 473.496 472.661 471.326 473.336 473.486 471.259 470.516 471.214 472.039 471.704 466.829 469.159 466.919 472.051 469.331 469.981 464.106 458.746 461.004 470.649 471.764 472.329 470.969 471.579 470.109 471.131 471.234 470.264 471.759 469.399 469.101 470.219 469.019 469.309 471.706 470.576 469.964 471.711 472.254 471.561 470.461 463.459 468.506 470.789 470.571 467.964 469.469 468.754 469.636 469.526 467.509 471.026 470.734 468.579 470.549 469.269 468.724 468.706 464.309 460.876 467.194 465.724 466.456 468.091 466.374 460.249 463.506 464.519 454.199 462.516 463.279 464.399 463.239 466.506 465.186 466.391 464.274 468.026 466.066 467.496 465.684 462.941 463.339 467.221 468.119 466.019 462.879 466.384 463.004 467.451 457.931 462.841 460.049 458.894 454.059 458.301 459.044 457.329 461.801
471.847 474.385 473.452 466.76 468.005 461.087 466.932 473.875 471.827 465.792 470.112 471.187 473.95 474.237 464.595 472.63 470.872 475.37 470.99 472.485 464.452 468.297 466.88 465.492 469.662 472.477 474.72 475.222 474.102 475.457 475.215 475.362 470.935 472.432 476.455 475.527 475.572 474.882 476.004 474.169 473.982 474.014 468.284 473.594 475.049 472.979 473.802 475.752 470.487 470.962 472.427 474.022 476.184 475.892 474.462 471.239 479.164 477.297 476.329 472.699 476.294 473.479 474.489 475.977 475.019 477.642 476.534 477.949 468.797 469.649 474.102 469.187 465.534 464.412 464.562 466.734 470.239 469.752 466.274 467.609 467.537 465.369 465.324 465.479 466.047 466.929 467.974 468.979 470.272 471.052 472.009 477.322 471.934 474.032 472.969 465.627 464.304 464.719 465.127 464.799 464.309 468.119 471.419 472.914 478.642 480.304 478.034 476.019 472.734 473.199 472.372 474.527 471.844 467.534 471.594 467.234 470.142 465.312 464.922 468.182 470.399 469.912 471.627 465.049 472.867 470.639 466.317 468.269 468.619 470.669 467.587 470.277 470.257 468.952 468.622 467.127 471.227 468.224 467.747 467.334 466.979 466.922 464.474 464.484 464.822 466.364 468.332 470.309 467.434 470.559 467.292 466.462 469.982 468.414 467.432 464.457 467.732 466.769 466.409 468.484 470.419 471.819 469.954 466.974 465.197 467.107 469.822 469.389 468.462 471.832 469.189 468.004 464.339 470.054 470.204 464.824 467.539 469.322 472.687 473.769 474.414 471.914 471.852 471.312 473.862 474.784 478.609 475.984 472.364 471.129 470.414 474.229 473.772 474.289 474.637 471.652 474.217 479.177 479.479 477.602 473.667 470.947 470.447 472.027 471.564 471.587 470.994 471.587 474.364 470.712 472.044 475.839 471.252 472.404 472.247 476.182 478.177 474.504 474.379 476.402 476.667 469.867 472.072 467.714 470.724 474.472 475.117 477.949 477.057 477.199 477.604 471.372 475.169 476.582 475.692 476.564 478.016 474.324 475.889 474.784 477.334 467.629 473.819 473.352 475.547 472.964 474.237 474.009 470.196 477.357 478.741 470.482 477.634 476.644 473.264 472.664 477.656 478.794 478.109 476.626 475.516 476.434 470.879 478.516 475.096 473.346 471.667 473.846 473.656 474.116 472.227 474.316 476.102 475.556 473.054 472.334 471.121 470.119 464.776 470.491 473.059 473.406 475.359 473.624 472.456 469.599 472.626 472.386 467.996 470.576 468.756 464.616 459.314 464.669 469.221 470.399 473.519 470.464 472.509 470.144 469.716 468.916 469.849 471.749 468.596 465.049 469.706 468.649 472.136 470.406 471.249 473.201 473.469 472.859 472.591 470.366 468.561 470.226 469.096 472.656 471.776 469.494 470.654 470.759 470.124 469.109 469.549 468.131 466.521 468.246 469.086 471.851 470.086 467.359 462.479 462.329 465.446 465.384 469.794 466.326 457.856 465.696 465.419 455.674 460.086 460.669 465.569 467.001 461.211 463.844 466.151 466.824 466.176 467.906 464.899 466.471 464.556 461.649 467.404 466.491 466.729 468.094 466.884 466.684 466.811 459.351 457.646 454.574 458.509 458.769 460.084 461.001 463.329 462.299
476.085 471.1 473.905 471.675 466.887 462.857 468.347 474.02 473.295 471.457 474.77 474.102 475.842 470.322 469.105 470.11 465.137 470.845 469.147 472.775 467.05 465.292 462.6 462.785 469.84 471.945 475.367 475.495 474.995 475.172 476.835 475.075 472.64 476.36 479.212 474.822 477.879 473.247 473.662 472.124 476.357 472.054 470.309 465.172 474.829 473.337 470.757 472.224 474.814 474.572 469.247 470.799 472.664 470.894 472.094 472.324 470.494 477.714 477.377 471.569 476.512 475.989 471.792 478.507 477.042 478.074 476.424 472.507 465.979 465.919 470.219 465.789 465.672 464.894 463.884 464.164 464.837 464.694 465.997 469.374 466.874 465.142 465.812 466.212 466.692 468.414 469.147 470.022 475.734 475.304 472.204 476.842 474.054 470.732 467.074 467.439 466.144 466.832 467.077 465.697 469.642 472.312 470.337 468.179 473.274 478.997 480.072 470.224 476.659 474.649 471.477 472.622 470.672 466.487 467.882 470.147 469.287 466.862 464.859 469.384 469.502 466.979 469.459 466.072 466.342 471.322 467.332 472.659 466.702 467.219 467.934 467.284 472.892 471.382 470.669 469.352 467.292 469.557 471.692 471.989 465.779 467.974 468.694 465.089 464.639 465.437 468.527 468.644 467.237 470.714 467.482 465.427 471.349 469.012 468.362 467.047 468.464 465.204 466.492 465.967 472.364 470.944 472.197 470.119 468.269 465.574 470.054 471.424 467.387 470.142 474.359 469.957 469.442 472.227 470.807 465.024 468.617 467.307 467.559 470.659 469.324 471.487 472.674 471.547 470.107 472.369 474.697 473.292 473.344 472.232 473.652 477.652 476.707 471.349 474.377 473.489 476.744 476.424 477.424 478.879 478.904 476.892 468.377 469.247 466.442 469.779 473.037 472.809 474.794 469.294 472.019 476.592 474.274 474.872 476.684 472.114 474.757 475.494 474.722 475.307 477.114 472.119 476.582 476.289 477.242 472.719 473.434 474.994 476.054 473.079 478.544 475.297 475.984 476.032 475.999 475.319 475.721 468.534 475.982 473.256 476.129 473.209 475.667 474.736 476.636 473.831 473.672 468.149 473.011 477.776 477.519 477.239 478.319 480.309 474.911 478.011 475.999 478.124 476.174 477.404 476.706 478.227 476.166 476.066 474.509 472.229 476.396 476.524 476.121 468.486 471.964 476.386 470.982 473.634 474.726 473.757 473.826 469.939 469.586 474.779 474.786 471.172 471.914 472.781 471.349 469.919 470.344 473.736 468.954 472.571 474.704 465.196 469.461 467.101 470.891 471.584 472.344 469.646 471.899 470.189 471.674 468.591 467.476 471.614 472.754 467.161 471.846 470.336 471.141 472.094 467.794 472.316 472.189 471.891 471.191 471.891 469.881 468.691 473.379 472.134 470.166 470.804 469.419 470.396 471.401 466.649 467.799 469.821 470.901 471.539 471.726 469.046 469.801 465.441 462.674 462.799 466.659 463.404 470.149 465.974 459.159 460.246 459.339 454.431 453.806 459.111 465.254 463.761 466.859 466.631 466.789 468.011 466.661 468.346 467.374 467.299 461.374 466.599 467.541 468.319 468.636 467.114 468.826 466.879 465.594 457.484 455.996 454.664 455.581 460.344 459.594 461.989 463.104 460.459
475.437 468.197 472.017 472.382 471.155 466.067 466.807 470.575 475.782 473.727 475.46 470.44 466.815 468.322 469.195 469.897 469.845 465.185 473.69 474.882 472.357 466.025 463.375 466.455 469.2 475.07 476.17 475.932 476.097 476.905 477.947 474.667 477.095 478.327 478.315 472.582 472.212 470.999 476.189 475.879 473.332 470.784 468.507 464.567 472.227 470.842 469.129 475.377 471.949 473.859 469.259 467.554 473.377 473.689 470.454 469.597 475.687 475.107 476.867 477.972 474.299 475.227 475.904 478.417 474.349 476.614 477.317 472.484 465.979 466.102 466.474 466.332 465.204 465.019 464.392 464.672 465.172 465.292 467.247 468.022 465.882 466.322 467.104 466.572 467.944 472.242 471.967 473.692 476.454 477.357 474.139 470.317 472.579 467.347 469.497 471.592 469.394 472.829 477.499 474.617 475.374 468.267 475.469 468.537 475.187 480.002 479.437 476.569 475.932 474.557 469.874 470.439 467.114 466.962 467.619 472.772 470.234 469.739 466.314 466.227 468.294 473.442 468.304 465.947 466.689 472.289 469.089 471.984 471.377 467.682 469.689 467.427 473.362 469.279 471.357 469.472 466.422 469.974 469.117 469.119 468.059 468.547 467.997 468.214 468.307 466.417 466.617 466.027 470.149 472.524 470.897 465.987 468.422 467.687 465.374 466.754 470.752 468.417 468.604 469.647 469.332 471.582 469.334 467.954 467.942 467.937 468.987 469.214 471.419 470.212 472.057 471.499 471.984 473.289 471.524 466.949 465.872 465.947 466.727 467.599 468.294 468.317 468.282 469.909 470.434 471.022 473.839 469.804 473.992 475.719 472.947 474.202 475.359 477.107 478.234 476.149 476.837 477.859 478.387 470.694 473.617 473.384 471.374 471.542 473.614 472.759 475.054 473.929 474.402 470.362 473.844 476.704 470.804 468.804 474.799 476.367 473.147 474.177 477.957 476.449 476.619 475.122 475.122 475.399 477.649 479.349 479.482 475.299 480.822 474.329 474.987 475.252 475.859 470.972 473.147 476.922 473.196 471.984 474.711 476.426 477.487 474.584 476.839 476.666 473.556 477.172 471.301 470.174 471.204 478.004 478.189 474.446 478.754 478.971 478.429 475.551 477.909 478.919 476.489 477.511 479.072 478.776 480.789 471.624 468.929 471.431 475.806 476.016 471.124 475.724 475.051 476.219 474.186 478.534 474.779 469.974 471.251 462.926 465.417 473.632 475.789 475.136 471.214 472.016 469.796 473.711 466.546 472.679 474.521 470.729 468.264 470.139 473.099 469.071 473.574 471.339 470.989 473.459 465.499 470.864 470.406 469.681 472.439 466.916 468.391 470.879 471.674 471.539 470.136 471.101 470.679 471.484 473.006 472.254 473.386 471.486 470.404 473.569 470.334 470.314 470.661 470.706 468.466 471.689 468.411 472.156 469.514 472.394 467.456 472.959 468.664 469.134 468.864 469.364 462.169 466.451 466.489 470.049 469.559 466.414 460.201 453.821 452.024 452.649 453.426 458.491 468.066 466.484 463.984 468.164 466.084 469.814 469.766 467.919 466.256 467.859 467.589 466.904 467.541 467.291 468.076 467.586 466.584 466.426 463.589 459.251 457.866 460.364 461.739 460.364 462.216 464.011 463.146 460.881
471.615 465.045 471.51 474.927 471.135 468.117 467.615 469.325 475.375 477.242 473.425 468.947 462.22 461.097 473.002 477.322 473.287 460.872 467.197 473.715 475.207 469.782 467.315 469.977 476.505 475.36 475.992 474.78 477.152 474.802 480.055 477.625 476.417 476.59 476.827 471.047 477.277 479.252 478.337 478.069 474.069 474.059 467.622 463.809 466.082 469.859 466.004 471.632 471.144 467.377 466.622 465.329 474.669 473.872 467.047 468.802 471.832 472.247 474.167 478.392 472.794 470.062 476.497 476.914 475.492 473.632 475.349 470.077 466.497 466.454 466.559 466.027 465.702 466.112 466.649 466.844 467.504 467.192 466.302 465.762 467.264 467.842 470.909 468.327 470.077 473.977 477.834 473.664 471.327 471.869 470.139 468.974 472.242 468.729 472.697 474.757 476.202 472.752 480.117 475.747 477.937 468.394 469.652 467.707 476.439 479.612 477.237 477.757 473.709 472.194 468.084 468.799 469.067 469.264 468.722 471.579 471.627 473.127 471.027 468.564 467.722 467.324 471.499 470.719 467.502 470.597 468.052 473.384 473.572 469.732 472.452 469.814 474.014 474.417 470.677 471.152 467.414 470.567 468.324 469.702 467.009 470.227 468.992 466.224 466.764 469.787 469.572 465.799 466.507 467.389 468.552 469.074 469.234 465.852 470.424 466.104 471.007 469.059 467.597 469.262 468.499 469.802 467.362 469.722 469.122 466.159 469.782 466.834 471.702 471.257 472.627 472.559 470.132 473.317 472.847 468.614 467.994 466.972 467.544 468.614 471.477 468.632 472.169 471.754 472.299 471.712 472.124 468.152 471.019 472.392 472.612 472.907 478.432 476.479 478.224 477.777 478.354 478.692 474.854 476.072 470.669 473.874 474.654 470.167 474.659 476.542 475.952 475.747 474.022 470.289 476.942 478.637 475.444 468.029 476.079 473.509 476.619 475.064 476.327 478.319 475.292 476.994 473.282 473.599 478.982 476.659 478.094 478.279 475.702 476.902 477.267 473.632 472.662 473.397 468.999 475.264 477.401 474.039 473.486 478.174 478.574 474.839 472.319 471.956 476.494 477.986 477.204 479.667 473.179 474.876 477.036 479.824 480.419 478.629 477.667 476.444 479.151 478.319 477.039 476.741 478.674 473.646 478.769 477.144 469.201 464.099 475.669 477.501 472.099 478.107 478.126 476.991 471.556 475.619 470.172 468.556 471.909 467.904 465.984 472.674 470.811 475.466 473.254 468.419 472.882 473.934 466.449 472.869 473.421 473.306 473.214 472.396 469.881 470.321 470.631 473.724 469.104 467.549 470.599 465.569 471.581 470.779 473.751 470.754 462.784 468.204 471.034 473.066 471.664 472.476 472.259 472.864 471.631 472.296 471.829 473.469 473.244 469.151 473.334 471.934 472.474 467.926 472.351 470.244 470.361 472.971 471.914 468.449 470.934 468.394 467.054 467.491 470.411 470.076 463.881 464.021 466.766 469.026 470.466 467.149 461.054 453.566 452.914 452.729 453.001 454.396 463.631 469.626 468.386 469.971 468.104 466.574 466.634 468.584 466.579 466.886 467.789 465.869 468.546 467.949 467.964 465.006 466.511 467.509 462.046 461.804 460.911 459.679 459.074 460.394 463.359 463.986 460.979 460.566
471.73 463.192 463.885 468.497 473.047 474.075 476.012 473.91 474.607 477.417 475.317 470.005 466.747 462.027 468.317 473.025 470.565 462.775 465.785 472.435 475.425 471.5 470.927 474.55 476.42 474.007 476.49 476.817 475.705 475.057 476.72 476.847 476.74 471.015 476.777 474.447 476.899 475.182 474.029 469.619 467.772 469.707 464.402 464.247 464.799 464.747 464.822 467.524 467.289 465.757 465.749 465.999 466.672 469.109 467.324 467.697 469.747 475.094 476.297 475.032 474.187 474.132 466.544 475.654 475.319 472.569 471.032 469.412 467.667 467.534 466.179 466.332 466.959 467.309 467.569 467.162 466.262 465.974 466.109 467.382 468.207 468.927 469.064 469.892 471.594 473.872 475.077 473.037 468.637 470.534 468.682 467.364 476.069 471.884 478.897 480.534 480.832 474.279 476.572 480.287 481.307 472.252 471.067 474.257 476.527 479.357 479.899 477.059 472.529 470.087 468.979 467.827 469.084 472.084 470.704 474.259 469.169 471.617 469.294 475.277 471.512 467.549 471.172 471.047 468.069 469.724 468.937 469.582 470.347 473.287 472.232 473.859 472.547 471.717 470.119 469.379 469.707 473.507 470.544 468.452 468.882 469.252 468.767 470.524 468.282 468.282 471.324 466.647 466.707 465.919 466.514 469.002 470.504 469.449 472.142 469.199 470.709 471.677 471.279 473.279 473.209 468.527 472.292 470.552 471.842 470.659 467.127 469.327 469.672 467.207 472.269 471.727 470.619 471.372 472.362 470.687 469.192 471.064 469.662 474.859 473.594 475.169 475.539 472.804 474.594 475.257 471.999 468.827 470.669 475.007 472.857 476.549 477.999 477.582 475.734 479.919 478.312 479.047 478.847 476.064 470.422 472.624 477.512 473.189 475.464 476.437 472.437 477.339 477.829 471.297 476.047 476.559 477.114 469.344 473.289 475.054 469.054 473.882 474.617 473.717 477.989 475.454 477.587 479.627 476.194 476.484 479.667 479.832 477.974 479.339 478.277 475.194 472.684 473.462 469.072 474.744 474.081 466.987 472.786 479.151 476.429 476.612 476.974 477.229 474.209 477.771 478.699 477.919 475.866 477.551 479.706 477.134 479.051 478.621 478.814 477.614 479.661 479.987 475.099 479.629 478.994 477.384 478.439 478.814 476.256 467.784 475.571 477.466 474.369 476.306 477.424 476.316 472.794 471.989 476.359 473.989 476.186 465.889 470.251 470.239 467.241 475.556 474.904 473.004 470.879 473.726 463.971 470.431 475.286 469.401 472.416 472.006 469.274 471.626 471.636 475.716 469.704 466.984 473.744 465.646 467.364 473.494 472.004 470.179 467.481 465.494 469.426 473.019 472.396 474.241 470.039 474.221 473.416 471.434 472.251 471.554 472.629 471.799 472.739 469.829 471.784 473.144 468.114 472.519 470.239 471.671 471.679 471.936 468.679 468.996 469.056 464.774 468.774 469.086 467.706 466.361 468.331 470.106 470.306 467.104 461.109 454.904 454.721 452.841 452.861 456.489 465.474 469.786 466.186 467.124 468.261 466.709 467.359 468.621 466.911 468.769 464.779 468.806 468.871 469.649 466.811 465.019 465.831 467.619 464.126 460.516 461.109 459.656 462.776 460.179 460.961 460.251 457.269 458.696
474.385 466.42 461.61 466.42 472.712 474.82 476.552 472.487 473.502 475.135 475.282 473.12 471.592 466.13 471.16 471.642 467.212 461.437 465.345 472.692 475.017 475.625 478.625 477.547 475.252 472.03 474.61 477.665 475.122 479.145 479.257 474.055 477.205 476.69 474.577 476.104 474.107 472.439 471.744 472.122 471.437 465.907 464.909 464.949 465.307 465.379 465.204 465.602 465.564 465.217 466.324 467.119 467.877 467.154 466.877 467.697 471.097 475.822 475.234 471.864 472.034 468.577 466.847 467.537 471.454 469.399 469.047 469.639 469.387 468.289 467.949 468.222 468.229 468.209 468.144 467.097 467.102 467.814 467.989 468.997 469.344 469.664 469.789 469.847 469.659 469.624 469.649 468.662 468.747 468.697 468.739 472.959 477.582 475.284 478.314 475.274 477.917 472.347 474.704 474.849 475.617 471.687 470.837 474.827 478.107 478.099 475.744 475.894 470.297 468.617 468.407 469.269 469.349 467.969 469.229 470.524 469.707 470.764 471.204 474.704 473.289 471.409 468.094 472.289 467.647 469.884 471.039 470.134 471.084 469.897 469.139 472.019 469.724 469.422 468.997 468.557 469.457 471.409 474.552 472.154 467.769 468.744 469.792 471.857 471.919 468.539 468.732 468.449 468.519 467.122 466.957 468.969 469.304 470.029 473.744 468.814 472.007 472.457 470.224 470.974 469.887 470.417 468.432 473.052 470.662 472.459 467.264 469.309 467.532 467.579 471.024 469.027 468.284 467.154 471.972 470.104 468.459 472.279 474.022 476.387 476.559 473.177 473.037 476.207 472.794 472.182 474.759 470.192 474.274 479.362 477.767 478.982 478.012 479.274 473.527 478.382 477.312 477.844 478.222 477.177 476.479 473.499 476.159 477.777 474.254 476.974 474.987 475.997 476.294 473.732 477.422 471.289 476.229 474.892 471.737 474.482 477.969 474.192 475.532 475.582 472.692 475.669 475.907 476.419 474.704 478.567 477.189 478.557 478.099 477.797 480.302 478.629 476.312 477.179 474.582 468.604 472.069 466.451 468.466 476.861 479.596 477.496 478.604 476.211 474.621 476.054 478.304 478.746 478.299 479.276 479.281 477.764 476.764 479.274 480.159 476.849 475.649 480.094 476.589 480.984 479.081 477.879 475.971 478.076 476.191 475.139 466.584 475.034 475.689 477.766 473.749 478.211 475.499 474.599 476.417 475.149 468.586 465.434 470.246 475.889 471.846 474.056 473.914 473.314 473.704 474.566 474.154 470.824 471.639 473.001 472.131 473.151 464.054 467.059 474.429 473.986 470.674 465.259 473.201 469.361 468.759 474.356 474.546 475.264 469.161 472.446 473.421 472.109 471.854 471.226 473.909 470.931 474.694 470.901 474.299 469.771 471.554 471.326 472.601 470.226 468.854 473.361 470.814 471.629 467.561 473.686 471.151 471.674 470.644 469.149 466.611 469.939 470.984 469.536 469.556 465.041 463.699 470.949 472.561 467.284 459.941 455.529 458.971 454.854 453.331 455.404 465.251 468.571 467.756 468.751 469.564 468.326 468.599 465.996 465.501 467.266 468.341 468.314 468.684 470.524 470.186 467.861 467.476 466.929 458.801 461.784 461.334 458.526 462.894 456.941 461.119 460.229 464.446 459.521
476.185 467.462 461.527 462.747 472.782 474.82 470.082 474.76 474 476.852 473.517 474.715 475.692 469.037 473.145 471.915 466.672 463.142 470.667 474.35 475.012 475.245 476.36 479.927 477.635 477.952 476.48 478.307 480.255 476.34 471.78 472.592 472.54 473.32 465.317 470.217 468.824 468.177 467.634 466.714 465.612 466.444 465.179 465.347 466.514 465.977 465.682 465.974 465.969 466.697 467.427 467.369 467.322 466.449 468.864 473.082 472.724 475.242 475.309 469.847 470.087 466.674 467.362 467.217 468.719 469.077 468.024 469.879 469.539 468.914 468.949 469.244 469.547 468.367 467.784 467.809 468.049 467.804 468.587 469.044 469.212 468.889 468.912 468.919 468.757 468.164 469.037 469.274 468.217 467.532 468.427 475.227 477.644 480.729 480.272 480.422 481.499 475.972 471.747 468.317 471.834 470.977 468.664 473.907 477.734 478.037 473.737 475.642 473.737 474.114 469.972 472.072 472.822 470.507 468.954 468.222 472.824 475.142 470.227 470.887 471.684 472.492 468.714 471.874 476.997 471.797 471.547 469.697 471.599 471.142 470.837 473.704 473.974 472.099 473.247 471.524 471.339 469.509 471.197 473.952 468.847 469.114 470.784 469.632 472.972 468.587 470.917 467.349 470.702 471.174 465.887 466.802 467.532 468.964 471.637 467.817 470.107 474.614 471.107 472.109 472.752 470.572 468.379 472.072 469.567 470.877 470.174 467.642 467.789 469.157 467.772 467.574 467.334 467.537 469.154 473.502 470.327 475.189 476.304 472.869 472.262 470.969 474.742 474.582 474.117 473.052 476.427 473.962 472.062 476.477 478.734 479.807 478.414 477.759 471.444 478.182 474.934 478.544 478.677 479.539 479.544 474.952 477.087 476.842 472.879 477.564 474.612 477.087 478.019 477.942 479.397 470.969 473.459 477.992 476.232 473.659 473.619 475.937 478.597 479.017 473.819 475.087 476.487 476.837 475.994 477.957 479.102 481.127 479.984 480.007 481.699 478.309 479.809 481.522 479.999 476.751 469.184 469.604 470.694 476.091 475.922 476.739 478.284 475.836 476.357 477.599 477.574 478.882 479.664 475.797 479.131 478.436 479.334 479.639 480.629 480.536 477.164 478.414 479.899 476.849 479.604 479.379 479.196 478.249 477.221 479.446 473.422 473.184 472.656 477.384 477.836 473.161 475.011 474.566 476.411 475.364 473.241 470.774 469.294 474.719 474.944 472.659 476.922 469.506 473.094 476.361 471.741 472.369 469.016 472.869 474.941 473.651 469.129 470.636 474.749 473.496 470.749 466.266 473.031 472.234 471.271 474.219 473.621 468.439 474.259 473.264 472.631 473.399 470.466 474.121 472.749 473.274 472.441 472.419 474.674 472.729 469.286 472.571 469.899 472.234 466.351 469.031 467.269 470.671 472.841 468.959 470.886 470.451 472.009 473.054 468.714 468.089 470.544 470.486 468.866 464.591 470.631 471.346 470.801 465.656 455.974 453.851 453.799 458.714 456.569 456.771 462.251 464.276 465.721 467.509 469.676 460.906 469.419 470.136 468.846 466.999 466.044 468.869 470.056 468.616 468.736 465.189 463.539 466.874 457.514 461.269 462.054 459.801 461.016 459.376 463.706 464.531 459.476 462.941
476.552 474.432 466.717 462.437 471.39 472.94 467.16 472.772 475.882 474.125 473.402 476.152 477.945 470.637 478.385 478.015 468.802 464.83 474.745 477.71 477.165 479.972 477.377 477.687 476.842 475.277 477.232 479.872 478.687 474.957 476.59 468.372 471.72 471.042 466.712 467.052 466.064 466.112 465.804 467.597 467.639 465.967 466.347 466.452 466.024 466.342 467.509 467.224 467.204 467.807 467.757 467.167 466.847 467.662 473.672 478.789 471.767 474.552 472.489 468.069 467.359 467.149 467.424 467.239 469.452 468.532 469.694 469.602 468.862 468.899 469.027 468.724 467.639 468.009 468.599 468.112 467.897 468.604 469.334 468.597 468.772 468.312 468.289 468.177 468.209 468.522 468.774 468.669 468.282 468.144 468.284 475.159 483.887 480.682 476.677 478.117 477.374 475.969 470.404 473.659 469.889 469.872 469.399 473.042 474.784 474.527 474.642 472.129 470.659 470.389 472.314 476.399 471.529 472.389 470.962 470.552 470.169 474.267 470.832 472.552 472.432 472.092 471.769 470.147 473.079 470.629 472.649 469.999 471.699 470.902 471.932 474.722 472.097 471.422 472.614 472.247 472.764 470.094 471.314 471.369 470.769 471.534 469.772 470.399 469.004 470.997 471.467 467.392 470.119 473.407 466.697 467.942 467.307 467.137 468.532 469.792 467.547 472.132 472.434 473.112 473.284 467.979 468.194 469.269 470.754 474.914 471.409 468.997 469.282 473.412 472.497 469.794 472.677 468.492 471.414 469.617 468.984 474.464 476.047 474.172 470.374 473.732 473.772 474.454 472.729 472.032 475.164 473.592 470.354 475.104 479.084 476.707 477.722 478.142 474.517 475.824 475.704 478.094 478.702 479.274 479.884 478.744 474.537 474.932 473.207 477.797 476.527 474.002 475.039 477.929 479.639 474.492 477.204 478.624 479.292 479.577 476.269 476.564 474.819 479.164 478.222 471.672 478.722 480.929 473.584 477.584 479.342 478.652 479.692 481.147 482.332 482.244 480.864 480.134 481.027 481.121 474.814 477.121 481.116 480.204 476.771 473.119 474.754 473.741 474.769 479.489 479.181 479.716 477.261 478.346 480.034 477.899 478.826 481.706 482.292 481.366 480.681 479.319 479.219 475.966 477.686 475.859 478.221 480.024 475.539 474.094 478.161 473.191 469.276 478.554 477.496 477.999 470.411 476.762 477.019 476.649 476.619 471.029 471.179 477.729 474.754 472.204 474.436 467.776 475.559 475.976 474.019 474.726 477.864 472.674 473.534 469.866 473.986 470.979 472.774 474.449 476.581 471.854 475.556 474.356 473.169 473.824 476.641 473.531 474.481 474.224 470.699 474.044 476.039 474.446 473.586 472.921 469.034 473.204 475.654 472.466 470.101 470.746 470.966 466.891 469.404 465.249 468.409 471.269 469.866 471.641 472.139 472.399 470.404 470.374 468.381 469.939 468.159 470.911 465.511 471.901 470.014 471.574 469.111 463.294 454.504 454.436 457.339 461.211 458.061 458.911 462.194 456.866 461.201 462.679 467.039 468.594 466.949 469.316 466.549 463.284 461.896 468.571 469.509 468.654 469.941 465.401 461.626 463.401 462.986 462.456 460.809 463.236 461.901 461.581 467.274 463.999 461.666 463.276
475.49 469.695 467.302 464.637 471.725 472.512 468.487 470.597 474.437 476.27 472.625 475.732 477.06 471.94 473.82 476.597 471.075 468.382 474.74 476.48 476.367 473.555 479.137 475.727 476.325 477.4 474.355 478.177 471.517 476.037 471.03 467.235 466.675 467.502 467.375 466.499 467.519 467.567 468.089 468.079 466.992 466.157 466.189 466.047 466.649 468.324 468.532 469.267 470.007 469.747 468.339 467.414 468.267 470.579 478.919 474.679 476.222 470.092 468.107 467.889 467.729 468.514 468.497 468.627 468.389 468.957 469.679 468.319 468.579 468.342 468.849 468.939 468.507 469.419 468.737 468.507 470.234 469.939 469.947 468.907 468.754 467.382 467.414 467.589 467.939 468.284 468.619 468.572 468.487 469.102 469.554 470.854 481.907 481.459 473.764 475.649 474.112 474.347 469.204 469.534 469.999 469.669 469.977 473.999 473.597 473.267 475.297 471.384 473.107 473.097 474.522 473.617 472.367 471.482 471.697 470.792 470.052 472.319 472.159 471.607 472.084 472.787 473.317 471.197 469.509 473.259 473.129 475.779 472.039 473.787 469.634 474.349 471.319 472.104 474.104 471.794 472.444 470.634 470.092 472.172 469.334 470.662 471.207 472.034 470.827 469.622 470.897 470.582 467.437 470.509 468.592 469.249 468.367 468.304 468.497 469.092 470.587 470.939 473.979 471.097 470.872 470.342 468.987 471.254 472.652 473.332 472.537 470.492 470.444 474.262 472.142 470.944 472.004 470.622 471.209 473.772 472.494 476.512 477.127 473.834 472.877 475.229 475.157 475.889 474.279 474.839 475.314 470.552 470.029 472.914 477.317 477.787 477.637 481.567 478.897 475.627 479.314 476.259 478.412 480.877 481.624 479.597 474.412 475.589 475.854 477.369 478.809 478.004 476.999 480.357 477.632 478.169 473.804 477.182 479.007 478.489 476.782 476.289 479.502 478.884 479.624 474.882 480.539 479.794 480.127 477.987 480.184 479.749 479.757 480.669 478.927 481.504 479.514 478.992 479.972 481.977 477.819 480.931 477.539 480.311 479.739 479.599 479.414 471.911 476.444 478.454 481.624 480.359 478.482 481.982 478.786 478.909 480.701 480.306 480.227 480.346 480.417 480.744 479.554 479.816 479.861 481.542 481.066 481.496 479.956 476.876 477.579 477.076 472.616 478.371 480.681 479.607 477.111 474.042 476.256 476.336 474.931 477.294 477.354 473.924 473.859 472.399 475.461 468.071 469.449 474.051 475.836 470.921 473.904 475.754 469.644 467.961 473.711 470.031 476.601 470.831 475.929 470.236 474.044 476.174 468.441 473.086 474.466 472.581 475.406 472.089 474.369 472.134 474.916 474.846 474.826 472.616 475.886 469.546 473.976 473.634 476.116 467.449 473.721 467.836 465.616 472.281 470.831 471.314 469.681 474.166 469.304 466.224 472.726 469.669 467.804 468.794 468.924 469.616 470.174 471.481 469.389 472.289 469.991 462.836 455.421 455.594 459.126 455.034 461.614 461.711 461.021 455.251 460.351 461.694 464.259 464.016 463.976 466.061 461.311 463.039 462.496 467.106 468.219 463.374 460.854 466.579 458.411 461.021 460.286 464.776 458.351 461.329 460.344 465.436 465.924 465.579 465.184 464.724
476.755 475.172 469.725 467.51 475.85 476.035 469.525 470.047 472.87 474.192 473.415 474.85 477.607 475.252 476.255 479.47 473.902 470.29 476.382 477.857 478.61 476.032 478.507 477.405 474.392 472.37 473.062 479.085 470.397 469.975 467.3 466.817 467.145 467.89 467.207 468.217 468.982 470.497 468.007 467.139 466.742 466.402 466.842 467.539 468.974 469.117 469.147 469.639 468.712 468.067 468.992 470.179 470.427 472.024 476.149 477.527 470.142 469.157 467.767 467.812 468.657 469.352 469.077 468.224 468.304 469.457 468.367 467.994 468.194 469.087 470.087 469.147 468.844 468.194 468.742 469.759 470.789 472.039 469.914 469.839 468.719 468.217 468.532 467.689 468.042 467.989 468.119 468.052 469.097 470.347 470.087 469.932 474.237 478.159 477.922 475.922 471.904 471.899 471.497 471.544 471.849 471.784 471.667 475.824 477.097 475.922 475.799 471.077 470.409 474.352 471.944 473.904 471.554 470.549 472.397 472.654 472.654 471.727 472.202 472.157 472.482 473.282 470.557 475.682 472.979 470.782 470.932 474.124 475.464 476.512 470.127 472.242 471.287 470.767 473.119 471.829 475.317 470.012 470.989 473.637 471.847 473.217 470.322 469.917 469.757 468.964 469.517 470.047 467.877 470.907 471.817 470.334 467.357 468.617 469.092 467.767 468.449 469.762 474.142 471.052 474.297 473.014 471.377 473.472 474.442 473.774 472.967 473.127 470.729 474.227 473.599 470.589 470.204 468.937 470.569 473.277 476.169 475.504 478.929 478.129 475.227 474.984 476.744 479.044 477.409 476.907 472.812 470.572 470.789 472.757 477.064 479.674 478.804 480.612 477.659 480.734 479.644 479.737 481.924 479.844 481.037 480.982 478.877 477.387 479.937 478.459 479.889 481.002 478.399 480.172 477.852 478.337 476.539 478.814 480.024 476.162 475.537 480.864 480.967 481.787 483.049 480.859 478.774 480.862 482.569 482.574 481.947 480.909 480.254 484.014 483.694 482.352 481.654 481.552 480.409 479.569 478.864 480.386 481.634 479.179 479.831 478.879 480.329 473.951 472.504 477.329 479.446 479.239 478.869 478.969 483.169 483.201 477.761 481.681 481.439 481.994 481.734 478.201 481.602 481.376 477.869 481.926 479.487 479.891 478.331 476.686 476.969 474.264 476.699 474.922 479.191 479.401 479.439 474.251 478.954 476.479 477.679 476.434 479.451 477.514 475.154 477.959 477.139 471.857 467.824 477.559 472.331 476.399 475.891 475.104 468.226 465.959 473.634 470.956 470.306 471.291 475.856 476.214 476.166 476.996 471.966 475.429 473.319 469.794 470.711 473.376 473.266 472.781 471.294 473.394 475.344 473.294 473.216 472.926 472.066 475.196 472.139 471.471 471.629 468.036 462.751 469.421 470.599 468.834 471.116 468.946 470.519 464.546 469.444 469.744 467.794 472.391 471.494 471.394 472.981 470.864 471.269 472.314 467.954 461.446 455.586 455.546 463.471 460.971 459.794 459.414 465.839 459.501 459.189 464.691 461.474 462.051 464.574 463.581 461.799 460.819 462.171 463.996 463.714 461.709 462.966 463.506 459.234 466.074 463.164 465.541 463.481 463.739 462.146 464.901 465.666 464.544 466.169 462.021
478.615 474.577 471.205 470.12 475.775 476.165 473.88 469.555 472.335 472.682 474.552 476.997 474.28 479.067 478.86 479.83 474.722 471.005 477.35 480.077 479.365 477.972 479.085 475.495 474.987 477.75 467.145 473.845 469.797 467.575 467.057 467.452 467.877 467.835 468.085 469.129 469.072 468.592 474.197 468.342 466.662 466.832 468.004 469.719 470.179 469.757 470.299 468.702 468.789 468.404 469.422 470.442 470.654 472.464 476.927 473.827 471.199 468.694 468.562 469.264 469.427 469.804 469.779 469.414 468.714 468.697 468.802 468.714 469.809 470.789 470.934 470.079 469.264 470.677 471.082 470.332 470.412 470.444 470.722 469.592 469.562 468.712 468.032 468.119 467.769 468.337 468.292 468.167 469.384 468.714 468.817 468.939 471.342 474.834 473.549 473.047 472.179 471.757 472.984 473.799 476.002 479.119 471.297 475.202 475.062 475.584 473.924 474.664 471.004 473.922 472.377 471.804 470.534 472.049 472.132 470.142 471.834 475.122 470.329 472.619 469.342 470.997 472.264 471.777 474.722 471.729 472.874 474.752 474.074 479.319 473.832 472.632 474.629 472.857 472.804 472.104 471.447 471.374 471.884 470.169 469.854 470.519 471.967 472.259 472.682 469.924 469.777 471.062 469.589 474.607 472.949 470.577 468.829 469.284 471.799 470.952 471.132 468.997 469.524 470.037 473.617 475.249 471.524 471.942 475.942 476.804 475.729 474.974 471.014 473.272 472.044 475.647 474.307 469.502 470.862 473.444 478.229 479.307 481.924 481.732 475.872 473.209 475.787 478.032 479.149 481.217 476.194 472.874 475.389 477.829 479.289 479.184 479.274 481.254 478.807 479.354 478.259 476.742 479.907 482.179 479.399 474.864 476.989 477.644 478.872 479.624 482.147 482.159 479.662 472.332 479.024 478.142 479.452 479.034 480.104 480.297 473.652 478.592 477.079 479.194 481.567 481.289 479.412 481.429 481.254 482.112 482.977 483.227 483.149 482.267 481.527 480.589 482.577 479.884 479.312 482.026 479.244 481.719 478.151 477.734 478.446 479.959 482.844 476.309 477.086 479.139 478.984 476.804 477.884 481.539 482.329 482.404 481.931 479.094 481.719 481.026 481.224 480.344 483.236 480.944 482.649 480.789 480.739 482.094 481.286 478.511 471.001 476.471 479.781 476.694 478.636 481.979 474.929 474.116 475.281 477.889 478.509 479.014 478.396 479.094 470.362 470.151 475.984 471.611 470.121 469.936 475.791 471.314 477.231 474.731 466.846 465.704 476.509 473.854 475.679 471.796 476.464 473.911 474.249 474.484 478.564 468.004 471.986 475.854 469.981 474.266 473.666 475.301 471.991 476.791 473.004 473.721 468.374 473.136 472.464 469.559 472.359 471.689 471.374 471.489 459.296 466.404 470.416 466.264 471.214 468.924 467.046 461.561 464.371 468.094 470.804 472.906 472.276 473.376 473.471 471.821 472.844 472.904 467.856 459.359 456.299 456.179 459.119 465.579 458.966 459.251 461.104 459.101 458.721 464.709 464.764 462.686 463.394 463.696 460.284 467.796 461.384 462.544 463.426 460.801 462.359 463.974 463.689 464.634 459.031 466.251 467.329 466.391 462.651 461.251 467.729 466.076 464.444 465.561
476.45 476.65 474.505 473.412 472.29 471.09 476.45 476.342 474.845 476.16 475.897 475.315 473.922 478.66 479.23 478.727 475.93 471.547 479.332 479.16 476.52 471.865 472.815 471.682 473.782 474.515 469.6 467.71 468.4 467.785 467.61 468.52 468.792 469.5 469.247 469.034 468.314 468.032 469.012 472.514 467.894 468.602 469.809 470.737 470.404 469.417 469.552 468.974 469.122 469.624 470.137 471.397 471.659 471.097 472.689 470.219 469.159 468.972 469.549 469.384 469.092 469.457 470.159 469.349 469.794 469.237 470.139 470.189 470.669 470.964 470.319 469.487 469.289 469.319 469.667 470.364 470.599 471.067 470.682 470.712 469.387 468.179 467.747 468.234 468.164 468.277 468.557 473.219 468.759 469.277 469.354 474.504 478.719 470.184 471.944 472.617 473.152 473.329 473.557 473.717 476.477 479.849 475.244 471.612 472.529 474.754 475.192 474.724 472.622 472.864 475.677 474.399 474.374 472.547 471.609 473.559 472.287 478.202 470.027 475.732 470.192 470.832 474.202 471.632 470.187 474.194 474.777 475.134 476.529 476.879 473.237 473.024 473.334 472.002 472.262 471.909 473.377 474.447 472.032 470.927 471.234 469.829 470.937 473.237 471.697 471.009 471.389 475.744 476.579 479.662 478.127 470.479 469.714 468.694 469.039 471.929 476.347 470.899 469.484 469.824 471.852 473.002 471.084 471.527 475.424 472.714 473.607 470.822 471.154 473.652 471.114 476.649 471.272 470.077 470.972 473.664 479.854 481.817 481.349 482.904 478.854 471.862 472.289 474.732 480.572 480.577 481.927 476.922 478.709 481.142 479.109 480.724 481.747 483.012 477.234 480.342 480.429 481.334 482.364 482.674 479.217 475.514 481.407 474.469 479.942 480.912 478.589 482.217 478.817 471.077 479.489 480.204 481.987 479.634 481.244 481.359 473.699 480.382 481.674 480.142 481.112 483.177 477.859 481.814 477.837 482.674 483.427 482.342 482.007 483.632 483.254 477.712 480.704 481.454 482.889 479.354 481.481 482.444 477.096 479.741 478.961 480.849 481.156 478.784 478.776 482.449 478.661 478.857 478.949 482.524 483.366 479.049 484.501 482.886 482.604 482.459 482.064 484.714 477.009 481.489 480.029 481.131 480.581 479.149 480.276 476.674 472.009 475.346 480.436 481.604 477.364 478.991 476.234 479.484 475.976 473.934 477.274 476.451 479.139 479.814 475.314 472.904 474.586 477.706 478.659 472.114 477.729 475.471 477.846 475.279 466.891 470.611 476.646 476.431 473.239 475.211 472.914 475.821 474.909 474.041 474.629 472.724 473.864 474.661 476.579 473.401 468.904 473.329 472.636 475.896 476.189 474.876 477.514 470.769 474.536 472.816 470.536 470.234 470.274 467.386 468.391 465.956 472.836 469.974 471.274 471.826 468.614 462.399 462.121 463.459 470.364 470.939 471.649 472.531 470.361 470.421 472.789 468.806 467.101 461.181 456.866 458.069 457.654 458.361 459.166 457.739 460.461 461.894 461.396 461.651 464.539 458.811 460.291 467.259 463.701 463.716 462.129 462.956 463.236 461.321 461.896 465.934 465.156 466.889 462.879 466.534 463.096 463.151 467.429 460.614 464.326 468.361 466.041 464.161
475.98 479.525 477.977 473.017 475.19 471.512 475.05 478.34 477.125 477.087 476.85 480.385 474.732 479.52 478.977 481.437 475.937 469.53 475.062 477.39 475.907 478.532 475.397 467.575 469.305 467.56 467.927 468.395 468.79 468 468.267 469.085 469.475 469.905 470.477 468.692 468.887 469.602 469.657 469.927 468.807 469.562 470.549 470.364 468.879 470.277 470.179 469.717 469.567 470.479 471.542 471.602 471.859 470.974 470.529 469.494 469.277 469.522 469.514 474.512 472.777 469.874 469.474 469.224 470.314 470.579 470.577 470.729 470.412 470.284 470.089 470.487 471.309 471.204 471.652 471.954 472.487 472.649 471.929 469.557 469.509 469.579 470.842 471.482 469.264 469.567 468.899 475.714 474.424 469.522 469.717 474.164 477.204 471.939 471.524 472.167 472.914 473.894 474.617 473.992 475.262 474.369 473.552 471.852 471.869 473.869 475.482 475.047 474.434 477.174 474.342 474.364 474.999 475.089 472.889 475.734 475.367 479.669 472.529 474.257 473.284 471.319 475.949 472.279 471.497 473.904 473.029 473.807 478.314 477.422 473.264 473.629 473.174 476.219 474.239 473.874 475.284 472.859 472.872 473.097 474.447 472.447 471.767 472.622 470.769 472.989 474.847 479.947 479.619 481.659 478.432 475.704 468.697 468.772 472.444 472.512 473.412 469.712 471.192 474.964 474.577 474.134 470.217 470.667 472.939 472.239 476.952 472.289 475.259 472.972 472.452 474.654 470.327 470.817 470.757 471.394 478.964 482.207 480.244 477.902 477.064 473.619 474.217 476.442 477.524 476.747 479.047 477.197 477.084 480.324 479.712 481.562 481.509 480.039 480.177 482.282 481.899 479.509 482.864 483.589 480.892 477.182 480.264 474.989 479.792 479.487 481.759 483.219 481.057 474.372 477.132 478.877 480.077 475.612 480.647 480.454 478.749 477.314 480.634 481.724 481.509 481.524 478.574 481.809 482.502 482.624 480.337 483.009 482.047 482.589 482.794 480.947 480.597 482.149 483.729 481.644 479.616 483.574 479.604 480.164 481.996 477.529 479.066 481.259 479.471 482.464 480.459 478.751 478.464 481.486 482.914 479.734 479.656 481.276 481.036 483.886 481.977 479.296 480.756 480.954 474.841 481.586 481.107 477.602 481.116 476.607 473.974 476.544 479.349 483.779 479.766 479.542 474.711 479.966 480.501 470.571 476.331 478.089 480.354 473.382 478.737 476.001 477.051 476.374 476.036 471.869 473.626 473.866 472.516 473.246 470.581 470.399 478.926 479.964 475.291 477.166 477.076 473.224 478.596 476.061 476.696 476.451 468.361 469.486 476.116 476.259 473.944 476.876 474.289 475.139 479.274 471.379 472.079 474.424 470.634 472.636 469.129 467.341 470.106 474.101 469.829 467.924 472.299 471.796 471.184 468.876 473.154 466.711 458.346 461.449 472.619 471.219 472.914 474.889 471.946 468.969 473.501 472.229 464.489 459.531 457.456 461.841 458.394 461.749 463.116 461.751 460.681 462.761 460.789 463.806 464.716 464.224 460.689 464.146 463.444 464.121 463.841 464.844 462.761 465.494 464.064 463.874 467.884 466.789 464.634 467.894 466.286 461.596 467.736 462.431 461.974 464.731 467.921 462.321
472.977 480.282 478.472 477.985 479.432 472.305 473.767 476.195 478.19 473.047 473.795 474.087 480.145 480.282 474.925 474.59 471.022 468.96 476.245 470.357 475.107 470.792 469.472 469.04 469.695 468.517 469.952 470.53 471.112 469.582 468.707 469.552 470.222 470.26 469.305 469.704 470.809 470.189 470.944 469.529 469.844 470.577 469.972 469.444 470.144 470.249 469.684 470.259 469.012 469.384 470.752 471.287 470.214 470.414 469.492 469.914 469.809 470.589 471.074 480.694 474.944 471.512 470.467 471.484 472.459 472.402 471.462 472.262 470.207 470.339 471.537 471.647 471.842 471.997 473.157 472.622 472.062 472.029 472.252 471.767 474.449 472.629 476.697 473.617 473.084 470.607 472.859 479.617 475.589 475.249 470.447 470.979 471.772 473.024 472.989 473.537 473.887 473.714 472.524 472.159 471.649 472.007 472.432 472.594 472.069 472.652 475.484 477.297 474.734 474.184 476.227 473.027 473.987 473.144 473.054 475.239 475.547 477.227 476.124 472.254 476.684 471.649 474.832 475.519 472.697 475.537 476.197 474.174 477.687 473.972 473.404 473.004 473.572 472.657 473.014 475.004 473.887 475.109 475.979 475.187 472.119 471.789 473.049 473.004 470.469 471.587 473.957 478.819 480.447 480.632 475.389 477.244 473.554 470.984 475.247 471.592 472.962 473.727 472.189 474.302 474.849 472.259 474.297 472.684 473.122 470.969 471.144 474.644 472.577 472.899 474.802 479.027 476.294 472.954 471.097 473.434 476.904 479.957 482.487 479.884 479.884 476.657 477.172 479.752 475.812 476.544 476.737 473.032 476.844 481.634 481.679 482.307 481.692 480.699 483.482 483.492 481.307 481.384 480.492 481.199 481.262 481.659 481.327 481.389 477.334 479.719 480.897 483.349 481.137 479.354 474.802 483.087 481.074 479.447 482.624 478.294 482.619 475.734 479.657 479.102 483.017 483.379 482.197 481.344 478.539 481.122 483.234 482.652 481.322 483.879 483.082 481.019 480.199 481.307 482.072 481.189 479.799 483.274 484.984 480.151 481.026 479.792 481.284 479.066 484.711 483.476 475.819 481.151 482.357 484.116 481.821 481.184 484.514 483.326 482.042 485.177 483.344 482.469 478.861 480.784 483.007 477.431 482.486 480.804 480.156 480.244 482.049 476.624 479.746 480.866 481.231 480.134 474.564 477.296 477.016 471.276 477.086 474.809 478.899 476.379 479.386 473.417 476.396 473.311 477.417 479.671 476.376 478.309 474.539 477.679 470.526 468.094 476.094 480.259 476.459 472.559 475.351 480.269 472.416 476.061 477.606 470.141 472.359 469.791 476.416 477.184 475.711 476.089 474.934 474.569 475.096 475.704 473.086 475.391 475.896 469.391 470.319 471.401 472.154 466.994 470.711 471.489 472.874 472.311 470.259 468.689 473.501 472.511 464.629 470.136 472.206 471.969 472.054 473.404 471.906 472.616 474.869 473.386 468.086 459.431 458.121 463.316 459.384 462.119 463.616 466.231 463.519 466.246 465.844 465.744 463.536 465.016 462.421 463.904 462.641 462.841 464.636 463.536 465.644 464.949 468.354 462.914 462.976 463.769 468.209 465.236 467.836 464.316 468.244 465.256 465.614 463.131 465.766 467.149
471.527 476.817 475.3 476.677 478.27 477.095 477.065 480.63 478.547 467.557 467.152 469.87 475.087 478.137 479.365 470.37 471.99 470.465 471.327 475.497 469.365 469.497 469.322 470.677 470.455 469.9 470.552 470.517 469.8 468.445 470.232 471.39 470.775 470.485 470.067 470.087 470.299 470.292 469.502 470.162 470.634 471.067 470.497 470.447 470.412 469.774 470.582 470.387 470.087 470.164 470.752 471.397 470.412 469.712 470.259 470.089 470.357 471.114 475.259 475.979 473.057 470.799 472.292 472.927 473.234 472.447 472.227 471.649 472.392 472.802 473.139 472.404 473.032 472.787 472.837 472.694 471.669 471.092 471.504 470.647 472.844 473.902 471.242 471.652 470.952 470.404 471.917 475.817 474.147 478.097 475.109 471.012 471.862 472.722 473.584 474.424 473.817 473.797 472.339 472.164 471.709 471.847 471.844 471.824 472.074 472.167 478.722 479.184 480.077 473.609 472.789 475.612 473.549 474.924 472.967 473.939 472.897 473.567 477.242 472.184 473.744 475.527 472.502 477.834 473.684 474.072 476.369 472.459 475.549 475.029 473.907 475.687 475.444 474.077 472.084 474.712 473.464 476.089 474.559 476.892 473.554 474.479 473.599 474.902 472.132 474.329 478.104 480.212 479.782 481.942 477.264 475.007 476.109 473.879 474.139 470.652 472.459 474.469 471.007 474.417 474.599 474.854 477.277 474.699 475.112 474.587 473.072 471.599 472.527 476.539 474.382 479.299 474.174 474.187 474.249 475.054 476.524 479.362 480.819 481.044 481.237 478.502 478.544 477.424 474.409 477.889 477.924 473.422 475.304 479.017 481.699 481.389 482.329 482.249 482.909 481.312 478.719 480.642 480.017 482.144 482.802 480.652 479.902 480.727 476.204 481.897 481.644 484.049 482.757 480.554 476.339 482.472 481.294 484.049 475.554 480.869 482.079 475.654 475.637 479.197 481.917 483.279 479.847 482.012 476.814 483.797 480.169 480.319 481.094 483.792 480.122 481.737 478.419 480.854 484.152 485.031 483.441 483.447 480.121 482.094 480.409 481.221 479.911 481.086 479.194 484.246 478.861 478.119 483.891 483.384 480.939 482.279 483.151 484.956 482.659 480.224 483.116 481.419 482.369 479.804 479.526 482.641 482.996 480.374 480.079 480.754 480.169 482.009 479.649 478.914 483.491 482.504 478.516 478.714 479.911 478.479 476.357 476.834 474.194 474.619 474.936 474.841 470.456 473.641 473.624 479.471 475.929 475.651 472.124 478.306 476.689 473.519 470.531 479.286 475.726 480.551 475.664 480.886 475.639 479.301 478.104 473.894 473.144 474.411 476.816 475.756 477.059 476.569 475.951 476.081 474.204 476.451 474.469 472.956 475.686 468.534 469.149 470.504 472.536 470.081 468.114 475.159 473.126 471.866 468.031 475.256 473.164 474.636 471.274 472.999 474.814 472.349 474.086 473.191 474.144 473.336 474.501 472.216 467.174 459.921 458.751 460.339 461.266 464.701 464.176 461.884 467.006 464.044 465.871 460.581 463.676 467.291 465.299 466.119 463.629 461.251 462.069 465.039 465.456 466.224 464.821 464.361 468.314 467.461 463.626 469.186 465.469 463.894 466.749 465.461 469.686 462.824 463.909 465.634
474.287 479.23 477.595 475.222 483.15 481.487 474.58 476.415 479.02 470.772 468.242 468.68 478.397 476.215 476.275 469.492 471.857 470.082 469.33 468.922 468.222 468.07 468.89 469.487 469.5 469.355 469.697 469.775 470.137 471.145 471.3 470.762 470.64 471.065 470.082 469.787 469.887 469.749 470.587 471.737 472.764 471.669 470.137 470.699 470.067 469.904 470.812 470.617 470.762 471.392 472.152 471.047 470.109 470.399 470.429 471.187 471.657 472.559 473.094 471.227 471.869 472.692 473.032 474.652 472.194 471.607 472.049 472.749 473.154 472.962 472.447 472.774 472.654 472.642 472.137 471.589 471.902 471.919 471.892 471.774 471.209 471.394 471.297 470.292 470.247 470.487 479.374 475.182 473.639 477.057 471.797 471.632 472.434 473.924 473.744 473.354 473.667 474.499 473.609 473.049 472.747 473.872 475.234 473.677 475.209 475.519 475.517 475.479 479.369 477.597 473.142 475.752 474.989 474.367 474.544 476.794 473.512 474.569 475.919 473.479 472.482 474.837 473.422 475.277 473.199 475.279 475.292 472.899 473.144 477.182 474.112 476.912 475.394 474.912 473.629 474.522 473.277 476.954 475.352 475.229 473.494 471.674 471.592 472.059 472.992 481.094 481.199 481.019 477.167 482.464 480.679 473.597 470.419 473.264 473.534 471.194 473.067 477.177 472.572 473.004 472.317 475.559 477.952 475.079 473.952 476.517 475.937 472.129 471.819 476.927 475.664 477.267 475.679 473.697 475.499 480.567 482.499 482.669 482.209 479.872 480.272 483.477 481.824 478.229 476.622 478.372 479.142 475.374 474.734 480.782 481.612 481.172 484.532 483.592 482.882 480.484 476.614 480.564 481.472 480.257 481.692 483.029 481.859 484.462 485.724 483.032 480.432 480.847 482.449 482.547 480.949 484.797 479.124 481.799 481.622 480.584 482.764 482.352 477.857 480.629 483.652 481.452 479.719 481.299 483.329 485.164 480.914 480.567 482.499 481.542 480.307 479.542 481.499 483.157 480.299 481.526 481.721 482.741 485.044 482.636 479.811 479.141 483.554 480.874 478.421 483.136 482.244 481.069 481.319 482.876 481.499 482.606 479.744 482.941 485.266 481.227 485.836 480.446 476.109 483.309 484.624 483.094 479.824 480.329 484.926 481.234 482.121 483.924 482.089 479.426 481.781 479.256 479.314 480.124 477.451 475.819 477.859 482.104 479.542 477.511 473.244 478.227 469.804 474.706 472.831 479.446 481.414 479.974 469.549 475.766 474.566 476.934 478.989 476.251 472.876 479.239 473.211 477.204 479.529 479.231 474.339 478.689 472.376 477.526 476.039 476.351 475.526 476.356 475.941 475.791 472.271 475.599 474.874 473.349 466.781 476.774 470.926 471.064 473.974 473.399 468.539 469.976 473.196 475.439 464.971 468.316 474.211 475.256 473.671 472.271 473.156 473.556 472.126 472.976 471.631 474.109 472.336 470.724 463.806 459.946 460.364 461.189 461.191 461.874 463.444 464.324 467.554 465.024 461.154 462.974 466.349 467.421 466.286 469.634 470.159 461.749 462.484 462.124 461.346 466.274 467.989 461.576 467.071 464.896 466.429 464.954 471.189 465.894 468.916 469.056 469.389 469.419 464.036 463.641
476.175 481.725 479.182 474.182 479.787 479.87 468.427 474.442 478.26 469.12 469.007 468.062 468.697 469.49 470.26 469.71 471.347 470.63 469.695 469.372 469.705 470.437 470.595 470.71 469.857 470.477 470.982 470.522 470.972 471.02 471.385 470.52 471.055 471.702 471.235 470.744 470.889 472.092 472.184 472.452 471.597 470.349 471.377 471.994 471.277 471.989 471.419 471.782 472.184 472.277 471.302 471.264 470.799 470.989 471.192 472.064 472.249 472.649 471.982 472.369 472.982 472.819 472.767 475.844 478.044 472.484 471.519 472.297 472.984 473.254 472.179 472.534 473.117 472.514 471.927 472.162 472.607 471.764 472.364 472.527 474.872 471.727 471.022 471.727 473.074 471.729 475.472 474.954 472.994 471.619 471.812 472.592 473.767 474.442 474.577 475.179 476.342 475.437 474.469 474.862 478.622 473.649 476.987 477.869 474.452 474.584 479.439 473.329 476.977 477.047 473.382 475.444 476.202 474.204 474.679 476.557 474.747 473.677 473.884 477.122 476.274 473.842 472.514 473.204 476.374 475.822 475.719 473.319 475.672 473.967 474.322 477.457 477.139 475.379 473.544 474.999 473.357 473.442 477.197 473.637 471.609 472.042 472.404 474.399 474.977 479.632 479.164 481.354 477.614 478.692 479.407 475.007 471.677 474.367 472.417 472.309 472.837 477.152 473.427 472.674 473.259 477.817 476.102 476.229 475.557 476.449 476.869 474.844 472.637 472.567 474.767 479.029 477.957 473.677 478.087 485.097 483.242 484.502 483.107 483.017 481.922 481.912 480.059 478.574 478.909 478.214 481.534 479.669 474.784 478.677 481.374 481.399 481.822 484.337 483.094 482.592 480.157 481.134 482.492 480.734 483.857 485.024 481.502 482.684 484.167 485.207 480.402 480.849 483.934 483.374 483.239 483.497 481.119 484.489 483.092 480.767 483.549 482.912 481.259 478.599 480.182 483.832 481.284 482.232 485.777 484.999 479.537 481.209 480.592 479.207 482.719 478.677 481.924 480.477 482.184 479.529 483.229 481.811 483.964 483.227 483.174 479.411 483.746 480.294 477.417 481.261 483.734 482.269 482.624 482.884 484.941 483.889 484.874 483.446 483.884 484.574 484.924 484.404 479.484 482.994 483.219 481.679 482.069 478.149 481.879 481.214 482.266 483.304 483.394 479.769 479.969 481.941 480.964 479.026 481.079 478.899 479.996 478.441 477.209 476.394 474.286 472.469 474.216 469.966 472.316 478.409 475.344 474.926 477.604 474.124 474.269 477.821 479.449 471.929 479.341 480.059 477.569 474.739 479.476 476.329 480.254 475.556 480.091 474.959 472.861 475.131 475.869 478.631 476.869 474.454 473.634 471.781 470.049 476.184 475.496 478.441 477.719 468.954 474.186 473.679 468.714 474.794 475.276 476.126 471.619 473.431 476.356 474.694 473.214 473.526 472.644 474.514 473.091 475.826 475.241 473.364 472.996 467.914 462.559 460.084 467.226 464.129 465.684 461.481 463.556 460.771 463.279 464.581 463.196 463.059 466.629 469.344 464.161 465.189 466.929 463.786 464.444 467.259 466.881 462.496 466.009 462.721 466.754 468.456 463.149 466.066 470.531 470.949 467.966 465.421 467.541 471.029 468.324 466.774
478.17 478.86 479.98 479.902 482.49 481.307 468.465 474.592 481.885 469.117 468.552 468.83 469.332 469.932 470.13 470.637 470.777 470.77 471.845 472.67 472.76 471.782 470.847 471.195 471.737 472.07 472.265 471.97 471.675 472.517 472.952 471.567 471.347 471.305 471.142 471.319 472.342 472.092 471.872 471.324 470.294 471.537 471.597 471.304 471.652 472.462 472.652 472.662 472.647 472.392 471.832 471.917 471.169 471.654 472.119 474.017 473.824 471.884 472.364 473.834 473.482 472.829 472.787 477.394 480.932 476.124 473.092 472.857 473.154 472.619 472.222 472.407 473.112 472.402 472.924 472.807 472.739 473.147 475.487 478.477 480.374 473.084 472.289 472.309 474.182 475.167 472.689 472.729 473.177 473.099 472.659 472.852 474.177 474.929 474.729 475.807 476.097 474.977 475.102 477.577 478.862 480.104 473.284 476.489 473.722 474.452 478.999 475.449 475.619 476.422 474.544 475.649 474.634 474.397 474.392 475.242 474.534 475.337 473.857 476.157 475.809 474.022 476.229 476.104 476.207 473.409 476.152 473.737 474.184 475.317 474.804 475.629 478.492 475.469 477.567 473.759 476.279 474.534 474.259 473.044 472.104 473.732 476.372 473.619 475.924 475.119 476.527 480.174 476.022 478.184 481.942 477.884 474.859 473.799 475.647 473.527 475.407 477.099 473.532 473.904 475.469 476.242 475.972 476.697 478.762 475.392 478.819 476.064 473.407 472.754 473.179 479.079 481.079 482.209 477.537 483.839 481.062 484.247 482.982 483.452 481.282 479.972 478.244 477.494 480.162 478.904 481.347 482.539 478.892 480.907 483.812 482.514 482.807 483.044 484.332 484.899 482.022 479.744 481.854 484.184 485.957 485.914 481.432 484.064 485.207 483.877 483.812 484.609 486.709 486.657 486.429 482.762 484.557 481.084 480.804 480.799 485.167 485.027 482.459 479.227 482.599 484.267 481.344 484.442 482.417 484.902 483.934 483.914 484.842 481.827 482.112 482.514 482.654 478.962 484.252 480.646 483.602 484.386 483.321 485.174 483.076 481.444 480.016 480.129 477.102 482.514 484.466 485.961 485.086 479.214 485.304 483.221 484.531 484.419 481.354 480.279 476.691 486.531 481.004 484.124 484.496 482.474 483.181 478.571 480.179 481.206 478.846 481.826 483.169 480.474 480.529 479.624 480.841 481.379 477.066 475.486 479.056 480.234 479.369 478.129 470.314 469.987 469.609 469.009 470.971 478.196 477.289 471.671 479.494 475.921 476.574 476.724 477.471 480.351 477.626 472.139 481.051 477.986 479.676 476.094 476.176 474.666 475.084 476.536 476.516 474.964 474.741 472.251 476.091 480.239 474.979 474.521 470.796 477.439 473.289 470.406 476.409 476.561 475.759 475.299 471.001 472.584 477.861 475.421 477.926 477.006 476.171 475.961 474.524 471.899 472.486 472.271 472.791 472.419 472.334 473.011 472.701 467.806 460.926 460.781 466.681 466.144 467.001 468.546 466.784 465.006 464.599 463.301 462.641 462.304 468.776 467.119 465.934 468.801 467.214 463.761 460.931 462.956 470.919 469.519 461.426 464.534 464.791 468.416 465.264 466.874 466.944 469.794 465.556 466.936 467.579 464.949 468.619 470.656
478.912 478.367 481.797 483.107 482.2 479.342 468.94 477.817 477.32 470.057 469.082 470.162 470.907 470.935 471.087 471.817 472.522 471.842 471.55 471.637 472.007 471.89 471.472 471.472 471.542 471.567 471.622 472.185 472.71 472.447 472.745 471.897 471.72 471.41 471.105 471.367 471.717 471.404 471.552 471.169 471.109 471.079 471.384 471.514 472.569 472.909 472.872 472.557 472.507 472.402 472.172 472.754 472.619 473.507 474.397 475.377 474.474 474.237 474.409 474.882 474.739 472.517 472.489 474.492 475.782 473.264 475.697 475.314 472.449 473.712 476.494 473.272 472.632 472.977 472.852 474.729 475.742 476.744 479.872 479.164 479.297 474.624 474.654 477.192 473.817 475.517 473.424 473.702 474.119 473.024 472.664 473.717 475.047 475.347 473.994 473.737 474.904 475.422 477.892 478.734 479.174 478.872 477.547 476.047 475.069 478.379 481.212 479.519 476.392 477.212 475.474 475.647 477.824 474.959 474.154 475.729 476.414 474.454 477.224 475.249 476.027 475.629 478.372 475.889 477.592 477.884 475.174 478.287 475.357 479.429 478.124 476.969 476.444 474.872 476.914 473.964 476.699 473.222 474.697 475.827 474.307 477.194 478.259 474.279 475.179 473.572 475.419 480.014 480.969 479.969 482.342 481.517 473.502 472.689 474.199 475.617 474.217 477.202 475.234 473.217 475.564 476.757 477.237 474.839 476.337 476.127 476.759 475.812 474.132 475.294 473.597 476.054 481.462 486.159 483.994 484.007 484.599 484.562 486.927 486.637 484.897 481.007 481.124 477.064 479.119 482.044 478.992 482.349 478.784 485.062 484.469 482.492 483.909 484.482 485.157 485.109 483.634 479.914 482.749 483.054 483.104 484.772 483.377 483.614 484.417 484.864 485.027 485.644 487.409 485.304 485.679 484.357 484.432 485.459 483.222 482.602 483.539 483.879 479.767 478.329 481.599 484.572 484.414 484.674 484.462 486.369 482.729 484.229 482.614 481.862 482.194 482.089 479.287 477.622 484.019 482.716 482.689 484.637 485.714 484.631 485.169 481.926 485.049 482.774 480.689 479.856 483.611 484.409 484.236 484.581 483.694 486.001 483.096 481.909 482.959 481.536 481.311 481.946 485.146 481.444 484.607 485.906 483.696 481.131 483.534 480.941 479.524 479.171 483.014 484.359 481.624 481.534 481.464 483.401 481.096 476.014 475.936 477.374 476.956 476.099 470.029 471.109 470.294 470.066 470.331 474.774 476.121 469.599 480.166 481.684 479.884 481.289 481.716 480.019 474.296 480.751 479.786 482.101 480.161 478.041 480.696 479.274 475.249 478.059 476.614 474.469 478.959 476.386 479.644 473.574 472.174 474.004 473.906 477.009 473.339 476.709 476.431 474.356 474.974 473.246 476.886 476.644 476.519 477.016 477.296 476.364 477.519 475.196 475.459 472.236 475.431 474.776 471.146 471.234 471.964 474.881 473.451 467.121 461.876 461.196 462.819 463.349 462.904 465.214 466.826 467.281 467.409 466.209 465.564 463.281 464.354 465.659 462.984 467.816 464.384 469.819 466.954 464.719 464.256 470.946 465.044 468.176 464.581 466.871 468.069 468.219 468.139 469.304 468.474 470.571 467.766 466.869 467.811 467.761
480.987 478.567 479.582 483.09 483.495 479.6 469.367 472.912 473.787 470.067 470.472 471.007 471.277 470.867 470.345 471.537 472.467 473.007 470.515 471.285 471.805 471.682 472.302 471.495 471.325 471.452 471.722 472.442 472.997 472.895 472.66 473.185 472.595 472.007 471.717 471.374 471.069 471.184 471.999 472.414 472.312 471.952 471.702 471.954 473.114 473.097 473.214 473.927 473.879 472.127 473.544 473.307 473.629 474.677 474.394 474.432 474.027 474.002 473.217 473.262 472.962 474.147 474.834 474.799 473.464 473.739 474.152 476.152 475.169 476.289 476.604 479.604 476.592 475.824 474.387 473.879 480.749 483.477 481.804 480.894 484.494 478.487 474.229 475.787 473.062 473.599 474.304 474.322 474.322 474.294 474.152 474.947 474.857 474.729 474.494 475.019 475.977 476.042 479.894 478.799 477.319 477.764 479.697 476.722 476.697 478.939 480.919 477.949 475.364 476.942 479.594 477.124 478.169 474.684 474.864 476.052 475.717 475.367 476.374 476.399 476.752 475.974 477.239 478.582 476.249 479.014 474.817 476.572 479.749 480.834 477.487 478.062 478.022 475.739 474.812 473.944 473.927 473.877 475.652 474.797 477.072 478.137 474.569 473.462 474.939 474.439 475.027 477.732 477.384 477.114 480.844 478.327 474.839 477.507 473.629 475.234 475.374 477.364 477.912 475.612 475.127 475.029 475.022 476.202 477.632 476.254 476.959 477.034 475.444 474.842 476.632 474.832 478.684 481.387 485.034 485.772 484.772 483.369 483.872 486.694 485.274 482.392 481.762 482.174 480.469 483.527 481.324 478.619 476.799 481.082 483.954 484.067 485.024 482.927 484.302 484.177 484.182 481.712 483.359 484.374 483.482 486.632 486.492 486.707 487.669 485.514 485.614 485.962 486.689 488.054 486.609 482.749 486.832 484.902 483.537 483.357 483.467 483.437 480.967 480.477 483.739 482.109 484.117 478.064 483.852 486.982 483.464 483.687 485.119 482.419 479.542 481.817 483.164 477.947 483.209 481.146 483.311 484.194 486.991 482.479 484.357 479.411 483.941 483.922 485.774 481.781 485.076 485.304 485.112 481.936 482.019 485.216 484.844 486.257 484.286 480.984 477.936 480.339 486.336 483.224 481.999 485.179 477.561 484.576 485.511 481.266 479.669 480.236 481.834 482.161 483.024 483.172 481.581 484.104 480.891 476.254 472.144 478.389 479.241 477.644 471.596 472.406 471.499 471.112 474.321 477.169 479.406 474.634 470.344 478.951 481.641 480.936 480.271 475.851 475.826 482.411 478.446 471.566 478.604 478.559 473.846 474.651 480.024 476.636 481.934 477.526 479.216 473.666 476.859 478.869 475.739 473.544 473.804 479.679 474.059 472.876 477.276 475.729 476.336 474.696 477.081 474.349 473.069 477.504 472.289 475.494 472.316 476.341 478.956 477.506 474.571 473.731 474.831 471.469 473.841 476.086 472.126 465.434 461.691 461.754 461.836 463.124 464.081 468.871 466.409 469.429 464.929 464.799 469.719 468.889 468.894 465.764 467.259 465.986 464.761 468.489 467.646 470.749 468.539 471.441 464.144 466.466 469.866 469.029 470.694 468.359 470.639 469.976 469.084 466.936 465.496 469.706 466.274 471.001
484.71 481.472 480.515 478.685 483.747 479.055 470.32 470.102 472.202 470.932 471.002 470.465 470.635 469.91 469.755 470.152 470.68 470.185 470.915 471.75 471.892 471.1 471.905 472.26 472.495 472.705 473.062 473.137 472.82 472.467 472.922 472.952 473.347 473.535 471.912 471.769 471.617 471.892 472.489 472.854 472.784 472.657 473.779 473.524 473.742 474.099 473.669 473.694 474.099 473.769 475.212 475.322 474.547 474.299 474.244 474.244 474.164 473.647 473.259 473.319 474.097 474.062 473.807 473.782 474.154 474.564 475.452 476.862 477.937 478.062 477.842 483.969 480.824 481.032 475.157 475.547 476.804 480.937 482.907 480.519 482.249 476.174 474.182 474.262 475.059 474.937 474.827 474.707 474.617 475.317 475.617 475.532 474.349 474.684 476.119 478.154 476.552 475.127 477.519 479.527 476.897 476.612 481.237 475.704 475.502 479.294 480.342 475.789 474.952 476.847 482.344 475.142 475.054 474.992 477.407 477.242 477.394 477.919 476.577 475.749 478.099 475.672 476.847 477.612 475.569 480.479 475.497 477.092 476.664 479.474 475.767 476.762 476.209 474.584 477.892 476.627 475.364 475.607 475.664 476.049 476.479 476.794 474.074 475.534 475.144 474.054 473.084 474.862 478.039 476.979 476.389 477.474 476.699 478.269 477.059 475.414 475.307 479.222 476.039 479.234 476.724 477.224 477.242 477.169 478.147 479.804 476.559 478.089 477.504 476.092 479.712 475.339 477.202 480.979 484.272 485.024 485.747 483.949 485.782 486.639 484.487 482.809 481.769 482.079 483.539 485.372 485.304 477.987 475.984 481.107 486.522 486.712 483.704 481.474 483.254 484.842 485.964 485.009 483.809 486.122 487.042 486.552 484.974 486.797 487.002 486.564 485.384 486.849 486.732 486.847 487.322 484.254 486.489 485.507 485.734 483.117 485.692 483.504 478.402 479.647 481.234 485.097 485.997 480.899 482.607 486.774 485.569 483.229 485.474 488.759 482.474 485.424 482.249 479.689 481.299 486.676 483.029 485.524 485.951 483.311 486.491 480.822 481.729 483.061 482.529 485.644 484.556 485.136 485.227 485.809 485.059 481.579 486.346 485.444 484.634 485.604 482.001 481.034 483.236 483.042 483.169 483.734 482.124 480.894 483.066 484.796 480.751 484.309 480.792 480.839 485.389 483.544 482.004 482.269 483.684 474.596 471.936 472.112 473.386 472.326 472.449 473.031 471.354 471.439 472.611 479.474 480.779 469.514 469.921 482.254 479.754 479.424 479.989 481.231 480.716 482.734 479.751 478.071 478.331 481.474 478.391 481.349 478.849 476.506 481.719 475.354 476.914 474.579 476.399 475.071 476.671 473.046 474.541 478.194 476.786 475.144 475.651 476.426 476.489 472.179 479.159 477.466 473.459 471.404 476.201 474.411 478.926 476.731 476.416 476.146 477.514 474.799 470.981 476.826 476.961 477.486 472.071 465.179 462.116 464.099 465.494 463.306 464.969 465.184 469.311 465.781 464.251 462.119 467.744 468.844 470.409 466.279 464.176 468.429 462.451 472.634 464.089 467.464 466.714 468.996 467.251 469.706 469.266 471.634 470.164 468.734 469.341 466.456 470.746 471.316 468.216 468.319 469.401 468.896
481.682 481.11 481.195 481.56 479.25 476.915 470.6 470.48 470.607 471.365 470.915 470.26 471.142 471.202 471.17 471.215 471.692 472.56 472.915 473.17 473.405 473.355 472.622 472.782 472.932 472.877 472.477 471.867 471.925 472.707 473.437 473.497 473.175 472.795 472.85 473.044 473.642 474.109 474.179 473.927 473.459 473.859 473.919 474.032 474.199 474.589 474.199 474.189 475.267 475.319 475.274 474.509 474.092 474.857 474.797 473.759 474.012 473.404 473.772 474.319 475.494 475.509 474.439 475.104 475.009 475.459 476.624 477.627 477.752 476.914 477.972 479.509 480.237 479.012 474.642 476.302 476.519 476.539 476.189 476.489 477.407 475.824 475.742 476.694 476.709 475.102 475.012 474.909 474.479 474.857 475.707 474.679 474.919 475.409 476.444 477.754 480.607 478.307 479.332 480.064 476.782 480.039 482.119 479.704 479.282 482.194 482.589 480.474 477.907 476.217 482.514 476.347 476.354 478.534 477.117 477.354 477.474 479.617 480.832 476.192 479.724 475.812 474.892 479.782 475.449 480.487 475.314 476.284 477.954 477.414 476.419 479.647 481.162 475.539 476.157 479.739 479.172 478.227 475.137 476.274 477.684 476.157 477.784 477.512 474.257 477.239 474.564 476.054 479.539 476.442 476.577 477.637 477.312 477.032 481.074 479.142 477.562 479.847 476.109 478.759 478.652 479.157 481.057 480.689 479.982 477.924 476.839 479.127 476.327 477.964 481.957 479.339 478.879 483.302 485.787 485.524 484.507 483.639 483.884 483.274 483.549 486.572 482.387 483.534 481.304 482.024 484.427 480.469 476.902 480.414 483.359 484.164 484.149 484.364 485.677 485.949 486.272 485.937 486.479 484.904 487.934 486.122 484.059 487.497 488.107 487.934 486.029 486.919 487.357 484.482 487.619 487.659 487.867 485.149 484.207 484.264 486.242 486.402 479.689 483.092 483.422 486.042 484.179 479.844 481.847 487.752 485.452 486.474 486.447 486.352 482.612 484.157 482.629 479.842 481.382 485.917 484.714 487.919 485.549 485.371 486.064 484.479 484.386 486.241 485.477 486.496 485.491 484.479 480.482 485.076 484.641 487.564 485.889 487.124 485.689 482.631 484.491 482.524 486.279 484.571 482.821 483.034 477.417 478.214 477.601 482.076 482.196 482.521 479.404 479.884 479.211 484.821 486.319 484.521 478.636 478.951 472.164 471.561 472.514 472.594 473.214 472.011 472.524 471.901 472.844 477.246 482.051 474.151 473.974 474.316 480.361 485.054 480.389 482.906 481.461 482.666 479.876 475.779 476.799 478.349 474.769 478.286 477.846 473.924 474.654 474.821 478.364 477.361 472.266 480.111 479.351 478.106 477.939 475.764 477.509 474.756 476.634 470.946 477.096 471.534 475.809 476.276 478.036 474.944 478.936 475.226 478.459 477.081 475.369 477.671 475.446 473.524 472.901 474.394 475.994 478.024 471.886 464.919 462.619 464.246 466.231 463.454 468.834 463.256 470.244 466.829 463.554 463.669 467.224 470.346 471.944 467.699 466.166 465.934 469.661 468.059 467.479 467.369 468.301 466.731 469.464 470.966 469.814 470.119 469.776 468.876 472.286 468.176 470.356 471.356 470.706 472.026 468.991 470.414
480.575 483.642 482.57 479.455 474.715 473.68 470.912 471.267 472.517 473.277 473.372 472.722 472.857 473.35 472.917 473.057 473.167 473.237 473.92 474.247 474.357 473.34 473.355 472.615 472.6 472.615 472.14 472.395 472.842 473.81 474.277 472.56 473.135 473.405 474.21 473.982 474.832 475.254 474.454 474.054 473.537 473.407 473.359 474.069 474.807 475.412 475.647 475.617 475.332 475.087 474.714 474.204 474.859 474.397 473.562 473.919 474.074 473.954 473.877 474.034 474.644 474.979 474.962 475.524 476.384 476.734 477.312 477.104 476.229 475.542 476.309 476.987 477.369 475.649 474.952 474.697 475.359 475.419 475.284 476.219 476.519 477.197 477.309 477.337 476.239 474.949 474.632 474.264 475.119 477.812 477.952 476.792 477.134 476.882 476.687 476.924 481.099 479.652 477.034 480.022 475.882 478.574 482.622 480.222 478.057 481.647 480.607 479.682 481.964 479.959 480.294 480.457 479.007 480.024 477.737 476.474 479.809 478.869 479.149 480.029 480.559 477.792 475.929 477.764 478.257 479.802 478.227 477.137 477.812 476.222 476.599 478.327 479.232 479.542 477.412 480.919 475.439 477.242 478.452 476.509 478.137 474.887 477.859 478.224 479.189 474.134 478.487 477.432 478.832 475.179 478.327 476.637 477.037 477.537 476.929 479.919 477.084 482.012 478.252 480.547 484.314 482.159 483.012 482.919 481.752 483.537 480.807 478.192 480.022 482.617 482.502 482.194 483.487 486.334 486.642 486.572 488.414 486.004 483.247 482.392 482.129 483.437 484.929 486.469 486.334 485.849 483.097 478.737 478.232 481.967 484.264 484.854 484.602 485.644 484.544 485.517 487.002 485.277 486.407 485.612 486.742 487.122 487.184 487.897 488.812 487.972 485.329 486.749 486.802 485.537 487.444 486.329 486.764 487.417 487.174 482.767 485.379 485.322 481.354 485.659 483.159 489.279 486.307 488.559 482.327 488.854 485.552 483.384 488.177 487.327 484.994 484.212 485.977 480.422 481.087 488.229 486.699 486.539 483.426 485.349 486.361 483.499 485.224 485.792 485.427 483.144 487.371 486.559 488.509 487.531 486.749 485.336 485.814 487.479 484.734 487.161 485.112 487.211 483.829 484.866 485.561 482.026 480.274 474.586 476.781 481.061 480.229 482.946 481.901 482.339 478.679 482.641 484.751 486.284 480.422 476.039 473.121 472.171 473.286 474.759 472.819 472.176 471.509 471.076 470.769 474.036 481.061 481.234 479.959 475.456 478.641 477.509 477.879 477.749 478.951 478.321 479.044 481.179 476.754 482.304 479.059 480.144 481.839 483.076 483.851 477.484 481.536 476.841 472.631 482.604 480.669 475.444 478.926 480.126 475.346 479.596 480.064 479.336 477.654 476.081 475.546 477.926 475.766 474.821 474.904 478.074 475.266 478.151 474.164 477.859 478.026 478.151 473.599 475.074 478.426 477.574 473.126 465.121 463.114 463.374 465.381 464.804 471.314 464.751 465.561 470.069 469.746 468.111 464.619 465.124 470.459 470.846 471.249 467.929 466.394 469.779 468.851 469.726 469.246 469.324 467.156 471.526 468.466 474.486 470.199 467.059 470.141 470.259 473.009 474.409 472.686 472.429 472.821 470.361
