ncols 384
nrows 32
xllcorner    387090
yllcorner    476514
cellsize     2
NODATA_value -9999
339.83 339.665 339.452 339.287 339.13 339.087 339 338.927 338.79 338.537 338.412 338.315 338.142 337.915 337.722 337.555 337.417 337.255 337.1 336.932 336.795 336.655 336.49 336.307 336.03 335.857 335.66 335.43 335.24 335.092 334.885 334.625 334.442 334.285 334.03 333.797 333.512 333.225 332.912 332.465 331.905 331.56 331.377 330.947 330.45 329.82 329.177 328.577 328.255 327.972 327.755 327.577 327.415 327.287 327.192 327.042 326.905 326.835 326.697 326.582 326.377 326.232 326.212 326.152 326.137 326.642 326.24 326.365 326.312 326.347 326.402 326.375 326.29 326.315 326.202 326.11 326.027 325.935 325.945 325.982 325.945 325.852 325.777 325.73 325.517 325.33 325.255 325.2 325.177 325.14 325.147 325.057 324.865 324.615 324.405 324.237 324.037 323.917 323.765 323.65 323.46 323.1 322.482 322.205 322.232 322.585 322.985 323.155 323.265 323.407 323.45 323.172 322.775 322.907 322.777 322.645 322.425 322.072 321.657 321.137 320.682 320.175 319.707 319.307 318.977 318.61 318.287 317.937 317.687 317.51 317.52 317.532 317.477 317.275 317.042 317 317.067 316.845 316.51 316.205 315.897 315.59 315.31 315.067 314.802 314.417 314.07 313.702 313.335 312.927 312.585 312.31 312.09 311.96 311.797 311.57 311.267 310.867 310.57 310.4 310.117 309.935 309.84 309.612 309.29 309.022 308.732 308.442 308.202 307.932 307.772 307.567 307.325 307.057 306.742 306.397 306.125 305.827 305.422 305.08 304.787 304.617 304.465 304.382 304.237 304.057 303.92 303.825 303.785 303.805 303.822 303.545 303.235 302.977 302.807 302.64 302.51 302.292 302.095 301.915 301.77 301.74 301.602 301.61 301.755 301.41 301.05 300.74 300.525 300.387 300.092 299.862 300.12 301.375 301.16 301.11 301.06 300.983 300.868 300.77 300.758 300.788 300.774 300.682 300.604 300.522 300.478 300.42 300.362 300.267 300.174 300.121 300.106 300.087 300.09 300.122 300.13 300.195 300.295 300.422 300.495 300.545 300.567 300.582 300.697 301.24 300.727 300.702 300.737 300.752 300.805 300.857 300.88 300.877 300.862 300.817 300.752 300.67 300.61 300.505 300.485 300.46 300.422 300.377 300.315 300.29 300.32 300.33 300.357 300.367 300.332 300.31 300.287 300.247 300.215 300.25 300.26 300.307 300.327 300.382 300.397 300.377 300.365 300.387 300.397 300.41 300.432 300.457 300.495 300.447 300.43 300.407 300.337 300.317 300.262 300.237 300.217 300.225 300.545 300.28 300.24 300.287 300.307 300.3 300.367 300.42 300.44 300.475 300.525 300.565 300.645 300.755 300.922 301.052 301.192 301.232 301.26 301.31 301.415 301.475 301.505 301.647 301.777 301.837 301.797 301.797 301.755 301.742 301.705 301.747 301.772 301.882 301.945 301.992 302.055 302.162 302.302 302.38 302.485 302.63 302.722 302.772 302.82 302.935 303.057 303.1 303.177 303.245 303.337 303.407 303.485 303.545 303.637 303.697 303.822 303.92 304.05 304.217 304.282 304.255 304.217 304.2 304.202 304.285 304.392 304.497 304.607 304.71 304.772 304.862 305.505 305.267 305.29 305.337 305.38 305.432 305.462 305.482 305.482 305.43 305.375 305.33 305.265 305.225
340.162 340.02 339.812 339.667 339.522 339.427 339.345 339.24 339.12 338.9 338.715 338.61 338.402 338.197 338.037 337.872 337.71 337.51 337.355 337.152 337.022 336.89 336.712 336.575 336.342 336.085 335.87 335.66 335.49 335.305 335.122 334.892 334.685 334.532 334.335 334.047 333.835 333.682 333.165 332.69 332.31 331.937 331.73 331.247 330.827 330.385 329.692 329.14 328.757 328.465 328.212 328.022 327.82 327.655 327.515 327.362 327.325 327.282 327.105 326.975 326.8 326.582 326.542 326.46 326.407 326.59 327.01 326.7 326.645 326.685 326.685 326.657 326.632 326.63 326.55 326.5 326.407 326.312 326.31 326.312 326.3 326.215 326.177 326.1 325.807 325.792 325.812 325.725 325.617 325.517 325.452 325.367 325.2 325.035 324.817 324.6 324.345 324.102 323.837 323.747 323.662 323.42 322.997 322.74 322.875 323.077 323.362 323.412 323.46 323.622 323.737 323.592 323.265 323.135 322.885 322.757 322.555 322.197 321.777 321.335 320.857 320.292 319.787 319.382 319.007 318.642 318.357 318.047 317.702 317.557 317.63 317.715 317.742 317.675 317.467 317.115 316.79 316.735 316.56 316.332 316.035 315.75 315.507 315.312 314.98 314.625 314.237 313.872 313.477 313.045 312.73 312.45 312.21 312.065 311.937 311.697 311.425 311.037 310.732 310.557 310.337 310.255 310.137 309.885 309.537 309.227 308.907 308.595 308.335 308.107 307.932 307.73 307.48 307.165 306.812 306.427 306.125 305.832 305.417 305.072 304.897 304.795 304.622 304.475 304.295 304.11 304.052 303.992 303.965 303.952 303.917 303.792 303.555 303.315 303.017 302.817 302.667 302.437 302.227 302.015 301.807 301.677 301.495 301.412 301.407 301.305 301.13 300.942 300.257 299.975 299.9 299.83 299.997 301.067 301.2 301.055 301.022 300.958 300.825 300.708 300.654 300.647 300.659 300.64 300.567 300.469 300.432 300.393 300.359 300.3 300.221 300.136 300.091 300.065 300.04 300.037 300.027 300.055 300.142 300.267 300.357 300.435 300.487 300.477 300.63 301.242 300.607 300.625 300.632 300.655 300.725 300.785 300.812 300.797 300.752 300.72 300.717 300.66 300.585 300.507 300.455 300.44 300.41 300.33 300.262 300.275 300.262 300.275 300.27 300.292 300.252 300.215 300.162 300.11 300.087 300.13 300.185 300.222 300.212 300.25 300.267 300.247 300.247 300.272 300.287 300.26 300.272 300.33 300.365 300.34 300.345 300.3 300.295 300.302 300.275 300.255 300.202 300.305 300.755 300.135 300.112 300.152 300.167 300.165 300.22 300.295 300.335 300.382 300.375 300.367 300.44 300.557 300.627 300.772 300.905 300.94 301.005 301.097 301.16 301.255 301.332 301.477 301.595 301.64 301.62 301.63 301.602 301.555 301.537 301.565 301.6 301.715 301.812 301.845 301.972 302.025 302.137 302.21 302.35 302.46 302.525 302.607 302.657 302.762 302.845 302.847 302.965 303.047 303.147 303.205 303.295 303.35 303.45 303.54 303.687 303.79 303.937 304.087 304.085 304.062 304.01 303.982 303.982 304.1 304.195 304.335 304.437 304.505 304.577 304.68 305.372 305.065 305.09 305.11 305.18 305.257 305.28 305.305 305.29 305.237 305.197 305.155 305.052 305.025
340.502 340.37 340.195 340.077 339.915 339.802 339.665 339.54 339.43 339.26 339.087 338.91 338.7 338.532 338.347 338.13 337.917 337.745 337.562 337.4 337.255 337.172 336.965 336.775 336.617 336.39 336.152 335.922 335.775 335.537 335.4 335.187 334.972 334.787 334.605 334.382 334.205 333.857 333.01 332.765 332.542 332.342 332.082 331.497 330.985 330.53 330.26 329.817 329.41 328.995 328.71 328.475 328.227 328.022 327.837 327.772 327.75 327.665 327.537 327.385 327.202 327.027 326.917 326.792 326.73 326.742 327.572 327.037 327.037 327.075 326.922 326.905 326.947 326.982 326.902 326.792 326.785 326.822 326.732 326.61 326.612 326.537 326.44 326.282 326.05 326.147 326.225 326.17 325.97 325.8 325.687 325.555 325.462 325.35 325.155 324.942 324.63 324.357 324.077 323.9 323.807 323.68 323.52 323.44 323.415 323.44 323.605 323.647 323.735 323.882 324.012 323.957 323.737 323.262 322.932 322.847 322.652 322.315 321.88 321.457 320.957 320.38 319.905 319.46 319.022 318.71 318.412 318.14 317.785 317.662 317.772 317.895 317.96 317.952 317.845 317.5 316.977 316.525 316.387 316.33 316.147 315.927 315.677 315.435 315.097 314.797 314.417 314.005 313.66 313.277 312.932 312.64 312.357 312.142 312.07 311.835 311.522 311.165 310.965 310.762 310.625 310.49 310.38 310.145 309.767 309.402 309.1 308.767 308.467 308.247 308.025 307.707 307.42 307.082 306.71 306.402 306.132 305.79 305.41 305.087 304.997 304.932 304.81 304.58 304.367 304.26 304.22 304.217 304.182 304.072 304.007 303.892 303.702 303.49 303.275 303.045 302.83 302.65 302.402 302.147 301.825 301.56 301.42 301.337 301.3 301.235 301.11 300.882 300.412 300.027 299.745 299.735 299.805 300.957 301.344 301.283 301.004 300.876 300.811 300.68 300.581 300.536 300.551 300.539 300.504 300.45 300.389 300.348 300.314 300.291 300.242 300.163 300.108 300.043 300.003 299.944 299.955 299.962 300.045 300.17 300.272 300.327 300.38 300.395 300.645 300.982 300.53 300.58 300.587 300.617 300.662 300.692 300.707 300.717 300.695 300.675 300.64 300.567 300.567 300.497 300.402 300.362 300.36 300.312 300.237 300.222 300.195 300.2 300.177 300.17 300.147 300.125 300.097 300.02 299.987 300.022 300.022 300.092 300.097 300.127 300.125 300.087 300.095 300.112 300.11 300.105 300.1 300.14 300.127 300.172 300.207 300.21 300.237 300.215 300.245 300.225 300.222 300.47 300.45 300.082 300.045 300.052 300.045 300.062 300.092 300.157 300.237 300.28 300.26 300.27 300.315 300.37 300.432 300.512 300.612 300.705 300.805 300.882 300.972 301.085 301.195 301.32 301.437 301.445 301.412 301.402 301.382 301.38 301.352 301.352 301.43 301.512 301.607 301.667 301.792 301.875 301.982 302.067 302.195 302.27 302.355 302.437 302.467 302.587 302.62 302.682 302.78 302.882 302.975 303.032 303.105 303.2 303.295 303.425 303.545 303.68 303.832 303.952 303.942 303.855 303.812 303.792 303.807 303.902 303.995 304.115 304.21 304.275 304.35 304.465 304.892 304.752 304.847 304.922 304.975 305.057 305.09 305.112 305.107 305.06 305.017 304.962 304.912 304.847
340.917 340.745 340.572 340.445 340.315 340.187 340.025 339.837 339.737 339.592 339.437 339.287 339.105 338.925 338.74 338.54 338.295 338.085 337.9 337.732 337.56 337.442 337.26 337.027 336.865 336.642 336.432 336.247 336.067 335.83 335.675 335.492 335.302 335.142 334.935 334.745 334.58 334.215 333.537 333.207 332.807 332.977 332.89 332.455 331.822 331.102 330.867 330.482 330.025 329.597 329.202 328.942 328.687 328.457 328.275 328.197 328.135 328.057 327.917 327.745 327.592 327.482 327.345 327.16 327.047 327.062 327.662 327.422 327.395 327.437 327.257 327.22 327.207 327.397 327.357 327.237 327.115 327.122 327.092 327.042 326.945 326.882 326.74 326.582 326.397 326.585 326.615 326.527 326.34 326.097 325.957 325.857 325.69 325.632 325.532 325.255 324.995 324.722 324.422 324.152 324.005 323.902 323.855 323.817 323.81 323.805 323.87 323.95 324.04 324.165 324.242 324.26 324.057 323.56 323.255 323.147 322.785 322.417 322.012 321.63 321.15 320.61 320.082 319.59 319.14 318.762 318.412 318.187 317.985 317.88 317.987 318.055 318.147 318.185 318.092 317.837 317.395 316.892 316.38 316.037 315.932 315.845 315.747 315.51 315.147 314.865 314.55 314.207 313.877 313.5 313.08 312.765 312.435 312.215 312.127 311.907 311.63 311.322 311.18 310.997 310.842 310.735 310.532 310.277 309.93 309.517 309.222 308.915 308.575 308.235 307.922 307.62 307.342 307.002 306.665 306.372 306.072 305.77 305.442 305.272 305.23 305.18 305.052 304.73 304.52 304.495 304.465 304.475 304.397 304.247 304.105 303.995 303.83 303.622 303.425 303.257 303.025 302.762 302.507 302.285 301.96 301.727 301.445 301.295 301.21 301.21 301.16 301.08 300.435 299.915 299.757 299.677 299.81 300.303 301.347 301.387 300.822 300.763 300.725 300.653 300.542 300.448 300.411 300.389 300.413 300.422 300.378 300.305 300.285 300.261 300.203 300.181 300.107 300.057 299.993 299.956 299.935 299.882 299.935 300.006 300.102 300.195 300.275 300.282 300.567 300.655 300.427 300.502 300.547 300.585 300.63 300.607 300.642 300.637 300.637 300.605 300.572 300.507 300.467 300.41 300.357 300.335 300.285 300.272 300.212 300.182 300.16 300.135 300.102 300.09 300.082 300.065 300.007 299.94 299.907 299.95 299.937 299.965 299.987 299.987 299.955 299.917 299.92 299.915 299.942 299.927 299.93 299.937 299.972 299.992 300.045 300.07 300.12 300.137 300.162 300.19 300.17 300.4 300.232 300.08 300.01 299.98 299.952 299.957 299.977 300.042 300.102 300.147 300.187 300.175 300.17 300.225 300.27 300.36 300.452 300.555 300.66 300.72 300.832 300.945 301.04 301.152 301.257 301.227 301.207 301.205 301.232 301.225 301.21 301.155 301.255 301.342 301.41 301.477 301.58 301.665 301.755 301.88 302.022 302.102 302.165 302.25 302.337 302.405 302.422 302.507 302.587 302.68 302.785 302.89 302.98 303.092 303.177 303.315 303.422 303.562 303.697 303.785 303.772 303.692 303.63 303.615 303.625 303.677 303.74 303.85 303.935 304.04 304.13 304.347 304.862 304.535 304.642 304.74 304.802 304.862 304.93 304.95 304.935 304.902 304.837 304.795 304.767 304.725
341.265 341.135 340.97 340.837 340.712 340.557 340.392 340.22 340.05 339.89 339.765 339.597 339.417 339.232 339.022 338.817 338.572 338.372 338.215 338.095 337.895 337.685 337.53 337.317 337.142 336.925 336.73 336.572 336.425 336.142 335.952 335.82 335.662 335.475 335.335 335.17 335.017 334.607 334.047 333.635 333.255 333.415 333.55 333.092 332.537 332.07 331.385 331.042 330.59 330.107 329.687 329.472 329.16 328.925 328.692 328.615 328.517 328.417 328.337 328.175 328.02 327.867 327.745 327.607 327.49 327.342 328.205 327.717 327.685 327.685 327.635 327.587 327.577 327.782 327.797 327.695 327.55 327.547 327.517 327.45 327.31 327.207 327.05 326.912 326.855 326.992 327.002 326.882 326.675 326.46 326.3 326.265 326.095 325.945 325.807 325.545 325.275 324.965 324.685 324.46 324.287 324.16 324.16 324.122 324.072 324.027 324.035 324.232 324.37 324.465 324.527 324.532 324.34 323.972 323.665 323.285 322.917 322.565 322.207 321.79 321.31 320.772 320.24 319.732 319.23 318.772 318.402 318.185 318.14 318.085 318.125 318.197 318.28 318.345 318.235 318.062 317.755 317.365 316.85 316.245 315.782 315.485 315.395 315.367 315.102 314.795 314.592 314.327 314.012 313.665 313.27 312.887 312.527 312.285 312.082 311.962 311.717 311.53 311.41 311.207 310.982 310.82 310.605 310.285 309.975 309.622 309.312 308.945 308.55 308.08 307.84 307.612 307.382 307.057 306.697 306.357 306.067 305.805 305.64 305.477 305.442 305.347 305.207 305.072 304.932 304.847 304.795 304.747 304.617 304.372 304.27 304.192 303.98 303.715 303.505 303.325 303.167 302.992 302.562 302.285 302.08 301.875 301.525 301.305 301.17 301.097 301.075 300.93 301.682 300.782 299.682 299.652 299.682 300.095 300.906 301.259 300.682 300.634 300.636 300.568 300.449 300.385 300.277 300.246 300.238 300.297 300.324 300.282 300.219 300.172 300.181 300.144 300.113 300.064 300.025 299.962 299.916 299.88 299.84 299.879 299.919 300.026 300.16 300.185 300.667 300.48 300.34 300.42 300.462 300.505 300.547 300.557 300.57 300.562 300.537 300.525 300.51 300.435 300.407 300.342 300.3 300.262 300.267 300.207 300.167 300.165 300.142 300.102 300.057 300.052 300.02 299.985 299.95 299.9 299.855 299.865 299.85 299.855 299.895 299.887 299.815 299.767 299.737 299.747 299.775 299.74 299.75 299.812 299.817 299.842 299.912 299.965 300.045 300.062 300.045 300.055 300.08 300.795 300.15 300.035 299.995 299.915 299.822 299.867 299.897 299.937 299.967 300.022 300.072 300.085 300.102 300.117 300.112 300.135 300.22 300.342 300.467 300.575 300.672 300.772 300.88 300.962 301.03 301.045 301.047 301.037 301.097 301.1 301.072 301.03 301.1 301.18 301.217 301.305 301.382 301.467 301.56 301.672 301.82 301.882 301.967 301.992 302.132 302.207 302.237 302.32 302.4 302.535 302.632 302.777 302.842 302.95 303.052 303.2 303.29 303.382 303.54 303.582 303.577 303.502 303.467 303.427 303.445 303.455 303.492 303.61 303.672 303.83 303.947 304.272 304.55 304.282 304.412 304.535 304.622 304.687 304.74 304.775 304.765 304.76 304.705 304.667 304.645 304.582
341.69 341.5 341.34 341.25 341.102 340.932 340.765 340.61 340.422 340.205 340.035 339.887 339.657 339.477 339.277 339.077 338.825 338.662 338.492 338.407 338.257 338 337.805 337.622 337.42 337.19 337.027 336.925 336.79 336.497 336.295 336.175 336.022 335.845 335.757 335.637 335.437 334.962 334.592 334.297 333.905 333.535 333.907 333.4 332.587 332.242 331.795 331.435 331.092 330.767 330.272 329.927 329.637 329.437 329.172 328.995 328.977 328.81 328.717 328.587 328.385 328.272 328.102 327.937 327.862 327.782 328.207 328.225 327.985 327.975 328.027 328.04 328.105 328.155 328.18 328.11 328.005 328.005 327.942 327.882 327.742 327.565 327.357 327.192 327.282 327.385 327.34 327.252 327.082 326.935 326.735 326.615 326.407 326.242 326.022 325.745 325.387 325.152 324.85 324.705 324.56 324.445 324.382 324.335 324.275 324.202 324.177 324.435 324.647 324.692 324.73 324.745 324.572 324.21 323.71 323.212 322.922 322.737 322.435 321.955 321.475 320.892 320.347 319.815 319.317 318.852 318.52 318.29 318.197 318.197 318.252 318.262 318.3 318.362 318.357 318.157 317.915 317.61 317.222 316.697 316.115 315.59 315.097 314.765 314.73 314.605 314.435 314.322 314.042 313.727 313.397 313.072 312.71 312.427 312.185 312.037 311.81 311.675 311.565 311.36 311.1 310.887 310.585 310.322 309.977 309.61 309.26 308.82 308.37 308.017 307.8 307.595 307.337 307.03 306.605 306.372 306.22 305.99 305.837 305.687 305.602 305.55 305.47 305.41 305.445 305.31 305.105 304.962 304.785 304.535 304.285 304.242 304.075 303.81 303.602 303.412 303.227 303.06 302.862 302.405 302.215 302.05 301.78 301.497 301.22 301.022 300.905 301.037 300.865 300.975 299.972 299.877 299.943 299.728 300.161 300.782 300.714 300.388 300.546 300.478 300.412 300.34 300.179 300.117 300.118 300.144 300.23 300.221 300.2 300.139 300.111 300.092 300.069 300.056 300.033 299.94 299.897 299.83 299.778 299.802 299.793 299.875 299.981 300.042 300.72 300.252 300.287 300.325 300.347 300.422 300.467 300.515 300.51 300.482 300.477 300.47 300.425 300.37 300.332 300.267 300.21 300.172 300.18 300.177 300.172 300.162 300.117 300.067 300.02 299.977 299.932 299.882 299.865 299.842 299.83 299.802 299.827 299.777 299.772 299.772 299.712 299.675 299.65 299.617 299.64 299.622 299.632 299.675 299.74 299.745 299.862 299.867 299.875 299.91 299.96 299.945 300.085 300.602 299.992 299.992 299.96 299.927 299.855 299.792 299.83 299.835 299.872 299.922 299.97 299.96 299.985 300.057 300.067 299.995 300.022 300.115 300.245 300.36 300.45 300.552 300.657 300.732 300.78 300.825 300.822 300.832 300.885 300.92 300.9 300.912 300.97 301.027 301.097 301.175 301.277 301.337 301.4 301.495 301.597 301.662 301.757 301.775 301.92 302.035 302.072 302.16 302.277 302.405 302.545 302.647 302.75 302.835 302.935 303.052 303.13 303.225 303.332 303.377 303.377 303.3 303.277 303.267 303.257 303.245 303.292 303.417 303.487 303.647 303.807 304.35 304.277 304.15 304.237 304.355 304.452 304.51 304.565 304.6 304.59 304.597 304.577 304.54 304.52 304.46
342.03 341.9 341.755 341.622 341.457 341.27 341.13 340.987 340.832 340.565 340.42 340.252 340.01 339.847 339.617 339.355 339.13 338.952 338.802 338.702 338.54 338.305 338.08 337.877 337.682 337.48 337.332 337.282 337.097 336.845 336.635 336.517 336.377 336.265 336.197 336.11 335.807 335.405 335.257 335.057 334.515 333.817 333.68 333.902 333.205 332.587 332.15 331.845 331.75 331.362 330.79 330.375 330.095 329.885 329.665 329.43 329.255 329.165 329.057 328.94 328.782 328.64 328.517 328.352 328.257 328.19 328.42 328.737 328.445 328.417 328.485 328.525 328.457 328.537 328.547 328.475 328.42 328.372 328.187 328.187 328.102 327.902 327.742 327.642 327.762 327.737 327.687 327.577 327.432 327.345 327.177 326.94 326.74 326.532 326.22 325.965 325.642 325.285 324.885 324.805 324.81 324.712 324.56 324.49 324.542 324.412 324.32 324.635 324.87 324.912 324.962 324.92 324.772 324.402 323.857 323.35 323.06 322.957 322.52 322.062 321.53 320.992 320.432 319.942 319.455 318.972 318.605 318.397 318.255 318.18 318.262 318.275 318.287 318.347 318.335 318.202 317.997 317.772 317.425 317.03 316.6 316.07 315.415 314.642 314.26 314.155 314.147 314.102 313.947 313.682 313.41 313.137 312.845 312.555 312.397 312.187 311.93 311.767 311.61 311.365 311.112 310.767 310.33 310.1 309.822 309.422 308.97 308.565 308.22 308.002 307.807 307.54 307.267 306.932 306.605 306.365 306.247 306.085 305.955 305.86 305.835 305.845 305.832 305.847 305.86 305.775 305.555 305.27 305.027 304.725 304.407 304.262 304.14 303.877 303.662 303.45 303.235 303.1 302.935 302.655 302.382 302.215 301.995 301.715 301.357 301.07 301.302 301.062 300.822 300.85 300.285 299.821 299.5 299.534 299.633 299.884 302.267 300.722 301.211 300.477 300.302 300.251 300.11 300.04 300.018 299.996 300.084 300.146 300.148 300.119 300.047 300.103 299.991 300.017 300.024 299.932 299.927 299.834 299.797 299.756 299.749 299.754 299.77 299.868 300.439 300.117 300.192 300.22 300.247 300.317 300.372 300.43 300.442 300.425 300.387 300.372 300.342 300.305 300.277 300.18 300.14 300.112 300.137 300.122 300.137 300.12 300.102 300.075 300.007 299.945 299.9 299.822 299.782 299.767 299.77 299.78 299.747 299.74 299.72 299.68 299.605 299.575 299.552 299.557 299.565 299.585 299.582 299.587 299.585 299.627 299.707 299.72 299.742 299.815 299.83 299.837 300.087 300.21 299.92 299.937 299.91 299.932 299.857 299.777 299.805 299.837 299.84 299.835 299.855 299.847 299.895 299.95 300.002 299.982 299.922 299.912 300.002 300.11 300.235 300.335 300.422 300.482 300.57 300.605 300.635 300.67 300.707 300.722 300.717 300.78 300.86 300.902 300.94 301.017 301.145 301.232 301.272 301.337 301.42 301.475 301.54 301.615 301.75 301.832 301.882 302.027 302.16 302.3 302.397 302.545 302.657 302.762 302.862 302.935 302.97 303.075 303.18 303.202 303.177 303.105 303.072 303.092 303.072 303.05 303.132 303.21 303.337 303.482 303.642 304.34 304.07 303.99 304.07 304.175 304.26 304.34 304.405 304.427 304.422 304.43 304.39 304.375 304.377 304.325
342.357 342.255 342.115 341.975 341.802 341.662 341.537 341.402 341.165 340.957 340.82 340.695 340.425 340.192 339.96 339.71 339.485 339.292 339.137 338.947 338.785 338.597 338.395 338.167 337.952 337.762 337.637 337.6 337.465 337.202 336.962 336.865 336.745 336.667 336.612 336.452 336.152 335.792 335.857 335.65 335.137 334.487 333.935 334.31 333.992 333.272 332.565 332.247 332.177 331.74 331.267 330.82 330.537 330.372 330.135 329.872 329.682 329.547 329.43 329.282 329.195 329.08 328.93 328.812 328.652 328.55 328.65 329.407 328.865 328.852 328.885 328.942 328.907 328.85 328.827 328.815 328.827 328.722 328.565 328.465 328.42 328.245 328.085 328.155 328.237 328.16 328.067 327.977 327.847 327.71 327.632 327.42 327.15 326.867 326.492 326.227 325.94 325.635 325.207 325.142 325.117 324.885 324.65 324.615 324.81 324.747 324.69 324.862 325.052 325.097 325.145 325.175 324.992 324.68 324.25 323.775 323.447 323.105 322.537 322.125 321.62 321.107 320.562 320.065 319.59 319.11 318.757 318.482 318.255 318.187 318.265 318.282 318.312 318.332 318.27 318.167 318.04 317.822 317.527 317.227 316.857 316.422 315.887 315.14 314.467 314.112 313.95 313.91 313.88 313.707 313.44 313.19 312.99 312.77 312.572 312.27 312.045 311.82 311.517 311.18 310.89 310.535 309.992 309.685 309.472 309.1 308.695 308.317 308.127 307.94 307.715 307.455 307.232 306.887 306.625 306.502 306.452 306.315 306.15 306.1 306.197 306.232 306.267 306.31 306.252 306.135 305.867 305.542 305.257 305.022 304.63 304.37 304.245 303.932 303.725 303.53 303.317 303.15 302.95 302.777 302.575 302.377 302.162 301.89 301.502 301.257 301.48 300.877 300.86 300.88 300.677 299.66 299.423 299.391 299.51 300.157 301.348 301.424 300.78 300.243 300.194 300.12 300.534 300.072 299.858 299.837 299.871 300.003 300.097 300.085 300.052 300.019 299.987 299.975 299.945 299.898 299.891 299.849 299.769 299.724 299.696 299.69 299.658 299.717 300.174 299.953 300.068 300.117 300.175 300.245 300.285 300.352 300.33 300.337 300.315 300.305 300.272 300.232 300.197 300.125 300.082 300.08 300.092 300.07 300.072 300.052 300.037 300.037 300 299.91 299.865 299.805 299.72 299.7 299.685 299.697 299.722 299.685 299.682 299.612 299.555 299.525 299.54 299.545 299.555 299.515 299.515 299.53 299.545 299.55 299.622 299.637 299.725 299.785 299.75 299.767 300.132 299.975 299.867 299.862 299.902 299.857 299.82 299.767 299.765 299.8 299.81 299.79 299.78 299.785 299.787 299.855 299.902 299.95 299.927 299.865 299.862 299.927 300.052 300.132 300.195 300.287 300.362 300.407 300.465 300.505 300.535 300.49 300.515 300.632 300.735 300.777 300.805 300.857 300.962 301.075 301.107 301.155 301.252 301.297 301.337 301.44 301.557 301.617 301.74 301.895 302.025 302.162 302.285 302.422 302.535 302.635 302.74 302.83 302.865 302.942 303.04 303.082 303.03 302.945 302.902 302.9 302.875 302.845 302.965 303.047 303.192 303.322 303.512 304.02 303.76 303.805 303.892 303.957 304.052 304.147 304.227 304.222 304.21 304.237 304.222 304.215 304.2 304.2
342.665 342.542 342.42 342.307 342.187 342.032 341.89 341.717 341.52 341.382 341.272 341.097 340.845 340.597 340.4 340.122 339.865 339.677 339.435 339.21 338.982 338.797 338.602 338.417 338.23 338.04 337.92 337.88 337.745 337.465 337.315 337.242 337.102 337.045 336.955 336.747 336.302 336.057 336.162 336.055 335.735 335.107 334.545 334.715 334.527 334.01 333.312 332.8 332.577 332.165 331.72 331.282 330.955 330.777 330.62 330.447 330.222 329.997 329.847 329.735 329.642 329.54 329.342 329.202 329.105 329.017 329.027 329.702 329.302 329.21 329.22 329.24 329.252 329.147 329.19 329.115 329.187 329.145 329.012 328.815 328.777 328.662 328.595 328.627 328.605 328.512 328.452 328.412 328.225 328.085 327.992 327.775 327.517 327.195 326.82 326.497 326.272 326.01 325.647 325.54 325.41 325.17 324.815 324.737 324.96 325.082 325.082 325.15 325.262 325.33 325.295 325.317 325.135 324.947 324.615 324.08 323.68 323.205 322.615 322.152 321.815 321.282 320.76 320.21 319.745 319.295 318.947 318.662 318.525 318.365 318.312 318.335 318.337 318.28 318.212 318.062 317.962 317.755 317.525 317.265 316.882 316.472 316.042 315.575 314.957 314.35 313.942 313.685 313.655 313.64 313.42 313.322 313.19 312.995 312.637 312.322 312.1 311.777 311.38 310.99 310.59 310.21 309.775 309.422 309.195 308.817 308.5 308.292 308.127 307.917 307.727 307.475 307.125 306.877 306.755 306.782 306.73 306.61 306.497 306.52 306.485 306.527 306.62 306.565 306.485 306.332 306.082 305.795 305.507 305.225 304.88 304.52 304.357 304.075 303.8 303.542 303.387 303.195 303.015 302.847 302.645 302.482 302.27 302.017 301.71 301.937 301.16 300.977 300.915 300.892 300.808 300.195 299.521 299.391 299.833 302.406 300.507 302.597 300.936 299.911 300.085 299.988 301.252 299.788 299.781 299.714 299.67 299.817 300.01 300.048 300.03 300.011 299.956 299.917 299.857 299.855 299.831 299.819 299.777 299.702 299.687 299.66 299.622 299.856 299.962 299.732 299.834 299.94 300.045 300.12 300.185 300.252 300.245 300.23 300.207 300.207 300.177 300.155 300.087 300.025 300.02 300.04 300.027 300.047 300.025 299.997 299.967 299.977 299.947 299.865 299.837 299.777 299.722 299.677 299.632 299.617 299.622 299.637 299.627 299.585 299.525 299.515 299.51 299.502 299.49 299.442 299.452 299.455 299.462 299.517 299.555 299.597 299.625 299.695 299.7 299.72 300.157 299.912 299.792 299.77 299.815 299.782 299.767 299.715 299.687 299.717 299.765 299.77 299.715 299.715 299.747 299.765 299.81 299.885 299.85 299.827 299.802 299.835 299.9 299.947 299.992 300.05 300.147 300.205 300.282 300.335 300.365 300.307 300.347 300.477 300.565 300.647 300.67 300.727 300.792 300.89 300.95 301.015 301.102 301.122 301.182 301.292 301.395 301.482 301.63 301.777 301.9 302.042 302.177 302.325 302.432 302.53 302.627 302.677 302.732 302.822 302.897 302.92 302.842 302.785 302.73 302.747 302.705 302.68 302.762 302.86 303.012 303.155 303.46 303.992 303.55 303.637 303.717 303.78 303.867 303.937 304.01 304.042 304.057 304.075 304.055 304.035 304.032 304.035
343.005 342.872 342.737 342.64 342.515 342.322 342.207 342.042 341.872 341.767 341.615 341.452 341.237 341.055 340.842 340.55 340.325 340.037 339.732 339.485 339.227 339.015 338.86 338.685 338.517 338.355 338.222 338.112 337.965 337.78 337.657 337.527 337.417 337.34 337.242 337.07 336.695 336.347 336.482 336.34 336.145 335.787 335.395 335.192 334.93 334.457 333.927 333.435 332.982 332.575 332.142 331.722 331.405 331.225 331.07 330.91 330.692 330.45 330.357 330.195 330.087 329.967 329.807 329.65 329.562 329.542 329.54 330.002 329.86 329.615 329.56 329.605 329.65 329.422 329.53 329.54 329.522 329.397 329.317 329.217 329.2 329.147 329.08 329.067 329.012 328.922 328.847 328.765 328.635 328.442 328.287 328.055 327.78 327.43 327.09 326.847 326.675 326.347 326.015 325.802 325.69 325.497 325.237 325.14 325.28 325.355 325.345 325.38 325.45 325.547 325.52 325.437 325.31 325.182 324.86 324.38 323.835 323.222 322.682 322.262 321.97 321.537 320.992 320.472 319.98 319.5 319.132 318.897 318.772 318.597 318.482 318.45 318.357 318.29 318.217 318.052 317.867 317.665 317.467 317.22 316.862 316.497 316.102 315.725 315.242 314.712 314.2 313.755 313.392 313.262 313.21 313.227 313.285 313.12 312.81 312.422 312.122 311.712 311.24 310.81 310.402 310.032 309.642 309.295 309.037 308.765 308.527 308.337 308.165 307.97 307.77 307.337 307.172 307.15 307.117 307.087 306.997 306.937 306.875 306.912 306.887 306.832 306.852 306.83 306.72 306.592 306.387 306.14 305.8 305.44 305.092 304.757 304.512 304.302 303.932 303.66 303.442 303.28 303.102 302.905 302.71 302.512 302.387 302.122 302.402 301.56 301.327 301.107 300.987 300.907 300.865 300.662 299.711 299.252 299.506 301.677 301.044 300.084 301.156 300.251 301.428 299.727 299.761 299.799 299.692 299.588 299.559 299.664 299.923 299.992 300.026 299.992 299.944 299.885 299.823 299.797 299.793 299.793 299.784 299.694 299.668 299.645 299.597 299.818 299.646 299.543 299.617 299.713 299.85 299.992 300.08 300.15 300.182 300.15 300.127 300.107 300.082 300.06 299.96 299.947 299.957 299.972 299.995 299.987 299.995 299.962 299.917 299.882 299.855 299.785 299.762 299.73 299.695 299.697 299.625 299.577 299.572 299.557 299.562 299.512 299.46 299.465 299.457 299.447 299.425 299.387 299.377 299.365 299.395 299.442 299.48 299.515 299.577 299.585 299.57 299.615 300.27 299.732 299.69 299.677 299.68 299.675 299.67 299.625 299.607 299.637 299.697 299.68 299.655 299.647 299.697 299.745 299.747 299.815 299.817 299.792 299.762 299.755 299.81 299.837 299.832 299.887 299.957 300.005 300.062 300.147 300.215 300.162 300.22 300.305 300.382 300.44 300.517 300.552 300.617 300.69 300.76 300.857 300.952 300.992 301.065 301.177 301.28 301.375 301.495 301.632 301.757 301.935 302.047 302.197 302.322 302.42 302.505 302.547 302.58 302.685 302.745 302.747 302.687 302.63 302.592 302.597 302.55 302.527 302.59 302.695 302.827 303.005 303.285 303.727 303.355 303.442 303.522 303.575 303.645 303.712 303.787 303.842 303.872 303.867 303.877 303.882 303.872 303.862
343.4 343.267 343.14 342.915 342.74 342.582 342.46 342.375 342.222 342.07 341.935 341.737 341.61 341.402 341.212 340.965 340.685 340.367 340.055 339.857 339.605 339.345 339.167 339.015 338.837 338.662 338.51 338.41 338.235 338.085 337.947 337.807 337.71 337.597 337.51 337.332 337.13 336.91 336.81 336.62 336.4 336.15 335.84 335.487 335.195 334.735 334.217 333.767 333.347 332.975 332.52 332.112 331.8 331.577 331.522 331.342 331.135 330.905 330.737 330.607 330.502 330.472 330.4 330.212 330.117 330.095 330.127 330.337 330.472 330.075 330.01 330.045 330.085 329.945 330 329.947 329.762 329.802 329.75 329.705 329.715 329.63 329.587 329.51 329.367 329.307 329.212 329.097 328.97 328.832 328.607 328.362 328.095 327.722 327.395 327.19 326.97 326.617 326.35 326.1 325.932 325.83 325.695 325.537 325.575 325.582 325.555 325.542 325.607 325.662 325.667 325.66 325.557 325.382 325.067 324.65 324.047 323.415 322.842 322.415 322.087 321.74 321.265 320.715 320.23 319.715 319.307 319.12 318.96 318.777 318.647 318.57 318.392 318.32 318.215 318.025 317.865 317.66 317.487 317.232 316.902 316.495 316.137 315.735 315.267 314.93 314.582 314.095 313.502 313.167 312.977 312.922 312.945 313.03 312.8 312.472 312.062 311.557 311.08 310.675 310.257 309.9 309.58 309.285 309.03 308.832 308.647 308.467 308.292 308.02 307.672 307.377 307.517 307.61 307.43 307.247 307.242 307.272 307.29 307.315 307.32 307.327 307.295 307.237 307.147 306.965 306.765 306.555 306.177 305.745 305.275 304.902 304.682 304.467 304.157 303.797 303.572 303.355 303.197 303.005 302.825 302.645 302.44 302.685 302.11 301.707 301.52 301.3 301.13 301.017 300.921 300.782 300.429 299.568 299.513 300.495 301.655 301.663 301.337 300.153 300.458 299.856 299.855 299.945 300.094 299.489 299.427 299.513 299.752 299.832 299.859 299.872 299.929 299.883 299.826 299.771 299.699 299.736 299.724 299.682 299.675 299.637 299.582 300.02 299.673 299.42 299.451 299.503 299.638 299.805 299.957 300.005 300.03 300.025 300.022 300.007 299.99 299.977 299.897 299.867 299.91 299.922 299.952 299.97 299.955 299.925 299.885 299.832 299.827 299.757 299.682 299.627 299.622 299.635 299.607 299.545 299.542 299.455 299.46 299.43 299.407 299.395 299.395 299.372 299.357 299.327 299.29 299.292 299.307 299.337 299.365 299.402 299.472 299.465 299.472 299.562 300.087 299.525 299.537 299.552 299.527 299.522 299.532 299.52 299.527 299.565 299.595 299.62 299.577 299.595 299.627 299.637 299.71 299.792 299.797 299.747 299.712 299.72 299.727 299.74 299.752 299.742 299.777 299.827 299.89 299.992 300.065 300.075 300.085 300.157 300.222 300.272 300.307 300.357 300.407 300.482 300.572 300.685 300.775 300.822 300.915 301.057 301.157 301.225 301.35 301.517 301.667 301.797 301.922 302.057 302.2 302.3 302.38 302.4 302.467 302.56 302.602 302.595 302.512 302.452 302.427 302.447 302.425 302.4 302.43 302.525 302.64 302.82 303.19 303.362 303.157 303.235 303.302 303.385 303.47 303.52 303.605 303.642 303.7 303.722 303.717 303.717 303.705 303.68
343.717 343.695 343.585 343.34 343.105 342.897 342.752 342.64 342.495 342.37 342.237 342.042 341.875 341.722 341.485 341.292 341.062 340.69 340.455 340.305 340.045 339.762 339.497 339.327 339.13 338.927 338.745 338.672 338.51 338.365 338.225 338.135 337.975 337.84 337.707 337.547 337.395 337.26 337.05 336.88 336.682 336.405 336.082 335.742 335.41 334.962 334.525 334.122 333.722 333.36 332.912 332.527 332.167 331.952 331.86 331.715 331.517 331.242 331.125 330.952 330.912 330.95 330.917 330.807 330.747 330.7 330.702 330.732 331.235 330.545 330.505 330.55 330.527 330.47 330.425 330.337 330.205 330.247 330.232 330.205 330.207 330.145 330.03 329.917 329.815 329.682 329.607 329.462 329.222 329.127 328.962 328.705 328.402 328.065 327.722 327.457 327.195 326.925 326.655 326.41 326.235 326.12 325.97 325.872 325.887 325.835 325.727 325.67 325.74 325.785 325.775 325.802 325.74 325.572 325.252 324.82 324.332 323.817 323.2 322.665 322.27 321.837 321.472 320.972 320.497 320.002 319.617 319.315 319.167 318.945 318.792 318.645 318.502 318.375 318.237 318.012 317.795 317.577 317.4 317.185 316.907 316.585 316.235 315.817 315.367 315.055 314.71 314.267 313.767 313.377 313.032 312.7 312.57 312.507 312.412 312.285 312.015 311.447 310.96 310.495 310.13 309.837 309.517 309.292 309.075 308.945 308.822 308.612 308.34 307.975 307.832 307.915 307.89 307.742 307.612 307.557 307.612 307.675 307.757 307.77 307.802 307.797 307.842 307.81 307.657 307.452 307.265 307.035 306.625 306.07 305.427 304.885 304.79 304.627 304.39 303.967 303.69 303.477 303.305 303.13 302.94 302.75 302.585 302.577 302.055 301.905 301.72 301.445 301.247 301.102 300.976 300.884 300.727 300.425 299.652 299.07 298.876 298.906 301.504 298.961 299.294 299.693 299.996 300.557 300.627 299.384 299.471 299.6 299.395 299.643 299.724 299.746 299.789 299.803 299.777 299.745 299.675 299.67 299.626 299.612 299.631 299.598 299.586 299.965 299.488 299.381 299.358 299.361 299.447 299.561 299.735 299.877 299.925 299.94 299.942 299.92 299.912 299.875 299.817 299.83 299.825 299.89 299.935 299.935 299.922 299.855 299.807 299.765 299.75 299.707 299.63 299.585 299.565 299.585 299.54 299.525 299.467 299.412 299.417 299.357 299.34 299.337 299.345 299.32 299.277 299.245 299.22 299.21 299.222 299.237 299.252 299.297 299.335 299.297 299.302 299.692 299.582 299.325 299.337 299.387 299.392 299.382 299.372 299.42 299.442 299.48 299.455 299.43 299.432 299.482 299.517 299.577 299.687 299.767 299.772 299.712 299.657 299.65 299.65 299.652 299.667 299.647 299.627 299.645 299.73 299.795 299.885 299.92 299.93 300.005 300.085 300.105 300.107 300.155 300.2 300.305 300.38 300.472 300.562 300.667 300.782 300.905 300.977 301.102 301.255 301.38 301.54 301.66 301.79 301.95 302.052 302.137 302.225 302.262 302.352 302.475 302.492 302.42 302.325 302.277 302.27 302.28 302.27 302.255 302.262 302.345 302.437 302.595 303.002 302.942 302.927 303.027 303.1 303.22 303.272 303.322 303.372 303.477 303.535 303.552 303.572 303.532 303.537 303.51
344.095 344.09 343.972 343.725 343.535 343.33 343.125 343.025 342.832 342.702 342.59 342.375 342.155 341.997 341.757 341.6 341.325 341.062 340.825 340.595 340.375 340.117 339.897 339.662 339.422 339.215 339.052 338.937 338.78 338.612 338.487 338.33 338.207 338.085 337.937 337.807 337.64 337.482 337.305 337.11 336.902 336.645 336.332 335.977 335.635 335.235 334.865 334.557 334.167 333.81 333.452 333.01 332.582 332.322 332.232 332.032 331.81 331.592 331.422 331.34 331.302 331.345 331.445 331.375 331.27 331.187 331.285 331.307 331.952 331.11 331.065 331.005 330.877 330.87 330.872 330.862 330.772 330.792 330.73 330.632 330.65 330.555 330.487 330.352 330.217 330.112 329.992 329.86 329.625 329.467 329.412 329.15 328.777 328.417 328.037 327.75 327.465 327.265 327.017 326.727 326.535 326.425 326.282 326.187 326.16 326.06 325.955 325.86 325.84 325.862 325.842 325.86 325.895 325.732 325.527 325.097 324.737 324.272 323.652 323.045 322.617 322.025 321.647 321.247 320.78 320.33 319.955 319.635 319.375 319.132 318.89 318.7 318.567 318.4 318.202 317.977 317.757 317.52 317.34 317.105 316.792 316.515 316.185 315.835 315.42 315.12 314.747 314.34 314.082 313.867 313.505 312.937 312.41 312.15 312.055 311.997 311.812 311.332 310.877 310.45 310.087 309.785 309.592 309.452 309.3 309.162 309.01 308.552 308.372 308.432 308.367 308.232 308.062 307.925 307.887 307.945 308.105 308.23 308.317 308.327 308.332 308.335 308.362 308.262 308.167 308 307.797 307.54 307.092 306.355 305.405 304.905 304.832 304.77 304.625 304.17 303.842 303.59 303.36 303.135 302.94 302.822 302.977 302.327 302.252 302.065 301.88 301.62 301.435 301.245 301.092 300.98 300.835 300.654 300.282 299.934 299.495 299.402 299.306 300.283 301.537 299.856 301.564 299.291 300.092 303.605 301.6 301.841 299.801 299.42 299.526 299.561 299.732 299.608 299.697 299.703 299.625 299.608 299.562 299.555 299.581 299.54 299.542 299.989 299.485 299.356 299.33 299.286 299.293 299.351 299.502 299.657 299.782 299.822 299.852 299.835 299.83 299.822 299.772 299.78 299.785 299.827 299.83 299.872 299.86 299.785 299.752 299.745 299.702 299.647 299.615 299.562 299.53 299.54 299.55 299.505 299.39 299.387 299.365 299.312 299.292 299.282 299.262 299.242 299.227 299.207 299.165 299.135 299.14 299.147 299.127 299.145 299.167 299.135 299.147 299.65 299.292 299.17 299.21 299.245 299.24 299.235 299.22 299.287 299.315 299.332 299.317 299.302 299.307 299.39 299.452 299.51 299.615 299.672 299.69 299.64 299.615 299.625 299.627 299.602 299.565 299.555 299.515 299.53 299.57 299.627 299.695 299.735 299.74 299.81 299.9 299.895 299.925 299.965 299.985 300.067 300.18 300.262 300.357 300.502 300.675 300.767 300.845 300.975 301.095 301.262 301.382 301.54 301.69 301.787 301.895 301.995 302.057 302.13 302.225 302.327 302.36 302.312 302.2 302.12 302.107 302.117 302.095 302.11 302.102 302.157 302.27 302.392 302.985 302.64 302.682 302.782 302.917 302.995 303.075 303.13 303.182 303.285 303.367 303.342 303.38 303.385 303.37 303.325
344.495 344.44 344.295 344.105 343.947 343.712 343.555 343.432 343.205 343.065 342.93 342.712 342.487 342.237 342.04 341.842 341.612 341.37 341.145 340.892 340.662 340.405 340.197 339.945 339.715 339.497 339.37 339.205 339.007 338.877 338.722 338.577 338.46 338.312 338.172 337.997 337.83 337.7 337.547 337.32 337.077 336.817 336.527 336.207 335.865 335.545 335.235 334.927 334.575 334.305 333.927 333.45 333.005 332.687 332.572 332.38 332.185 331.95 331.807 331.72 331.72 331.745 331.897 331.967 331.832 331.787 331.857 331.817 332.015 331.835 331.467 331.397 331.35 331.332 331.317 331.292 331.245 331.247 331.222 331.15 331.087 330.962 330.887 330.74 330.61 330.465 330.31 330.217 330.012 329.865 329.815 329.615 329.185 328.815 328.427 328.09 327.827 327.542 327.29 327.07 326.877 326.707 326.542 326.432 326.35 326.295 326.195 326.062 325.965 325.992 325.96 325.952 326.027 325.96 325.71 325.417 324.972 324.537 323.962 323.49 322.957 322.405 321.85 321.437 321.025 320.615 320.235 319.915 319.595 319.297 318.967 318.78 318.627 318.447 318.23 318.01 317.785 317.537 317.275 317.037 316.78 316.545 316.257 315.877 315.53 315.192 314.812 314.562 314.405 314.205 313.877 313.335 312.605 311.96 311.655 311.652 311.545 311.212 310.875 310.502 310.165 309.905 309.775 309.685 309.502 309.24 308.947 308.842 308.94 308.792 308.615 308.442 308.32 308.365 308.372 308.48 308.58 308.757 308.832 308.88 308.89 308.9 308.862 308.86 308.707 308.56 308.332 308.02 307.587 306.695 305.642 305.06 304.815 304.81 304.737 304.46 304.022 303.645 303.327 303.135 302.907 303.45 302.527 302.522 302.427 302.247 302.075 301.835 301.6 301.39 301.267 301.143 300.967 300.758 300.608 300.465 300.01 299.388 299.896 301.034 301.73 305.604 304.598 301.183 300.58 303.042 302.283 301.363 299.752 299.333 299.475 299.105 302.224 299.081 299.467 299.547 299.552 299.541 299.527 299.493 299.491 299.479 299.723 299.662 299.374 299.342 299.32 299.266 299.226 299.242 299.306 299.397 299.532 299.657 299.725 299.697 299.72 299.692 299.682 299.697 299.74 299.775 299.742 299.775 299.785 299.737 299.687 299.67 299.657 299.622 299.567 299.515 299.487 299.472 299.482 299.43 299.312 299.297 299.277 299.277 299.27 299.245 299.207 299.205 299.187 299.16 299.132 299.082 299.082 299.07 299.07 299.065 299.04 299.005 299.002 299.432 299.027 299.04 299.08 299.07 299.087 299.107 299.077 299.125 299.182 299.177 299.167 299.225 299.275 299.322 299.377 299.442 299.505 299.587 299.59 299.562 299.55 299.605 299.625 299.617 299.547 299.502 299.45 299.43 299.442 299.482 299.57 299.562 299.57 299.652 299.695 299.702 299.697 299.76 299.795 299.887 299.977 300.085 300.17 300.3 300.505 300.617 300.7 300.87 301.012 301.15 301.237 301.397 301.532 301.645 301.78 301.85 301.925 301.995 302.1 302.21 302.285 302.225 302.075 301.982 301.935 301.935 301.93 301.947 301.965 302.007 302.115 302.312 302.93 302.405 302.492 302.585 302.707 302.77 302.852 302.94 302.997 303.055 303.137 303.157 303.182 303.162 303.172 303.13
344.912 344.78 344.612 344.48 344.377 344.192 343.987 343.785 343.577 343.402 343.255 343.072 342.82 342.582 342.32 342.092 341.862 341.645 341.39 341.135 340.91 340.667 340.447 340.202 340.012 339.832 339.665 339.452 339.285 339.137 338.945 338.777 338.65 338.502 338.38 338.187 338.005 337.847 337.68 337.485 337.227 336.965 336.737 336.44 336.142 335.905 335.595 335.315 335.035 334.74 334.367 333.917 333.357 333.03 332.965 332.742 332.58 332.407 332.257 332.195 332.235 332.4 332.37 332.397 332.377 332.422 332.35 332.232 332.372 332.587 331.98 331.892 331.815 331.752 331.745 331.69 331.68 331.685 331.642 331.632 331.557 331.41 331.317 331.232 331.087 330.887 330.74 330.572 330.397 330.257 330.13 329.88 329.557 329.285 328.812 328.435 328.195 327.88 327.615 327.387 327.167 326.945 326.782 326.637 326.532 326.437 326.377 326.295 326.19 326.195 326.157 326.185 326.245 326.18 325.952 325.7 325.302 324.785 324.315 323.765 323.195 322.69 322.095 321.562 321.237 320.88 320.51 320.142 319.807 319.497 319.23 318.992 318.717 318.532 318.292 318.062 317.82 317.587 317.32 317.075 316.835 316.6 316.342 315.987 315.652 315.305 314.967 314.737 314.55 314.312 314.012 313.502 312.762 312.007 311.557 311.335 311.32 311.225 310.892 310.58 310.265 310.087 309.88 309.687 309.367 309.21 309.135 309.157 309.097 308.885 308.795 308.8 308.81 308.955 308.957 309.107 309.157 309.255 309.35 309.442 309.532 309.537 309.457 309.38 309.265 309.07 308.84 308.525 307.87 306.915 306.165 305.39 304.9 304.802 304.815 304.71 304.165 303.707 303.345 303.2 303.347 303.025 302.69 302.69 302.582 302.415 302.23 302.05 301.795 301.567 301.41 301.269 301.095 300.96 300.764 300.594 300.421 300.853 299.697 300.376 300.094 298.143 298.356 300.518 300.897 301.399 302.763 300.822 301.649 299.123 300.348 301.487 300.714 299.269 299.23 299.358 299.409 299.442 299.422 299.422 299.391 299.337 299.767 299.922 299.358 299.334 299.329 299.277 299.211 299.187 299.176 299.2 299.262 299.412 299.527 299.59 299.645 299.567 299.587 299.605 299.675 299.722 299.695 299.725 299.71 299.665 299.642 299.62 299.577 299.537 299.492 299.472 299.432 299.385 299.392 299.352 299.285 299.277 299.242 299.217 299.202 299.195 299.185 299.147 299.152 299.117 299.09 299.045 299.037 299.012 298.99 298.99 298.98 298.925 298.977 299.3 298.917 298.942 299.007 298.975 299.005 298.98 298.985 298.997 299.037 299.03 299.045 299.107 299.15 299.21 299.247 299.347 299.405 299.465 299.48 299.47 299.51 299.58 299.577 299.55 299.537 299.5 299.417 299.37 299.35 299.37 299.43 299.405 299.43 299.497 299.532 299.552 299.532 299.582 299.655 299.762 299.825 299.937 299.997 300.142 300.312 300.422 300.542 300.725 300.887 301.032 301.14 301.275 301.397 301.502 301.62 301.712 301.757 301.827 301.972 302.075 302.202 302.105 301.937 301.815 301.782 301.762 301.757 301.762 301.795 301.825 301.925 302.192 302.62 302.215 302.28 302.377 302.467 302.537 302.61 302.695 302.777 302.87 302.965 302.977 302.965 302.972 302.96 302.887
345.325 345.18 345.015 344.877 344.827 344.625 344.397 344.165 343.93 343.73 343.562 343.365 343.127 342.912 342.697 342.462 342.185 341.955 341.675 341.397 341.185 340.952 340.712 340.47 340.282 340.11 339.905 339.692 339.48 339.32 339.15 339.017 338.835 338.675 338.572 338.405 338.172 338.03 337.822 337.615 337.392 337.207 336.91 336.675 336.462 336.237 335.957 335.705 335.44 335.12 334.737 334.257 333.732 333.4 333.29 333.182 333.022 332.847 332.717 332.647 332.74 332.95 332.857 332.87 332.92 332.835 332.727 332.73 332.762 333.317 332.49 332.34 332.235 332.17 332.182 332.145 332.15 332.165 332.117 332.055 331.952 331.847 331.78 331.657 331.5 331.34 331.215 331.002 330.792 330.705 330.592 330.227 329.9 329.552 329.195 328.775 328.505 328.19 327.895 327.652 327.42 327.212 327.02 326.875 326.74 326.62 326.552 326.49 326.445 326.42 326.365 326.425 326.442 326.342 326.137 325.89 325.522 325.015 324.507 323.95 323.42 322.845 322.225 321.837 321.482 321.135 320.76 320.385 320.017 319.745 319.497 319.212 318.937 318.667 318.377 318.14 317.887 317.61 317.352 317.07 316.87 316.61 316.337 316.047 315.7 315.4 315.105 314.82 314.645 314.412 314.13 313.652 312.862 312.04 311.57 311.352 311.207 311.165 311.045 310.74 310.392 310.152 309.86 309.56 309.492 309.515 309.467 309.357 309.245 309.192 309.235 309.295 309.35 309.332 309.45 309.61 309.66 309.69 309.84 309.992 310.072 310.097 310.04 309.94 309.79 309.577 309.347 308.992 308.177 307.145 306.627 305.88 305.005 304.835 304.852 304.777 304.405 303.862 303.522 303.337 303.582 302.965 302.855 302.772 302.64 302.485 302.355 302.212 302.025 301.835 301.68 301.532 301.241 301.067 300.926 300.79 300.701 300.49 300.331 299.868 299.289 298.691 300.81 302.556 300.962 298.99 298.49 302.738 304.651 306.441 307.667 307.662 304.522 299.639 299.001 299.002 299.139 299.199 299.283 299.213 299.242 299.204 299.615 299.639 299.336 299.326 299.337 299.289 299.245 299.225 299.145 299.112 299.11 299.187 299.337 299.472 299.56 299.512 299.502 299.535 299.615 299.645 299.652 299.657 299.64 299.61 299.582 299.552 299.512 299.467 299.435 299.415 299.4 299.352 299.357 299.282 299.262 299.252 299.232 299.197 299.152 299.115 299.12 299.102 299.065 299.065 299.067 299.05 299.022 298.99 298.92 298.962 298.92 298.865 299.1 299.182 298.837 298.865 298.922 298.947 298.942 298.912 298.917 298.935 298.917 298.915 298.94 298.992 299.022 299.047 299.105 299.195 299.255 299.255 299.327 299.33 299.362 299.412 299.465 299.497 299.522 299.485 299.465 299.375 299.337 299.307 299.325 299.265 299.26 299.31 299.35 299.34 299.375 299.457 299.535 299.627 299.687 299.805 299.882 300.032 300.18 300.237 300.402 300.597 300.745 300.852 301.007 301.125 301.26 301.37 301.512 301.582 301.617 301.722 301.872 301.967 302.062 301.93 301.777 301.652 301.615 301.565 301.545 301.567 301.532 301.57 301.707 301.995 302.132 302 302.085 302.152 302.225 302.28 302.325 302.41 302.515 302.682 302.75 302.772 302.785 302.787 302.745 302.705
345.76 345.652 345.457 345.242 345.17 345.02 344.787 344.577 344.335 344.105 343.915 343.66 343.442 343.215 343.022 342.782 342.495 342.257 341.985 341.675 341.427 341.207 340.99 340.725 340.562 340.357 340.14 339.977 339.772 339.57 339.39 339.225 339.025 338.837 338.705 338.58 338.377 338.17 338.005 337.827 337.57 337.385 337.162 336.95 336.745 336.55 336.32 336.087 335.87 335.472 335.082 334.612 334.097 333.802 333.682 333.625 333.48 333.322 333.19 333.13 333.13 333.232 333.215 333.267 333.305 333.29 333.272 333.29 333.195 333.697 333.002 332.797 332.7 332.657 332.645 332.585 332.64 332.65 332.632 332.522 332.412 332.347 332.195 332.05 331.885 331.722 331.637 331.462 331.337 331.27 331.07 330.715 330.295 329.835 329.497 329.165 328.855 328.465 328.162 327.922 327.725 327.532 327.327 327.115 326.935 326.832 326.717 326.66 326.637 326.592 326.56 326.585 326.562 326.485 326.305 326.075 325.687 325.16 324.69 324.152 323.555 322.91 322.525 322.11 321.672 321.312 320.927 320.57 320.215 319.905 319.662 319.372 319.085 318.797 318.51 318.25 317.972 317.675 317.335 317.067 316.865 316.645 316.397 316.13 315.825 315.515 315.245 314.96 314.69 314.48 314.212 313.74 312.805 312.017 311.722 311.542 311.287 311.117 310.965 310.895 310.572 310.125 309.79 309.79 309.88 309.795 309.7 309.66 309.7 309.795 309.855 309.93 309.952 309.96 310.002 310.127 310.13 310.11 310.255 310.42 310.497 310.545 310.522 310.44 310.287 310.145 309.925 309.55 308.642 307.647 307.147 306.387 305.292 304.817 304.822 304.785 304.635 304.195 303.76 303.967 303.235 303.082 302.965 302.82 302.695 302.545 302.405 302.21 302.112 301.997 301.85 301.662 301.5 301.227 301.076 300.93 300.796 300.632 300.55 300.347 299.937 299.4 300.751 301.308 299.227 298.447 298.371 299.315 303.72 306.831 307.932 308.625 307.614 303.675 298.633 298.838 298.979 299.014 298.752 298.875 299.022 299.036 299.315 299.253 299.246 299.289 299.279 299.255 299.251 299.258 299.183 299.117 299.065 299.065 299.172 299.335 299.42 299.42 299.437 299.47 299.502 299.557 299.567 299.577 299.55 299.532 299.51 299.49 299.477 299.42 299.36 299.355 299.357 299.342 299.33 299.287 299.252 299.227 299.2 299.157 299.147 299.122 299.08 299.07 299.017 299.017 299 298.987 298.98 298.932 298.902 298.912 298.867 298.85 299.275 298.88 298.757 298.79 298.862 298.885 298.892 298.882 298.845 298.837 298.857 298.837 298.85 298.882 298.882 298.937 298.947 299.007 299.097 299.092 299.132 299.15 299.175 299.215 299.25 299.317 299.402 299.425 299.435 299.4 299.33 299.302 299.26 299.145 299.152 299.175 299.147 299.045 299.227 299.332 299.442 299.522 299.585 299.667 299.785 299.925 300.005 300.08 300.25 300.457 300.605 300.742 300.88 300.992 301.142 301.222 301.37 301.43 301.495 301.637 301.742 301.832 301.865 301.735 301.612 301.51 301.442 301.375 301.355 301.335 301.332 301.345 301.42 302.11 301.91 301.765 301.862 301.92 301.987 302.005 302.037 302.092 302.215 302.39 302.51 302.565 302.615 302.577 302.56 302.522
346.262 346.162 345.925 345.707 345.525 345.337 345.107 344.957 344.71 344.517 344.282 344.057 343.79 343.527 343.265 343.005 342.772 342.547 342.307 341.982 341.727 341.512 341.255 340.99 340.82 340.645 340.445 340.312 340.067 339.835 339.595 339.455 339.247 339.04 338.877 338.72 338.495 338.315 338.155 338.035 337.852 337.65 337.412 337.22 337.037 336.852 336.647 336.43 336.202 335.812 335.375 334.895 334.477 334.215 334.085 334.025 333.915 333.74 333.64 333.54 333.507 333.552 333.67 333.77 333.755 333.747 333.772 333.762 333.717 334.045 333.52 333.315 333.212 333.217 333.162 333.09 333.152 333.137 333.152 333.002 332.855 332.795 332.662 332.502 332.305 332.137 332.025 331.865 331.717 331.595 331.365 331.017 330.585 330.197 329.855 329.487 329.127 328.742 328.47 328.242 328.022 327.797 327.542 327.362 327.15 326.992 326.905 326.8 326.767 326.705 326.662 326.687 326.602 326.54 326.432 326.197 325.762 325.322 324.84 324.315 323.792 323.262 322.752 322.297 321.865 321.47 321.135 320.692 320.382 320.067 319.762 319.53 319.257 318.902 318.63 318.362 318.03 317.71 317.402 317.135 316.905 316.68 316.472 316.185 315.875 315.59 315.36 315.007 314.757 314.55 314.267 313.687 312.88 312.305 311.972 311.855 311.552 311.312 311.017 310.71 310.457 310.14 310.222 310.395 310.242 310.202 310.192 310.305 310.272 310.385 310.415 310.485 310.575 310.645 310.78 310.83 310.745 310.685 310.787 310.892 310.972 310.962 310.977 310.865 310.757 310.627 310.402 310.002 309.192 308.477 307.847 306.967 305.822 304.895 304.825 304.805 304.745 304.575 304.555 303.607 303.36 303.177 303.027 302.92 302.755 302.622 302.497 302.415 302.275 302.215 302.027 301.852 301.66 301.545 301.422 301.064 300.932 300.844 300.803 300.673 300.338 299.979 300.955 299.89 299.633 299.021 298.87 298.618 299.618 301.652 306.821 307.48 305.958 302.227 298.914 298.793 298.84 298.671 298.41 298.35 298.827 299.033 299.886 299.178 299.167 299.198 299.202 299.2 299.196 299.248 299.217 299.195 299.095 299.05 299.037 299.12 299.257 299.345 299.412 299.427 299.442 299.465 299.477 299.482 299.505 299.482 299.477 299.455 299.432 299.38 299.35 299.342 299.275 299.27 299.277 299.247 299.237 299.19 299.175 299.135 299.112 299.102 299.085 299.045 299.015 298.96 298.932 298.935 298.887 298.86 298.88 298.847 298.805 298.787 299.267 298.815 298.72 298.772 298.835 298.797 298.812 298.8 298.795 298.82 298.832 298.797 298.755 298.78 298.815 298.825 298.835 298.912 298.965 298.935 298.952 298.99 299.005 299.03 299.075 299.115 299.197 299.25 299.31 299.297 299.3 299.265 299.162 299.137 299.1 299.09 299.102 299.132 299.175 299.227 299.38 299.462 299.527 299.572 299.675 299.83 299.877 299.917 300.1 300.287 300.472 300.587 300.747 300.86 300.992 301.115 301.237 301.29 301.357 301.522 301.652 301.682 301.645 301.55 301.432 301.332 301.3 301.242 301.202 301.165 301.122 301.105 301.187 301.845 301.952 301.615 301.585 301.687 301.692 301.712 301.74 301.802 301.927 302.08 302.24 302.357 302.4 302.365 302.347 302.305
346.8 346.63 346.412 346.16 345.91 345.647 345.45 345.247 345.072 344.907 344.685 344.387 344.162 343.865 343.56 343.29 343.047 342.84 342.57 342.307 342.042 341.84 341.567 341.295 341.13 340.95 340.765 340.607 340.38 340.125 339.855 339.67 339.455 339.24 339.077 338.885 338.65 338.452 338.292 338.175 338.015 337.842 337.65 337.482 337.292 337.15 336.927 336.707 336.435 336.057 335.605 335.165 334.855 334.647 334.507 334.477 334.347 334.207 334.182 333.997 333.975 334.025 334.107 334.212 334.205 334.2 334.265 334.29 334.267 334.59 334.322 333.922 333.817 333.725 333.667 333.65 333.64 333.662 333.632 333.497 333.315 333.24 333.087 332.932 332.665 332.495 332.357 332.187 331.945 331.77 331.537 331.2 330.842 330.53 330.17 329.807 329.402 329.027 328.745 328.502 328.24 328.027 327.792 327.565 327.36 327.172 327.047 326.94 326.905 326.83 326.74 326.707 326.642 326.592 326.49 326.222 325.85 325.44 324.972 324.482 323.995 323.435 322.92 322.475 322 321.607 321.22 320.802 320.507 320.217 319.937 319.665 319.392 319.045 318.75 318.427 318.075 317.767 317.502 317.245 316.997 316.755 316.462 316.16 315.802 315.407 315.31 315.182 314.942 314.762 314.312 313.707 313.097 312.57 312.212 312.06 311.75 311.465 311.087 310.71 310.465 310.35 310.522 310.68 310.785 310.747 310.825 310.86 310.92 310.975 311.042 311.212 311.242 311.34 311.372 311.487 311.382 311.245 311.197 311.277 311.312 311.365 311.395 311.335 311.21 311.035 310.83 310.432 309.82 309.162 308.38 307.36 306.305 305.182 304.83 304.84 304.797 304.632 304.342 303.817 303.505 303.275 303.117 302.977 302.817 302.682 302.542 302.48 302.447 302.387 302.237 302.042 301.87 301.73 301.647 301.485 301.315 300.97 300.928 300.83 300.758 300.684 300.607 300.528 300.326 300.14 299.708 299.1 298.73 298.245 300.499 299.878 298.627 297.855 298.291 298.627 298.467 298.322 298.292 298.321 298.619 299.156 299.426 299.197 299.182 299.192 299.178 299.143 299.178 299.169 299.165 299.145 299.08 299.05 299 299.022 299.127 299.242 299.342 299.372 299.38 299.397 299.417 299.437 299.46 299.44 299.435 299.425 299.38 299.335 299.29 299.262 299.23 299.232 299.205 299.232 299.2 299.167 299.152 299.13 299.105 299.05 299.025 299.002 298.965 298.945 298.9 298.887 298.832 298.832 298.822 298.78 298.747 298.775 299.107 298.707 298.717 298.745 298.77 298.755 298.757 298.72 298.762 298.757 298.805 298.77 298.722 298.695 298.757 298.765 298.785 298.83 298.825 298.852 298.862 298.887 298.905 298.88 298.922 298.967 299 299.04 299.092 299.115 299.175 299.14 299.08 299.067 299.015 298.985 299.032 299.06 299.09 299.137 299.26 299.365 299.417 299.472 299.61 299.707 299.737 299.815 299.977 300.167 300.335 300.47 300.612 300.76 300.855 300.99 301.07 301.135 301.24 301.407 301.515 301.505 301.43 301.382 301.275 301.187 301.112 301.085 301.055 300.992 300.932 300.912 300.995 301.395 301.192 301.702 301.525 301.422 301.46 301.442 301.487 301.552 301.615 301.772 301.98 302.127 302.157 302.147 302.09 302.032
347.272 347.075 346.905 346.717 346.442 346.177 345.912 345.645 345.45 345.225 345.027 344.79 344.525 344.222 343.915 343.622 343.382 343.105 342.862 342.575 342.362 342.13 341.847 341.615 341.452 341.267 341.107 340.872 340.662 340.4 340.122 339.912 339.655 339.427 339.207 339.035 338.84 338.62 338.42 338.305 338.172 338.055 337.952 337.752 337.57 337.342 337.167 336.952 336.615 336.252 335.845 335.5 335.242 335.062 335.022 334.982 334.91 334.83 334.717 334.522 334.49 334.492 334.452 334.617 334.71 334.712 334.747 334.802 334.86 334.92 335.26 334.54 334.42 334.305 334.232 334.21 334.18 334.17 334.097 333.947 333.792 333.697 333.567 333.365 333.132 332.917 332.697 332.482 332.257 332.007 331.68 331.392 331.117 330.802 330.43 330.065 329.715 329.372 329.035 328.787 328.527 328.285 328.037 327.785 327.545 327.34 327.23 327.13 327.027 326.92 326.837 326.782 326.722 326.66 326.477 326.295 325.96 325.582 325.132 324.602 324.157 323.597 323.087 322.575 322.055 321.715 321.365 321 320.682 320.342 320.095 319.822 319.527 319.23 318.917 318.55 318.165 317.845 317.577 317.332 317.075 316.79 316.482 316.142 315.795 315.597 315.647 315.462 315.112 314.69 314.195 313.652 313.127 312.74 312.457 312.175 311.855 311.542 311.13 310.71 310.56 310.56 310.68 310.897 311.08 311.232 311.332 311.52 311.617 311.72 311.745 311.865 311.93 311.987 312.097 312.012 311.852 311.72 311.64 311.657 311.68 311.72 311.78 311.817 311.725 311.335 311.047 310.737 310.23 309.55 308.805 307.835 306.782 305.687 304.917 304.852 305.09 304.742 304.362 304.012 303.65 303.402 303.185 303.027 302.87 302.732 302.597 302.532 302.532 302.472 302.335 302.172 302.06 301.932 301.79 301.622 301.507 301.42 301.058 300.966 300.87 300.835 300.895 300.826 300.739 300.576 300.51 300.06 299.557 299.255 298.643 298.25 298.173 298.335 298.266 298.251 298.217 298.181 298.227 298.299 298.507 298.912 298.884 299.055 299.155 299.205 299.202 299.157 299.12 299.107 299.095 299.102 299.065 299.047 298.98 298.975 298.995 299.127 299.227 299.29 299.297 299.317 299.34 299.347 299.365 299.377 299.39 299.382 299.337 299.292 299.227 299.205 299.157 299.177 299.155 299.162 299.152 299.1 299.097 299.067 299.027 299.02 298.982 298.932 298.905 298.917 298.895 298.842 298.805 298.75 298.747 298.74 298.702 298.952 299.157 298.677 298.69 298.73 298.697 298.722 298.712 298.702 298.722 298.747 298.762 298.755 298.712 298.74 298.762 298.767 298.772 298.795 298.772 298.78 298.807 298.807 298.795 298.81 298.832 298.835 298.835 298.885 298.922 298.942 298.995 298.98 298.917 298.915 298.892 298.887 298.932 298.98 299.005 299.05 299.137 299.267 299.35 299.422 299.547 299.63 299.635 299.712 299.902 300.105 300.27 300.407 300.507 300.637 300.75 300.877 300.955 301.005 301.105 301.282 301.382 301.345 301.24 301.202 301.132 301.002 300.955 300.912 300.887 300.81 300.76 300.735 301.095 301.12 300.925 300.997 301.5 301.552 301.227 301.235 301.275 301.29 301.36 301.477 301.695 301.827 301.88 301.842 301.777 301.742
347.707 347.537 347.405 347.215 346.97 346.68 346.325 346.127 345.892 345.582 345.335 345.122 344.877 344.592 344.267 343.927 343.632 343.34 343.075 342.877 342.682 342.455 342.172 341.987 341.805 341.61 341.445 341.177 340.955 340.702 340.385 340.142 339.907 339.61 339.36 339.172 339 338.79 338.61 338.475 338.305 338.225 338.165 338.037 337.84 337.61 337.375 337.13 336.81 336.462 336.165 335.845 335.585 335.445 335.442 335.422 335.36 335.272 335.202 335.007 334.902 334.867 334.822 335.032 335.137 335.185 335.247 335.347 335.427 335.42 335.82 335.122 334.992 334.937 334.857 334.76 334.71 334.622 334.5 334.342 334.24 334.137 333.995 333.807 333.587 333.33 333.052 332.842 332.562 332.295 331.975 331.677 331.405 331.08 330.62 330.28 330.022 329.705 329.412 329.14 328.877 328.557 328.295 328.032 327.815 327.607 327.452 327.33 327.17 327.082 327.015 326.907 326.82 326.705 326.562 326.375 325.995 325.612 325.237 324.75 324.255 323.682 323.18 322.692 322.292 321.9 321.57 321.21 320.855 320.602 320.345 320.005 319.73 319.46 319.097 318.707 318.26 317.93 317.705 317.432 317.125 316.83 316.5 316.227 316.192 316.072 315.9 315.682 315.235 314.637 314.105 313.627 313.145 312.792 312.527 312.295 311.99 311.692 311.295 310.83 310.78 310.642 310.77 311.07 311.222 311.375 311.565 311.835 312.102 312.317 312.457 312.48 312.567 312.575 312.532 312.37 312.18 312.07 311.982 312.017 312.06 312.115 312.182 312.212 312.125 311.712 311.332 311.057 310.517 309.922 309.22 308.405 307.38 306.492 305.587 305.367 305.85 304.66 304.437 304.172 303.877 303.532 303.3 303.102 302.955 302.807 302.66 302.592 302.597 302.52 302.415 302.327 302.185 302.077 301.917 301.78 301.69 301.642 301.535 301.435 301.039 300.989 300.988 300.955 300.853 300.689 300.628 300.423 300.213 299.909 299.398 298.81 298.853 298.6 298.591 298.38 298.237 298.248 298.261 298.232 298.197 298.325 298.342 298.698 298.884 299.176 299.201 299.19 299.124 299.078 299.067 299.052 299.047 298.987 298.957 298.93 298.957 299.062 299.195 299.287 299.247 299.24 299.255 299.257 299.295 299.325 299.355 299.34 299.302 299.252 299.177 299.135 299.11 299.097 299.11 299.145 299.105 299.04 299.045 299.03 299 298.975 298.922 298.892 298.862 298.852 298.832 298.83 298.762 298.727 298.707 298.67 298.66 299.047 298.987 298.63 298.637 298.68 298.635 298.655 298.65 298.697 298.712 298.717 298.752 298.75 298.725 298.755 298.755 298.777 298.797 298.76 298.742 298.762 298.772 298.777 298.757 298.732 298.755 298.75 298.747 298.777 298.81 298.837 298.827 298.82 298.785 298.777 298.77 298.775 298.805 298.857 298.905 298.997 299.087 299.192 299.255 299.37 299.495 299.56 299.55 299.622 299.81 300.015 300.162 300.315 300.432 300.535 300.64 300.752 300.807 300.87 300.95 301.112 301.157 301.152 301.085 301.022 300.937 300.86 300.775 300.722 300.715 300.64 300.582 300.57 301.012 300.79 300.67 300.742 300.855 301.212 301.42 301.187 301.09 301.097 301.11 301.195 301.382 301.485 301.55 301.55 301.49 301.47
348.177 348.045 347.877 347.7 347.455 347.13 346.797 346.54 346.312 346.01 345.705 345.497 345.322 345.035 344.697 344.342 343.957 343.705 343.412 343.145 342.965 342.767 342.46 342.302 342.177 341.957 341.762 341.517 341.265 341.002 340.682 340.385 340.11 339.82 339.602 339.352 339.155 338.937 338.76 338.635 338.457 338.362 338.327 338.207 338.03 337.827 337.567 337.252 336.982 336.692 336.432 336.127 335.945 335.775 335.737 335.717 335.68 335.605 335.537 335.39 335.237 335.255 335.34 335.512 335.547 335.62 335.725 335.837 335.89 335.912 336.52 335.732 335.627 335.55 335.43 335.285 335.18 335.07 334.915 334.76 334.655 334.515 334.382 334.185 333.952 333.695 333.42 333.147 332.897 332.647 332.355 332.032 331.672 331.355 330.992 330.687 330.38 330.07 329.795 329.552 329.285 328.947 328.635 328.35 328.12 327.93 327.73 327.532 327.365 327.2 327.167 327.1 326.987 326.82 326.657 326.43 326.08 325.662 325.24 324.837 324.355 323.865 323.43 323.002 322.525 322.14 321.767 321.427 321.125 320.857 320.542 320.195 319.897 319.585 319.26 318.82 318.402 318.13 317.862 317.552 317.235 316.992 316.765 316.582 316.452 316.287 316.08 315.787 315.287 314.587 314.072 313.607 313.145 312.865 312.632 312.405 312.182 311.872 311.407 311.077 310.987 310.842 311.112 311.467 311.682 311.807 311.93 311.997 312.152 312.425 312.687 312.952 313.077 313.135 312.935 312.65 312.492 312.38 312.277 312.392 312.507 312.557 312.605 312.572 312.48 312.187 311.745 311.32 310.77 310.187 309.612 308.842 308.012 307.285 306.63 306.742 305.575 305.012 304.645 304.312 304.07 303.767 303.425 303.22 303.06 302.917 302.742 302.66 302.627 302.57 302.492 302.362 302.302 302.262 302.025 301.93 301.812 301.77 301.685 301.602 301.56 301.405 301.113 301.067 300.98 300.839 300.693 300.577 300.481 300.243 299.948 299.734 299.343 299.062 298.952 298.589 298.257 298.233 298.218 298.145 298.089 298.176 298.238 298.324 298.532 298.919 299.104 299.158 299.131 299.117 299.089 299.067 299.035 298.965 298.91 298.892 298.905 299.03 299.172 299.23 299.185 299.177 299.17 299.155 299.21 299.227 299.242 299.235 299.212 299.185 299.117 299.085 299.067 299.05 299.065 299.08 299.015 299.01 298.987 298.955 298.967 298.932 298.902 298.827 298.805 298.782 298.77 298.74 298.682 298.68 298.647 298.627 298.6 299.152 298.765 298.607 298.645 298.637 298.602 298.617 298.617 298.657 298.695 298.71 298.717 298.705 298.732 298.77 298.737 298.75 298.777 298.725 298.722 298.712 298.735 298.732 298.7 298.667 298.685 298.687 298.675 298.697 298.702 298.702 298.71 298.675 298.67 298.702 298.69 298.675 298.695 298.74 298.79 298.94 299.022 299.107 299.187 299.267 299.437 299.47 299.455 299.53 299.667 299.88 300.05 300.192 300.322 300.425 300.535 300.64 300.682 300.707 300.825 300.927 300.942 300.93 300.905 300.827 300.752 300.69 300.612 300.55 300.512 300.46 300.445 300.45 300.567 300.365 300.39 300.5 300.605 300.695 300.945 301.337 301.282 301.375 301.387 301.122 301.107 301.177 301.197 301.225 301.205 301.167
348.727 348.562 348.412 348.177 347.92 347.597 347.322 347 346.74 346.455 346.15 345.94 345.767 345.462 345.17 344.817 344.47 344.11 343.812 343.517 343.232 343.017 342.787 342.65 342.525 342.33 342.097 341.842 341.602 341.287 340.922 340.632 340.342 340.05 339.807 339.565 339.305 339.115 338.95 338.79 338.627 338.522 338.432 338.312 338.13 337.915 337.64 337.39 337.177 336.935 336.68 336.432 336.277 336.122 336.052 335.995 335.977 335.872 335.807 335.742 335.667 335.762 335.86 335.927 335.94 336 336.102 336.23 336.287 336.29 336.55 336.282 336.13 336.035 335.927 335.745 335.647 335.505 335.292 335.167 335.035 334.875 334.782 334.582 334.352 334.107 333.8 333.5 333.205 332.957 332.675 332.332 332.045 331.757 331.495 331.185 330.845 330.527 330.287 330.012 329.705 329.367 329.042 328.685 328.417 328.252 328.025 327.83 327.575 327.27 327.22 327.26 327.127 326.925 326.72 326.517 326.21 325.805 325.457 325.062 324.535 324.057 323.647 323.22 322.712 322.352 321.997 321.655 321.39 321.092 320.785 320.44 320.112 319.72 319.36 318.99 318.632 318.34 318.05 317.7 317.465 317.28 317.062 316.857 316.662 316.432 316.16 315.797 315.275 314.497 314.002 313.632 313.262 312.98 312.755 312.532 312.292 311.907 311.452 311.302 311.215 311.242 311.62 312.005 312.337 312.655 312.757 312.73 312.63 312.57 312.71 312.97 313.305 313.442 313.24 312.94 312.757 312.657 312.637 312.715 312.847 312.967 313.002 312.972 312.837 312.532 312.045 311.652 311.142 310.512 309.955 309.195 308.38 307.652 307.427 306.652 305.887 305.36 304.947 304.52 304.27 304.002 303.655 303.377 303.187 303.015 302.847 302.772 302.677 302.595 302.515 302.355 302.275 302.312 302.167 302.057 301.922 301.86 301.8 301.715 301.64 301.56 301.215 301.13 301.03 300.869 300.816 300.728 300.645 300.384 300.069 299.908 299.688 299.456 298.937 298.713 298.339 298.256 298.143 298.123 298.138 298.11 298.134 298.178 298.326 298.781 299.01 299.121 299.146 299.132 299.115 299.082 299.045 298.96 298.885 298.857 298.905 299.025 299.157 299.187 299.162 299.135 299.12 299.112 299.145 299.125 299.147 299.135 299.12 299.11 299.092 299.052 299.002 298.987 298.985 298.962 298.945 298.95 298.917 298.915 298.887 298.877 298.862 298.8 298.782 298.745 298.682 298.652 298.635 298.605 298.602 298.587 298.597 299.117 298.632 298.552 298.585 298.58 298.562 298.595 298.605 298.652 298.697 298.705 298.67 298.675 298.7 298.747 298.755 298.75 298.747 298.707 298.697 298.677 298.677 298.682 298.635 298.637 298.625 298.605 298.602 298.597 298.602 298.627 298.667 298.607 298.62 298.625 298.612 298.587 298.61 298.64 298.7 298.847 298.907 298.985 299.06 299.215 299.342 299.36 299.33 299.41 299.527 299.747 299.91 300.085 300.195 300.322 300.425 300.492 300.525 300.597 300.705 300.79 300.795 300.742 300.727 300.677 300.607 300.52 300.425 300.365 300.352 300.315 300.305 300.39 300.687 300.167 300.162 300.217 300.342 300.457 300.562 300.65 300.705 300.757 300.817 300.942 301.165 301.36 301.34 301.275 301.117 300.947
349.32 349.12 348.872 348.627 348.347 348.102 347.765 347.43 347.18 346.9 346.642 346.455 346.245 346.027 345.662 345.295 344.965 344.595 344.24 343.895 343.582 343.335 343.162 343 342.79 342.592 342.375 342.142 341.882 341.512 341.18 340.905 340.657 340.305 339.982 339.707 339.49 339.302 339.147 338.96 338.802 338.667 338.52 338.387 338.235 338.065 337.862 337.622 337.41 337.175 336.97 336.772 336.645 336.467 336.382 336.32 336.265 336.2 336.122 336.04 336.062 336.152 336.177 336.207 336.247 336.325 336.455 336.547 336.615 336.67 336.94 336.855 336.48 336.365 336.25 336.142 336.032 335.957 335.76 335.567 335.38 335.247 335.102 334.942 334.75 334.48 334.157 333.865 333.555 333.315 333.045 332.712 332.445 332.232 331.935 331.59 331.297 330.962 330.755 330.422 330.162 329.832 329.527 329.172 328.792 328.597 328.36 328.162 327.87 327.592 327.482 327.407 327.287 327.057 326.812 326.63 326.302 325.95 325.647 325.24 324.705 324.255 323.845 323.372 322.982 322.612 322.215 321.89 321.67 321.35 321.005 320.657 320.3 319.955 319.642 319.267 318.87 318.55 318.247 317.94 317.715 317.5 317.277 317.035 316.792 316.51 316.1 315.72 315.057 314.422 314.002 313.655 313.322 313.08 312.865 312.672 312.34 311.895 311.6 311.632 311.445 311.55 312.085 312.54 312.99 313.362 313.645 313.697 313.63 313.33 313.055 313.06 313.317 313.652 313.56 313.257 313.05 312.89 312.865 313.027 313.187 313.322 313.32 313.24 313.055 312.725 312.347 311.91 311.405 310.872 310.245 309.515 308.642 308.202 307.765 306.737 306.212 305.74 305.345 304.852 304.482 304.222 303.935 303.637 303.372 303.145 302.967 302.812 302.74 302.617 302.537 302.417 302.33 302.315 302.287 302.205 302.125 302.027 301.922 301.825 301.717 301.69 301.582 301.482 301.122 301.016 300.922 300.928 300.753 300.599 300.469 300.323 300.055 299.828 299.74 299.064 298.686 298.287 298.141 298.129 298.183 298.132 298.102 298.18 298.18 298.447 298.828 298.991 299.094 299.14 299.14 299.09 299.015 298.98 298.872 298.875 298.897 299.057 299.16 299.16 299.135 299.115 299.097 299.097 299.107 299.1 299.082 299.027 299.002 299.002 298.997 298.987 298.962 298.927 298.93 298.907 298.885 298.902 298.88 298.877 298.86 298.81 298.78 298.727 298.725 298.687 298.62 298.587 298.55 298.56 298.565 298.582 298.592 299.272 298.542 298.525 298.557 298.525 298.535 298.555 298.602 298.632 298.665 298.67 298.647 298.677 298.715 298.742 298.722 298.712 298.697 298.662 298.652 298.65 298.64 298.615 298.587 298.582 298.6 298.542 298.547 298.535 298.547 298.595 298.592 298.562 298.555 298.582 298.597 298.595 298.577 298.565 298.662 298.79 298.85 298.905 298.965 299.117 299.21 299.215 299.257 299.307 299.46 299.605 299.79 299.955 300.05 300.15 300.247 300.352 300.415 300.515 300.597 300.657 300.635 300.572 300.522 300.467 300.405 300.335 300.252 300.245 300.22 300.212 300.195 300.297 300.435 300.01 300 300.015 300.112 300.245 300.347 300.435 300.527 300.555 300.56 300.552 300.575 300.62 300.662 300.762 300.947 301.065
349.797 349.56 349.307 349.07 348.85 348.562 348.215 347.837 347.62 347.345 347.125 346.955 346.722 346.587 346.245 345.797 345.4 345.035 344.652 344.305 343.97 343.67 343.502 343.305 343.097 342.845 342.615 342.41 342.1 341.727 341.432 341.172 340.88 340.517 340.197 339.902 339.68 339.487 339.28 339.135 338.967 338.822 338.63 338.492 338.347 338.202 338.045 337.87 337.642 337.45 337.235 337.107 336.977 336.852 336.695 336.592 336.547 336.465 336.417 336.332 336.352 336.422 336.422 336.457 336.522 336.62 336.73 336.837 336.9 336.952 337.06 337.355 336.807 336.677 336.562 336.445 336.34 336.2 336.092 335.92 335.74 335.552 335.39 335.23 335.067 334.807 334.507 334.222 333.945 333.695 333.417 333.135 332.917 332.685 332.34 332.015 331.727 331.467 331.237 330.92 330.672 330.387 330.027 329.727 329.36 329.042 328.732 328.482 328.235 328.027 327.835 327.642 327.507 327.275 327.002 326.79 326.437 326.052 325.715 325.347 324.855 324.372 323.985 323.637 323.272 322.897 322.502 322.197 321.88 321.617 321.277 320.92 320.572 320.2 319.82 319.467 319.135 318.757 318.485 318.23 317.992 317.765 317.497 317.212 316.83 316.417 315.842 315.387 314.902 314.515 314.145 313.757 313.437 313.245 313.022 312.825 312.445 311.872 311.967 311.932 311.757 311.895 312.49 313.002 313.447 313.93 314.31 314.502 314.445 314.365 314.005 313.617 313.475 313.632 313.837 313.622 313.337 313.18 313.14 313.36 313.557 313.617 313.602 313.522 313.272 312.897 312.5 312.047 311.617 311.092 310.47 309.765 308.93 308.657 307.6 307.062 306.497 305.997 305.645 305.23 304.812 304.4 304.185 303.92 303.625 303.325 303.117 302.967 302.847 302.7 302.612 302.492 302.4 302.382 302.447 302.367 302.23 302.152 302.062 301.962 301.85 301.822 301.692 301.587 301.49 301.14 301.078 300.97 300.827 300.677 300.541 300.373 300.227 300.072 299.939 299.672 299.269 298.833 298.545 298.477 298.101 298.012 298.032 298.068 298.048 297.926 298.391 298.813 299.053 299.093 299.102 299.107 299.087 299.017 298.922 298.9 298.95 299.082 299.142 299.115 299.095 299.055 299.06 299.055 299.04 299.052 299.042 299.017 298.95 298.892 298.88 298.842 298.857 298.86 298.837 298.852 298.84 298.812 298.812 298.812 298.8 298.752 298.72 298.677 298.647 298.635 298.61 298.592 298.542 298.532 298.527 298.525 298.64 298.867 298.477 298.467 298.52 298.487 298.5 298.497 298.542 298.577 298.602 298.607 298.63 298.645 298.707 298.717 298.71 298.675 298.65 298.637 298.635 298.587 298.577 298.57 298.537 298.56 298.54 298.477 298.48 298.462 298.5 298.53 298.487 298.465 298.49 298.535 298.542 298.575 298.572 298.555 298.63 298.707 298.792 298.845 298.882 299.017 299.102 299.087 299.147 299.192 299.32 299.465 299.652 299.812 299.91 300.035 300.122 300.202 300.275 300.372 300.53 300.532 300.477 300.397 300.365 300.31 300.277 300.205 300.14 300.1 300.102 300.095 300.102 300.232 300.055 299.842 299.82 299.87 300 300.082 300.112 300.19 300.275 300.355 300.342 300.305 300.33 300.34 300.4 300.46 300.482 300.505
350.202 350.012 349.74 349.472 349.282 348.967 348.617 348.342 348.067 347.832 347.597 347.455 347.217 347.077 346.73 346.29 345.927 345.477 345.11 344.725 344.36 344.065 343.845 343.677 343.54 343.245 342.93 342.662 342.335 341.952 341.647 341.37 341.127 340.772 340.44 340.177 339.915 339.675 339.48 339.285 339.102 338.957 338.832 338.65 338.477 338.342 338.185 338.037 337.885 337.7 337.585 337.43 337.285 337.157 336.987 336.882 336.787 336.725 336.662 336.637 336.61 336.697 336.752 336.777 336.832 336.925 337.032 337.142 337.195 337.2 337.185 337.615 337.052 336.947 336.862 336.715 336.612 336.502 336.35 336.222 336.045 335.872 335.687 335.47 335.337 335.13 334.84 334.59 334.345 334.072 333.802 333.552 333.32 333.052 332.805 332.59 332.305 332.095 331.777 331.515 331.285 330.957 330.562 330.257 329.905 329.527 329.107 328.762 328.53 328.365 328.142 327.885 327.67 327.452 327.22 326.955 326.58 326.182 325.807 325.4 324.957 324.522 324.17 323.777 323.467 323.16 322.782 322.445 322.172 321.867 321.575 321.232 320.882 320.435 320.037 319.755 319.367 319.025 318.762 318.507 318.247 317.957 317.645 317.32 316.815 316.182 315.617 315.215 314.845 314.537 314.222 313.875 313.565 313.385 313.215 312.972 312.54 312.077 312.277 312.25 312.14 312.362 312.875 313.47 313.985 314.45 314.825 315.047 315.057 315.017 314.892 314.532 314.147 313.882 313.897 313.875 313.665 313.472 313.405 313.565 313.805 313.845 313.845 313.7 313.445 313.087 312.66 312.205 311.73 311.287 310.705 309.96 309.46 308.512 307.912 307.415 306.872 306.337 305.87 305.492 305.177 304.745 304.38 304.125 303.91 303.575 303.312 303.14 303.022 302.87 302.75 302.622 302.537 302.435 302.447 302.405 302.285 302.17 302.135 302.067 301.99 301.927 301.817 301.72 301.587 301.462 301.15 301.034 300.939 300.744 300.591 300.483 300.376 300.275 300.131 299.962 299.54 299.148 298.835 298.623 298.392 298.069 297.935 298.003 297.975 298.011 298.054 298.348 298.846 299.036 299.062 299.112 299.075 299.037 298.952 298.897 298.977 299.072 299.112 299.09 299.055 299.03 298.985 299.005 299.002 299.02 299.027 298.962 298.917 298.835 298.8 298.752 298.775 298.75 298.762 298.772 298.76 298.762 298.762 298.755 298.755 298.735 298.68 298.622 298.627 298.63 298.59 298.532 298.492 298.5 298.492 298.49 298.767 298.612 298.432 298.437 298.462 298.437 298.425 298.432 298.46 298.492 298.542 298.565 298.585 298.615 298.66 298.662 298.667 298.642 298.62 298.612 298.6 298.57 298.547 298.52 298.497 298.505 298.477 298.44 298.435 298.42 298.475 298.472 298.427 298.435 298.465 298.51 298.5 298.53 298.545 298.572 298.627 298.695 298.722 298.765 298.807 298.922 298.975 298.995 299.077 299.162 299.215 299.347 299.512 299.682 299.832 299.927 300.052 300.102 300.165 300.287 300.395 300.377 300.317 300.247 300.22 300.175 300.132 300.085 300.042 300.015 299.997 299.975 299.982 300.305 299.872 299.692 299.685 299.757 299.84 299.932 299.967 300.002 300.045 300.142 300.13 300.097 300.077 300.08 300.132 300.205 300.277 300.317
350.6 350.385 350.12 349.885 349.66 349.355 349.005 348.765 348.515 348.347 348.127 347.882 347.627 347.505 347.207 346.827 346.39 345.977 345.557 345.17 344.79 344.54 344.285 344.077 343.937 343.58 343.185 342.9 342.62 342.24 341.9 341.617 341.327 341.02 340.712 340.457 340.195 339.925 339.687 339.505 339.257 339.132 339.007 338.822 338.645 338.482 338.325 338.207 338.105 338.007 337.905 337.77 337.627 337.49 337.347 337.25 337.132 337.01 336.905 336.89 336.912 336.997 337.047 337.095 337.16 337.235 337.337 337.445 337.485 337.47 337.462 337.735 337.272 337.2 337.142 337.045 336.897 336.787 336.64 336.532 336.402 336.225 336.01 335.81 335.6 335.412 335.142 334.912 334.66 334.4 334.165 333.95 333.707 333.49 333.292 333.125 332.915 332.645 332.385 332.152 331.867 331.515 331.145 330.782 330.442 330.08 329.64 329.18 328.855 328.645 328.402 328.152 327.935 327.61 327.35 327.067 326.692 326.34 325.94 325.522 325.187 324.757 324.405 324.085 323.71 323.39 323.077 322.75 322.45 322.157 321.89 321.53 321.197 320.73 320.267 319.925 319.632 319.315 319.017 318.755 318.467 318.137 317.872 317.48 316.895 316.18 315.587 315.217 314.847 314.56 314.277 314.035 313.762 313.545 313.36 313.082 312.542 312.465 312.602 312.537 312.52 312.785 313.372 313.947 314.547 315.03 315.427 315.607 315.567 315.512 315.335 315.112 314.872 314.445 314.055 313.912 313.87 313.755 313.695 313.735 313.93 313.977 313.955 313.737 313.462 313.145 312.702 312.265 311.792 311.35 310.822 310.367 309.647 308.79 308.202 307.735 307.225 306.727 306.192 305.785 305.49 305.18 304.717 304.34 304.117 303.867 303.605 303.445 303.27 303.127 302.942 302.785 302.692 302.605 302.507 302.425 302.382 302.287 302.2 302.122 302.082 302.072 301.972 301.77 301.677 301.54 301.425 301.098 301.003 300.884 300.776 300.604 300.449 300.364 300.255 300.093 299.786 299.448 299.103 299.015 298.72 298.416 298.049 298.081 297.988 297.917 297.937 298.044 298.254 298.788 299.045 299.07 299.05 299.007 298.977 298.935 298.957 299.025 299.07 299.025 299.005 298.997 298.962 298.967 298.957 298.972 298.955 298.915 298.877 298.82 298.772 298.752 298.745 298.705 298.732 298.71 298.69 298.677 298.665 298.707 298.71 298.687 298.637 298.595 298.555 298.597 298.567 298.51 298.507 298.522 298.485 298.5 299.017 298.405 298.372 298.38 298.397 298.372 298.347 298.345 298.382 298.445 298.507 298.54 298.515 298.575 298.605 298.645 298.63 298.6 298.575 298.58 298.535 298.527 298.517 298.495 298.497 298.48 298.422 298.417 298.4 298.387 298.43 298.395 298.365 298.395 298.44 298.467 298.457 298.47 298.48 298.54 298.585 298.68 298.69 298.702 298.8 298.89 298.937 298.96 298.995 299.06 299.122 299.262 299.412 299.585 299.73 299.822 299.955 299.997 300.067 300.215 300.3 300.25 300.17 300.095 300.045 300.007 299.975 299.972 299.955 299.942 299.862 299.832 299.857 300.17 299.71 299.595 299.565 299.567 299.677 299.75 299.797 299.8 299.87 299.967 299.972 299.907 299.862 299.887 299.945 300.017 300.067 300.11
351.017 350.752 350.472 350.267 349.96 349.672 349.395 349.18 348.955 348.79 348.597 348.31 348.055 347.875 347.66 347.295 346.917 346.49 346.062 345.615 345.23 344.965 344.65 344.402 344.247 343.867 343.482 343.215 342.9 342.547 342.21 341.897 341.602 341.32 340.992 340.737 340.46 340.2 339.955 339.67 339.49 339.325 339.18 339.05 338.847 338.677 338.542 338.377 338.29 338.222 338.14 338.025 337.915 337.845 337.742 337.63 337.525 337.48 337.417 337.225 337.215 337.325 337.425 337.452 337.53 337.63 337.742 337.822 337.815 337.807 337.76 338.09 337.84 337.51 337.41 337.292 337.105 336.98 336.862 336.785 336.657 336.505 336.31 336.117 335.912 335.68 335.427 335.215 334.98 334.71 334.475 334.235 334.015 333.852 333.692 333.52 333.335 333.1 332.92 332.655 332.36 332.055 331.672 331.295 330.977 330.567 330.155 329.687 329.282 328.965 328.692 328.417 328.17 327.8 327.497 327.185 326.815 326.477 326.117 325.765 325.4 325.042 324.71 324.34 323.942 323.61 323.342 323.035 322.742 322.477 322.24 321.915 321.535 321.022 320.562 320.257 320.015 319.63 319.292 319.04 318.795 318.482 318.182 317.73 316.962 316.265 315.645 315.282 314.955 314.645 314.437 314.262 314.022 313.752 313.51 313.177 312.73 312.782 312.847 312.757 312.815 313.277 313.837 314.442 315 315.487 316.02 316.122 316.012 315.85 315.632 315.43 315.175 314.895 314.487 314.112 314.032 314.015 314.012 313.925 314.052 314.15 314.045 313.812 313.54 313.165 312.775 312.31 311.827 311.39 311.037 310.61 309.807 309.075 308.47 308.037 307.567 307.08 306.6 306.145 305.747 305.437 305.152 304.687 304.312 304.14 303.93 303.682 303.502 303.322 303.14 303.015 302.865 302.752 302.627 302.52 302.505 302.457 302.287 302.227 302.222 302.172 302.057 301.902 301.782 301.665 301.527 301.412 301.09 300.981 300.877 300.779 300.661 300.538 300.472 300.3 300.147 299.959 299.577 299.385 299.113 298.967 298.563 298.08 297.984 297.925 297.931 297.942 297.944 298.192 298.615 298.987 299.04 299.052 298.955 298.925 298.907 298.92 298.937 298.94 298.942 298.922 298.897 298.9 298.92 298.925 298.892 298.867 298.822 298.805 298.765 298.765 298.717 298.672 298.652 298.612 298.62 298.577 298.605 298.637 298.645 298.612 298.59 298.537 298.532 298.532 298.532 298.525 298.522 298.485 298.462 298.47 298.77 298.312 298.29 298.307 298.305 298.26 298.27 298.292 298.35 298.412 298.427 298.472 298.467 298.53 298.552 298.582 298.582 298.575 298.537 298.522 298.515 298.502 298.47 298.467 298.477 298.455 298.392 298.39 298.377 298.36 298.387 298.337 298.335 298.357 298.382 298.435 298.442 298.49 298.445 298.515 298.55 298.597 298.627 298.645 298.767 298.842 298.825 298.872 298.937 298.987 299.092 299.2 299.342 299.482 299.615 299.725 299.845 299.892 299.99 300.117 300.18 300.105 299.995 299.95 299.905 299.895 299.852 299.807 299.83 299.82 299.755 299.712 299.725 299.867 299.56 299.497 299.462 299.47 299.517 299.572 299.595 299.63 299.72 299.792 299.805 299.785 299.75 299.8 299.835 299.897 299.912 299.96
351.415 351.14 350.88 350.61 350.28 350.017 349.812 349.57 349.34 349.16 349.007 348.717 348.425 348.202 348.027 347.74 347.422 346.957 346.507 346.07 345.667 345.322 345.03 344.782 344.567 344.197 343.835 343.525 343.195 342.842 342.52 342.25 341.927 341.607 341.242 340.942 340.665 340.407 340.18 339.885 339.712 339.52 339.392 339.255 339.09 338.96 338.852 338.662 338.507 338.395 338.352 338.272 338.185 338.17 338.107 338.072 338.042 337.99 337.897 337.732 337.635 337.655 337.747 337.807 337.87 337.95 338.072 338.167 338.19 338.152 338.065 338.172 338.222 337.812 337.725 337.582 337.405 337.23 337.09 336.957 336.865 336.725 336.582 336.407 336.175 335.945 335.692 335.53 335.31 335.015 334.81 334.582 334.402 334.262 334.095 333.9 333.72 333.497 333.317 333.067 332.815 332.492 332.137 331.805 331.435 331.03 330.675 330.222 329.732 329.322 328.965 328.672 328.375 328.032 327.7 327.317 326.935 326.59 326.285 325.935 325.537 325.217 324.895 324.535 324.2 323.89 323.565 323.262 323.025 322.78 322.485 322.205 321.85 321.307 320.86 320.675 320.397 319.967 319.622 319.402 319.225 318.942 318.58 317.99 317.152 316.305 315.747 315.407 315.077 314.75 314.57 314.442 314.237 313.955 313.692 313.34 313.11 313.147 313.12 313.032 313.145 313.702 314.37 314.96 315.525 316.065 316.52 316.545 316.3 316.135 315.855 315.647 315.38 315.102 314.777 314.45 314.23 314.17 314.2 314.167 314.287 314.317 314.157 313.912 313.665 313.257 312.812 312.35 311.83 311.432 311.355 310.572 309.95 309.312 308.767 308.272 307.845 307.43 307.002 306.522 306.07 305.657 305.44 305.02 304.69 304.425 304.172 303.97 303.775 303.547 303.362 303.205 303.032 302.922 302.77 302.667 302.652 302.61 302.492 302.427 302.342 302.225 302.097 301.985 301.922 301.777 301.645 301.532 301.432 301.111 300.957 300.85 300.746 300.651 300.593 300.434 300.259 300.08 299.889 299.637 299.245 299.163 298.985 298.526 298.081 297.989 297.901 297.986 297.942 297.842 298.437 298.612 298.925 299.057 299.005 298.905 298.855 298.865 298.835 298.857 298.86 298.857 298.825 298.822 298.85 298.857 298.83 298.805 298.747 298.732 298.715 298.755 298.722 298.67 298.617 298.59 298.595 298.545 298.545 298.53 298.542 298.542 298.53 298.552 298.572 298.545 298.567 298.52 298.502 298.43 298.36 298.702 298.657 298.217 298.195 298.197 298.177 298.162 298.167 298.25 298.325 298.355 298.387 298.425 298.47 298.525 298.532 298.532 298.537 298.55 298.5 298.472 298.472 298.465 298.432 298.442 298.44 298.432 298.38 298.38 298.362 298.355 298.357 298.29 298.302 298.325 298.335 298.372 298.37 298.38 298.422 298.475 298.505 298.55 298.582 298.597 298.705 298.74 298.745 298.785 298.865 298.912 298.98 299.11 299.215 299.33 299.482 299.627 299.735 299.782 299.895 300.017 300.025 299.985 299.855 299.8 299.772 299.742 299.69 299.685 299.685 299.672 299.64 299.645 299.79 299.735 299.475 299.395 299.362 299.355 299.392 299.42 299.467 299.475 299.545 299.642 299.675 299.68 299.65 299.672 299.74 299.752 299.8 299.83
351.822 351.532 351.235 350.942 350.612 350.355 350.167 349.94 349.64 349.42 349.235 349.037 348.737 348.527 348.34 348.07 347.755 347.292 346.9 346.497 346.072 345.69 345.4 345.142 344.882 344.552 344.21 343.862 343.527 343.15 342.852 342.607 342.232 341.85 341.525 341.205 340.92 340.647 340.34 340.105 339.88 339.7 339.57 339.42 339.237 339.12 339.035 338.9 338.732 338.632 338.637 338.542 338.495 338.49 338.52 338.485 338.51 338.46 338.387 338.24 338.075 338.087 338.125 338.167 338.245 338.307 338.445 338.515 338.517 338.517 338.455 338.347 338.517 338.137 338.007 337.852 337.682 337.507 337.352 337.232 337.085 336.942 336.82 336.665 336.48 336.23 336 335.815 335.572 335.362 335.175 334.977 334.77 334.67 334.455 334.262 334.082 333.92 333.712 333.457 333.22 333.002 332.597 332.22 331.857 331.485 331.122 330.687 330.215 329.795 329.39 329.037 328.652 328.275 327.89 327.47 327.065 326.742 326.455 326.11 325.71 325.41 325.137 324.797 324.465 324.187 323.837 323.557 323.252 322.987 322.772 322.45 322.065 321.64 321.337 321.142 320.75 320.337 320.055 319.777 319.667 319.41 318.95 318.235 317.375 316.502 315.905 315.56 315.207 314.92 314.75 314.595 314.42 314.225 313.92 313.475 313.392 313.407 313.32 313.262 313.492 314.167 314.892 315.552 316.077 316.61 316.942 316.892 316.647 316.367 316.092 315.797 315.522 315.257 314.972 314.69 314.525 314.352 314.32 314.397 314.425 314.38 314.252 313.965 313.62 313.155 312.787 312.42 311.912 311.975 311.127 310.622 310.122 309.6 309.072 308.565 308.145 307.755 307.34 306.955 306.547 306.047 305.702 305.332 305.035 304.755 304.457 304.222 304.05 303.827 303.58 303.372 303.175 303.085 302.962 302.83 302.785 302.722 302.66 302.647 302.555 302.435 302.215 302.077 302.047 301.925 301.775 301.622 301.54 301.405 301.061 300.941 300.842 300.748 300.708 300.571 300.422 300.274 300.039 299.868 299.522 299.223 299.288 299.023 298.513 298.127 297.956 297.924 297.935 297.865 297.912 297.97 298.355 298.777 299.002 298.932 298.867 298.822 298.782 298.782 298.777 298.777 298.762 298.755 298.765 298.785 298.792 298.757 298.745 298.725 298.717 298.725 298.647 298.632 298.585 298.557 298.53 298.48 298.485 298.47 298.455 298.45 298.517 298.6 298.627 298.557 298.537 298.467 298.467 298.395 298.29 298.702 298.295 298.155 298.112 298.09 298.055 298.047 298.082 298.13 298.19 298.235 298.312 298.36 298.41 298.482 298.495 298.485 298.505 298.47 298.485 298.452 298.462 298.415 298.422 298.402 298.382 298.392 298.352 298.357 298.352 298.332 298.302 298.29 298.287 298.325 298.34 298.347 298.32 298.337 298.38 298.432 298.492 298.517 298.527 298.552 298.657 298.655 298.667 298.707 298.792 298.82 298.887 298.977 299.095 299.247 299.382 299.497 299.592 299.672 299.807 299.88 299.882 299.825 299.75 299.685 299.665 299.597 299.57 299.562 299.547 299.532 299.517 299.517 299.92 299.652 299.38 299.322 299.26 299.272 299.29 299.337 299.335 299.335 299.407 299.507 299.57 299.6 299.557 299.545 299.555 299.605 299.647 299.69
352.177 351.905 351.61 351.28 350.927 350.612 350.42 350.205 349.905 349.702 349.462 349.287 348.982 348.805 348.582 348.3 348.015 347.647 347.26 346.852 346.45 346.06 345.74 345.447 345.177 344.887 344.54 344.187 343.877 343.495 343.205 342.94 342.587 342.107 341.762 341.497 341.185 340.885 340.607 340.337 340.087 339.907 339.727 339.552 339.457 339.29 339.192 339.05 338.937 338.922 338.9 338.877 338.802 338.807 338.88 338.88 338.895 338.905 338.815 338.717 338.53 338.49 338.502 338.535 338.58 338.692 338.805 338.89 338.86 338.807 338.792 338.68 339.345 338.472 338.272 338.1 337.97 337.777 337.637 337.462 337.285 337.14 336.997 336.847 336.68 336.49 336.292 336.077 335.892 335.68 335.535 335.367 335.177 334.985 334.84 334.615 334.407 334.255 334.075 333.835 333.582 333.375 333.04 332.662 332.282 331.92 331.515 331.085 330.647 330.207 329.792 329.407 328.962 328.537 328.16 327.69 327.237 326.87 326.552 326.252 325.882 325.615 325.435 325.102 324.707 324.375 324.085 323.842 323.555 323.285 323.065 322.715 322.362 322.057 321.835 321.565 321.127 320.797 320.535 320.225 320.092 319.802 319.282 318.56 317.71 316.767 316.132 315.782 315.397 315.082 314.942 314.8 314.635 314.45 313.985 313.687 313.665 313.675 313.485 313.567 313.947 314.79 315.522 316.112 316.69 317.135 317.295 317.142 316.835 316.535 316.237 315.92 315.63 315.387 315.122 314.925 314.825 314.705 314.532 314.535 314.605 314.47 314.215 313.905 313.41 313.122 312.872 312.56 312.482 311.737 311.18 310.782 310.37 309.915 309.385 308.852 308.427 308.077 307.735 307.492 307.125 306.632 306.155 305.735 305.43 305.145 304.832 304.525 304.265 304.072 303.822 303.597 303.392 303.205 303.085 303.015 302.88 302.817 302.812 302.757 302.67 302.58 302.45 302.265 302.162 302.042 301.942 301.757 301.667 301.562 301.2 301.06 300.947 300.895 300.816 300.654 300.536 300.377 300.223 300.026 299.796 299.497 299.199 299.48 299.989 298.569 298.052 297.952 297.932 297.925 297.885 297.95 298.85 298.96 299.077 299.06 298.922 298.782 298.777 298.76 298.755 298.702 298.69 298.675 298.702 298.682 298.715 298.712 298.75 298.727 298.68 298.685 298.595 298.59 298.562 298.527 298.532 298.48 298.442 298.39 298.37 298.41 298.502 298.55 298.597 298.532 298.395 298.317 298.31 298.21 298.187 298.922 298.165 298.052 298.032 297.987 297.955 297.952 297.992 298 298.035 298.127 298.222 298.267 298.347 298.4 298.432 298.46 298.457 298.477 298.46 298.427 298.405 298.385 298.387 298.377 298.34 298.32 298.317 298.307 298.297 298.267 298.27 298.245 298.255 298.282 298.29 298.327 298.302 298.297 298.312 298.387 298.442 298.455 298.47 298.515 298.597 298.587 298.627 298.652 298.627 298.67 298.762 298.867 298.99 299.107 299.252 299.355 299.462 299.57 299.69 299.752 299.732 299.66 299.62 299.54 299.512 299.46 299.445 299.435 299.402 299.392 299.382 299.412 299.645 299.397 299.317 299.215 299.165 299.147 299.192 299.217 299.205 299.21 299.272 299.332 299.4 299.435 299.392 299.392 299.412 299.452 299.495 299.525
352.515 352.282 351.982 351.647 351.225 350.94 350.65 350.45 350.16 349.917 349.682 349.505 349.28 349.095 348.807 348.497 348.227 347.895 347.575 347.182 346.782 346.377 346.052 345.787 345.527 345.217 344.877 344.53 344.24 343.825 343.525 343.277 342.912 342.51 342.095 341.817 341.495 341.17 340.867 340.577 340.32 340.085 339.922 339.73 339.612 339.46 339.322 339.207 339.14 339.16 339.14 339.122 339.097 339.112 339.117 339.185 339.202 339.307 339.23 339.095 338.905 338.862 338.847 338.92 338.935 338.982 339.112 339.197 339.19 339.122 339.07 339.03 339.452 338.852 338.55 338.345 338.202 338.047 337.885 337.74 337.565 337.397 337.22 337.052 336.872 336.747 336.6 336.405 336.192 336.032 335.875 335.757 335.57 335.372 335.235 334.985 334.807 334.64 334.43 334.24 334.015 333.7 333.38 333.015 332.677 332.292 331.885 331.445 331.002 330.565 330.152 329.737 329.31 328.802 328.365 327.93 327.467 327.055 326.73 326.43 326.072 325.775 325.565 325.312 324.947 324.602 324.34 324.082 323.832 323.58 323.252 322.957 322.715 322.47 322.205 321.932 321.557 321.252 320.992 320.712 320.49 320.17 319.622 318.85 317.985 317.107 316.332 315.992 315.627 315.325 315.142 315.035 314.84 314.635 314.157 314.13 314.035 313.89 313.807 313.98 314.652 315.455 316.152 316.695 317.172 317.537 317.46 317.25 316.95 316.617 316.29 315.99 315.715 315.517 315.297 315.212 315.175 315.1 315.005 314.8 314.715 314.665 314.42 313.962 313.417 313.152 312.905 313.035 312.752 311.742 311.36 310.987 310.627 310.127 309.577 309.14 308.732 308.457 308.215 307.957 307.567 307.097 306.625 306.247 305.87 305.54 305.207 304.885 304.525 304.285 304.087 303.877 303.632 303.427 303.207 303.097 303.007 302.975 302.972 302.905 302.767 302.735 302.617 302.525 302.295 302.162 302.115 301.965 301.855 301.702 301.565 301.253 301.114 301.014 300.9 300.725 300.594 300.497 300.383 300.17 299.88 299.628 299.431 299.252 299.458 299.996 298.542 297.995 297.93 297.882 297.855 297.91 298.062 300.835 298.487 298.337 298.952 299.002 298.725 298.757 298.725 298.677 298.645 298.625 298.617 298.602 298.622 298.645 298.677 298.672 298.687 298.667 298.607 298.585 298.545 298.52 298.51 298.465 298.412 298.335 298.275 298.31 298.39 298.445 298.485 298.335 298.182 298.167 298.16 298.13 298.14 298.525 297.987 297.937 297.925 297.897 297.852 297.867 297.865 297.882 297.912 298.04 298.13 298.17 298.232 298.27 298.317 298.407 298.427 298.442 298.425 298.382 298.35 298.297 298.297 298.312 298.312 298.27 298.247 298.267 298.232 298.237 298.212 298.205 298.237 298.235 298.22 298.245 298.245 298.252 298.277 298.297 298.372 298.395 298.422 298.495 298.532 298.535 298.555 298.545 298.56 298.582 298.642 298.707 298.837 298.96 299.105 299.26 299.36 299.477 299.582 299.61 299.592 299.52 299.482 299.447 299.382 299.317 299.317 299.287 299.28 299.262 299.232 299.327 299.627 299.232 299.187 299.127 299.092 299.07 299.07 299.09 299.085 299.067 299.132 299.192 299.225 299.227 299.245 299.247 299.295 299.31 299.342 299.362
