ncols 382
nrows 32
xllcorner    387224
yllcorner    477834
cellsize     2
NODATA_value -9999
451.085 451.428 451.92 452.7 453.72 454.52 455.1 455.66 456.428 457.218 457.805 458.27 458.583 458.96 459.195 460.048 461.415 462.77 463.795 464.37 464.853 464.385 464.383 463.953 463.195 464.915 463.323 462.52 462.895 462.48 463.883 462.54 461.93 461.543 462.133 462.868 463.588 464.113 464.8 465.51 466.128 466.953 467.968 469.115 470.465 471.84 472.823 473.6 474.745 476.263 477.553 478.74 479.188 479.63 480.04 480.31 480.715 481.238 -9999 -9999 -9999 -9999 -9999 -9999 -9999 -9999 -9999 -9999 -9999 -9999 -9999 -9999 -9999 -9999 -9999 -9999 -9999 -9999 -9999 -9999 -9999 -9999 -9999 -9999 -9999 -9999 -9999 -9999 -9999 -9999 -9999 -9999 -9999 -9999 -9999 -9999 -9999 -9999 -9999 -9999 -9999 -9999 -9999 -9999 -9999 -9999 -9999 -9999 -9999 -9999 -9999 -9999 -9999 -9999 -9999 -9999 -9999 -9999 -9999 -9999 -9999 -9999 -9999 -9999 -9999 -9999 -9999 -9999 -9999 -9999 -9999 -9999 -9999 -9999 -9999 -9999 -9999 -9999 -9999 -9999 -9999 -9999 -9999 -9999 -9999 -9999 -9999 -9999 -9999 -9999 -9999 -9999 -9999 -9999 -9999 -9999 -9999 -9999 -9999 -9999 -9999 -9999 -9999 -9999 -9999 -9999 -9999 -9999 -9999 -9999 -9999 -9999 -9999 -9999 -9999 -9999 -9999 -9999 -9999 -9999 -9999 -9999 -9999 -9999 -9999 -9999 -9999 -9999 -9999 -9999 -9999 -9999 -9999 -9999 -9999 -9999 -9999 -9999 -9999 -9999 -9999 -9999 -9999 -9999 -9999 -9999 -9999 -9999 -9999 -9999 -9999 -9999 -9999 -9999 541.823 541.783 541.844 542.141 542.46 542.597 542.736 542.834 543.089 543.533 544.048 545.361 546.578 547.282 548.205 548.597 549.636 550.319 550.851 551.502 551.87 552.237 552.857 553.544 554.192 555.005 555.394 555.705 556.185 556.841 557.714 558.308 559.592 561.635 562.768 563.623 564.09 564.258 564.299 564.281 564.277 564.184 563.991 563.897 563.948 564.017 564.11 564.571 564.763 564.978 565.67 566.32 566.966 567.527 567.924 568.2 568.455 569.07 569.74 570.56 571.619 572.338 572.948 573.023 573.008 573.019 573.081 572.948 572.804 572.731 572.704 572.793 572.902 573.062 573.525 574.254 574.944 575.674 576.301 576.854 577.644 578.297 578.825 579.344 579.492 579.413 579.554 579.624 579.63 579.546 579.485 579.586 579.485 579.62 579.674 579.621 579.445 579.384 579.373 579.454 579.29 579.18 578.998 578.602 578.314 577.629 577.003 576.204 575.633 575.223 574.843 574.509 574.323 574.461 574.832 574.99 575.039 575.139 575.445 575.495 575.506 575.6 575.773 576.21 576.563 576.899 577.15 577.415 577.834 578.18 578.374 578.592 578.873 579.177 579.542 579.76 580.23 580.604 580.522 580.512 580.242 580.259 580.364 580.298 580.367 580.412 580.385 580.242 580.066 579.512 579.059 579.402 579.849 579.919 579.753 579.763 579.847 579.789 579.812 579.879 579.848 579.712 579.556 579.561 579.439 579.327 579.182 579.053
450.785 451.253 451.933 452.698 453.533 454.313 454.96 455.485 456.138 456.918 457.64 458.203 458.635 459.238 459.843 461.623 462.728 462.903 463.738 464.535 463.413 463.72 464.395 463.265 462.383 465.968 465.12 464.998 463.78 461.413 461.848 463.738 461.673 462.255 462.083 462.608 463.295 463.793 464.365 465.025 465.655 466.788 467.703 468.613 469.798 471.23 472.32 473.043 474.35 475.87 477.06 478.298 478.798 479.13 479.508 479.925 480.393 481 481.74 482.418 -9999 -9999 -9999 -9999 -9999 -9999 -9999 -9999 -9999 -9999 -9999 -9999 -9999 -9999 -9999 -9999 -9999 -9999 -9999 -9999 -9999 -9999 -9999 -9999 -9999 -9999 -9999 -9999 -9999 -9999 -9999 -9999 -9999 -9999 -9999 -9999 -9999 -9999 -9999 -9999 -9999 -9999 -9999 -9999 -9999 -9999 -9999 -9999 -9999 -9999 -9999 -9999 -9999 -9999 -9999 -9999 -9999 -9999 -9999 -9999 -9999 -9999 -9999 -9999 -9999 -9999 -9999 -9999 -9999 -9999 -9999 -9999 -9999 -9999 -9999 -9999 -9999 -9999 -9999 -9999 -9999 -9999 -9999 -9999 -9999 -9999 -9999 -9999 -9999 -9999 -9999 -9999 -9999 -9999 -9999 -9999 -9999 -9999 -9999 -9999 -9999 -9999 -9999 -9999 -9999 -9999 -9999 -9999 -9999 -9999 -9999 -9999 -9999 -9999 -9999 -9999 -9999 -9999 -9999 -9999 -9999 -9999 -9999 -9999 -9999 -9999 -9999 -9999 -9999 -9999 -9999 -9999 -9999 -9999 -9999 -9999 -9999 -9999 -9999 -9999 -9999 -9999 -9999 -9999 -9999 -9999 -9999 -9999 -9999 -9999 -9999 -9999 -9999 -9999 541.417 541.51 541.719 542.245 542.395 542.387 542.517 542.639 542.965 543.58 544.287 545.05 546.24 547.21 548.222 548.896 549.326 549.68 550.371 550.681 551.468 551.953 552.781 553.5 554.34 555.068 555.406 555.643 556.119 556.779 557.491 558.435 559.308 560.838 562.112 562.839 563.845 563.938 563.999 563.918 564.09 564.043 564.045 564.008 563.747 563.743 563.961 564.271 564.449 564.882 565.117 565.707 566.576 567.091 567.447 567.872 568.215 568.621 569.441 570.724 571.235 572.183 572.694 572.833 572.872 572.9 572.9 572.871 572.73 572.685 572.659 572.775 572.907 572.99 573.216 573.985 574.714 575.295 576.182 576.53 577.046 577.682 578.238 578.372 578.712 578.886 578.976 578.985 578.991 578.975 579.09 578.992 579.165 579.322 579.309 579.197 579.134 579.099 579.226 579.312 579.195 579.059 578.95 578.474 578.113 577.565 576.983 576.219 575.526 575.138 574.867 574.543 574.3 574.252 574.531 574.885 575.018 575.091 575.409 575.493 575.491 575.526 575.638 575.891 576.145 576.56 576.93 577.129 577.369 577.82 578.14 578.409 578.744 578.951 579.191 579.496 580.112 580.564 580.349 580.132 579.909 579.938 579.96 580.092 580.246 580.242 580.277 580.123 579.961 579.73 579.579 579.377 579.636 579.491 579.171 579.41 579.632 579.764 579.698 579.683 579.489 579.408 579.378 579.32 579.205 579.112 578.948 578.937
450.648 451.24 451.915 452.575 453.33 454.31 454.948 455.408 455.963 456.618 457.23 457.988 458.51 459.088 461.748 462.565 461.978 462.74 464.073 464.645 462.458 464.96 464.2 463.008 462.643 464.405 465.36 465.728 464.418 463.448 463.07 461.943 461.843 464.48 462.688 462.25 462.83 463.343 463.923 464.738 465.555 466.625 467.583 468.498 469.685 470.885 471.908 472.803 473.89 475.275 476.553 477.6 478.253 478.53 478.898 479.483 480.133 480.795 481.465 482.253 482.984 -9999 -9999 -9999 -9999 -9999 -9999 -9999 -9999 -9999 -9999 -9999 -9999 -9999 -9999 -9999 -9999 -9999 -9999 -9999 -9999 -9999 -9999 -9999 -9999 -9999 -9999 -9999 -9999 -9999 -9999 -9999 -9999 -9999 -9999 -9999 -9999 -9999 -9999 -9999 -9999 -9999 -9999 -9999 -9999 -9999 -9999 -9999 -9999 -9999 -9999 -9999 -9999 -9999 -9999 -9999 -9999 -9999 -9999 -9999 -9999 -9999 -9999 -9999 -9999 -9999 -9999 -9999 -9999 -9999 -9999 -9999 -9999 -9999 -9999 -9999 -9999 -9999 -9999 -9999 -9999 -9999 -9999 -9999 -9999 -9999 -9999 -9999 -9999 -9999 -9999 -9999 -9999 -9999 -9999 -9999 -9999 -9999 -9999 -9999 -9999 -9999 -9999 -9999 -9999 -9999 -9999 -9999 -9999 -9999 -9999 -9999 -9999 -9999 -9999 -9999 -9999 -9999 -9999 -9999 -9999 -9999 -9999 -9999 -9999 -9999 -9999 -9999 -9999 -9999 -9999 -9999 -9999 -9999 -9999 -9999 -9999 -9999 -9999 -9999 -9999 -9999 -9999 -9999 -9999 -9999 -9999 -9999 -9999 -9999 -9999 -9999 -9999 540.577 541.164 541.142 541.213 541.581 541.861 542.037 542.358 542.538 542.822 543.456 544.252 545.278 546.01 547.192 548.212 549.015 549.23 549.649 550.135 550.415 551.103 551.689 552.538 553.853 554.502 555.265 555.535 555.699 555.841 556.026 556.731 557.537 558.442 559.349 560.395 562.246 563.521 563.776 563.766 563.811 563.89 563.864 563.851 563.839 563.716 563.765 563.931 564.232 564.427 564.814 565.091 565.527 566.059 566.901 567.22 567.457 567.634 568.112 569.059 569.701 570.359 571.063 571.731 572.235 572.435 572.571 572.67 572.632 572.647 572.738 572.661 572.741 572.87 572.979 573.251 573.813 574.642 575.438 575.819 576.467 577.064 577.456 577.862 578.138 578.423 578.534 578.571 578.424 578.533 578.417 578.186 578.571 578.47 578.563 578.69 578.606 578.562 578.516 578.691 578.844 578.667 578.613 578.73 578.439 578.018 577.354 576.696 576.029 575.401 575.193 575.004 574.798 574.453 574.217 574.43 574.851 574.966 575.1 575.363 575.372 575.431 575.483 575.511 575.652 575.909 576.156 576.601 577.043 577.349 577.636 577.881 578.219 578.598 578.838 578.974 579.251 579.713 579.859 579.753 579.589 579.575 579.635 579.724 579.856 579.979 580.006 580.028 579.913 579.823 579.75 579.58 579.493 579.539 579.553 579.388 579.407 579.636 579.732 579.664 579.505 579.289 579.139 579.092 579.029 578.901 578.959 578.755 578.696
450.363 451.07 451.823 452.558 453.293 454.065 454.778 455.27 455.803 456.345 456.85 457.49 458.223 458.823 460.333 462.035 462.665 462.4 463.93 464.348 463.145 464.48 465.088 462.843 465.088 463.608 463.963 465.153 463.558 463.303 463.78 463.78 463.513 464.273 464.14 463.195 462.558 462.975 463.36 464.105 465.023 466.053 467.133 468.203 469.38 470.453 471.443 472.38 473.305 474.675 476.045 477.065 477.638 478.05 478.395 478.983 479.875 480.6 481.285 481.98 482.713 483.46 483.941 -9999 -9999 -9999 -9999 -9999 -9999 -9999 -9999 -9999 -9999 -9999 -9999 -9999 -9999 -9999 -9999 -9999 -9999 -9999 -9999 -9999 -9999 -9999 -9999 -9999 -9999 -9999 -9999 -9999 -9999 -9999 -9999 -9999 -9999 -9999 -9999 -9999 -9999 -9999 -9999 -9999 -9999 -9999 -9999 -9999 -9999 -9999 -9999 -9999 -9999 -9999 -9999 -9999 -9999 -9999 -9999 -9999 -9999 -9999 -9999 -9999 -9999 -9999 -9999 -9999 -9999 -9999 -9999 -9999 -9999 -9999 -9999 -9999 -9999 -9999 -9999 -9999 -9999 -9999 -9999 -9999 -9999 -9999 -9999 -9999 -9999 -9999 -9999 -9999 -9999 -9999 -9999 -9999 -9999 -9999 -9999 -9999 -9999 -9999 -9999 -9999 -9999 -9999 -9999 -9999 -9999 -9999 -9999 -9999 -9999 -9999 -9999 -9999 -9999 -9999 -9999 -9999 -9999 -9999 -9999 -9999 -9999 -9999 -9999 -9999 -9999 -9999 -9999 -9999 -9999 -9999 -9999 -9999 -9999 -9999 -9999 -9999 -9999 -9999 -9999 -9999 -9999 -9999 -9999 -9999 -9999 -9999 -9999 -9999 -9999 540.667 540.631 540.906 541.319 541.603 541.809 541.951 542.3 542.511 542.883 543.101 544.29 545.512 546.232 547.547 548.379 548.897 549.44 549.63 549.846 550.185 550.727 551.426 552.728 553.749 554.293 555.071 555.432 555.64 555.785 555.898 556.599 557.567 558.149 559.189 560.088 561.086 563.116 563.67 563.628 563.615 563.638 563.659 563.54 563.446 563.55 563.668 563.793 563.856 564.055 564.32 564.588 564.996 565.339 565.916 566.489 567.065 567.329 567.944 568.684 569.475 570.122 570.833 571.598 572.092 572.4 572.494 572.583 572.561 572.618 572.679 572.656 572.744 572.809 572.974 573.144 573.61 574.524 575.052 575.607 576.057 576.573 576.991 577.388 577.543 577.637 577.762 577.57 577.623 577.543 577.409 577.434 577.504 577.84 578.25 578.409 578.296 578.297 578.332 578.453 578.411 578.469 578.398 578.489 578.098 577.648 577.246 576.628 575.897 575.394 575.218 575.124 574.967 574.408 574.216 574.498 574.974 574.963 575.063 575.233 575.331 575.395 575.42 575.496 575.531 575.614 575.988 576.532 576.878 577.215 577.417 577.563 577.774 578.23 578.492 578.753 578.92 579.171 579.396 579.304 579.25 579.336 579.47 579.63 579.677 579.642 579.724 579.727 579.701 579.732 579.639 579.567 579.353 579.482 579.507 579.464 579.441 579.435 579.492 579.452 579.42 579.11 578.933 578.857 578.762 578.72 578.666 578.543 578.482
449.995 450.835 451.713 452.51 453.198 453.788 454.418 455 455.563 456.068 456.543 456.983 457.708 458.493 459.105 460.73 461.953 463.555 463.96 463.698 463.915 464.32 464.195 462.65 465.075 462.595 461.805 463.905 463.35 464.148 463.07 464.628 463.52 462.103 464.235 464.148 462.768 462.665 462.905 463.348 464.248 465.328 466.435 467.61 468.655 469.703 470.688 471.828 472.725 474.063 475.495 476.483 477.208 477.76 478.163 478.835 479.65 480.413 481.158 481.853 482.35 482.948 483.62 484.168 484.213 -9999 -9999 -9999 -9999 -9999 -9999 -9999 -9999 -9999 -9999 -9999 -9999 -9999 -9999 -9999 -9999 -9999 -9999 -9999 -9999 -9999 -9999 -9999 -9999 -9999 -9999 -9999 -9999 -9999 -9999 -9999 -9999 -9999 -9999 -9999 -9999 -9999 -9999 -9999 -9999 -9999 -9999 -9999 -9999 -9999 -9999 -9999 -9999 -9999 -9999 -9999 -9999 -9999 -9999 -9999 -9999 -9999 -9999 -9999 -9999 -9999 -9999 -9999 -9999 -9999 -9999 -9999 -9999 -9999 -9999 -9999 -9999 -9999 -9999 -9999 -9999 -9999 -9999 -9999 -9999 -9999 -9999 -9999 -9999 -9999 -9999 -9999 -9999 -9999 -9999 -9999 -9999 -9999 -9999 -9999 -9999 -9999 -9999 -9999 -9999 -9999 -9999 -9999 -9999 -9999 -9999 -9999 -9999 -9999 -9999 -9999 -9999 -9999 -9999 -9999 -9999 -9999 -9999 -9999 -9999 -9999 -9999 -9999 -9999 -9999 -9999 -9999 -9999 -9999 -9999 -9999 -9999 -9999 -9999 -9999 -9999 -9999 -9999 -9999 -9999 -9999 -9999 -9999 -9999 -9999 -9999 -9999 -9999 539.932 540.213 540.19 540.306 540.617 540.912 541.515 541.774 541.993 542.598 543.618 544.47 545.499 546.285 547.443 548.152 548.865 549.354 549.575 549.88 550.207 550.868 551.859 552.785 553.488 554.18 554.812 555.379 555.429 555.594 555.751 556.158 557.046 557.412 558.022 558.82 560.135 561.119 562.628 563.493 563.492 563.475 563.593 563.566 563.489 563.491 563.545 563.695 563.709 563.72 563.995 564.456 564.752 565.396 565.7 566.102 566.524 566.835 567.599 568.603 569.025 569.792 570.511 571.14 571.683 572.114 572.341 572.456 572.596 572.714 572.819 572.828 572.887 572.935 572.971 573.217 573.383 574.257 574.807 575.343 575.917 576.404 576.687 576.967 577.24 577.391 577.453 577.315 577.241 577.003 576.922 576.926 577.164 577.529 577.821 577.93 578.019 577.943 577.975 577.878 577.825 577.949 578.061 577.976 577.616 577.342 576.944 576.264 575.717 575.393 575.265 575.283 575.047 574.38 574.011 574.34 574.761 574.898 575.071 575.169 575.302 575.347 575.39 575.498 575.546 575.605 575.715 576.168 576.657 576.969 577.143 577.295 577.654 577.967 578.301 578.589 578.644 578.664 578.609 578.895 578.904 579.131 579.214 579.371 579.384 579.323 579.321 579.375 579.405 579.474 579.429 579.363 579.225 579.297 579.267 579.236 579.099 579.143 579.23 579.155 578.996 578.977 578.839 578.766 578.662 578.547 578.467 578.328 578.332
449.828 450.645 451.44 452.188 453.01 453.573 454.08 454.568 455.225 455.775 456.213 456.6 457.17 458.068 458.74 459.525 462.448 462.96 464.01 464.045 462.86 463.413 464.503 464.62 465.7 464.343 463.378 462.82 463.595 464.513 464.275 463.668 463.843 464.338 464.1 464.265 462.868 462.423 462.628 463.043 463.733 464.748 465.693 466.605 467.613 468.775 469.958 471.278 472.268 473.74 475.005 475.728 476.755 477.54 478.153 478.823 479.533 480.265 481.008 481.675 482.023 482.44 482.973 483.708 484.158 484.435 484.683 -9999 -9999 -9999 -9999 -9999 -9999 -9999 -9999 -9999 -9999 -9999 -9999 -9999 -9999 -9999 -9999 -9999 -9999 -9999 -9999 -9999 -9999 -9999 -9999 -9999 -9999 -9999 -9999 -9999 -9999 -9999 -9999 -9999 -9999 -9999 -9999 -9999 -9999 -9999 -9999 -9999 -9999 -9999 -9999 -9999 -9999 -9999 -9999 -9999 -9999 -9999 -9999 -9999 -9999 -9999 -9999 -9999 -9999 -9999 -9999 -9999 -9999 -9999 -9999 -9999 -9999 -9999 -9999 -9999 -9999 -9999 -9999 -9999 -9999 -9999 -9999 -9999 -9999 -9999 -9999 -9999 -9999 -9999 -9999 -9999 -9999 -9999 -9999 -9999 -9999 -9999 -9999 -9999 -9999 -9999 -9999 -9999 -9999 -9999 -9999 -9999 -9999 -9999 -9999 -9999 -9999 -9999 -9999 -9999 -9999 -9999 -9999 -9999 -9999 -9999 -9999 -9999 -9999 -9999 -9999 -9999 -9999 -9999 -9999 -9999 -9999 -9999 -9999 -9999 -9999 -9999 -9999 -9999 -9999 -9999 -9999 -9999 -9999 -9999 -9999 -9999 -9999 -9999 -9999 -9999 -9999 539.82 539.689 539.783 540.048 540.514 540.806 541.286 541.674 542.052 542.666 543.603 544.647 545.403 546.349 547.35 548.178 548.486 549.035 549.336 549.558 549.9 550.15 550.95 551.832 552.918 553.373 554.251 554.919 555.233 555.281 555.484 555.916 556.604 557.206 557.59 558.285 560.035 561.626 562.645 563.336 563.375 563.333 563.571 563.56 563.567 563.457 563.382 563.521 563.54 563.378 563.453 563.842 564.19 564.564 565.025 565.511 566 566.492 567.245 567.913 568.817 569.51 570.108 570.841 571.513 571.998 572.393 572.59 572.864 572.767 572.803 572.864 572.865 572.947 573.052 573.268 573.502 574.181 574.576 575.034 575.649 576.073 576.258 576.334 576.225 576.536 576.625 576.416 576.256 576.244 576.35 576.475 576.589 576.683 576.832 577.063 577.17 577.497 577.616 577.704 577.69 577.676 577.859 577.915 577.538 577.149 576.756 576.182 575.653 575.284 575.258 575.046 574.87 574.343 574.109 574.317 574.763 574.892 575.002 575.167 575.284 575.343 575.4 575.512 575.574 575.53 575.539 575.769 576.232 576.617 576.824 577.109 577.361 577.645 577.856 578.107 578.275 578.289 578.371 578.345 578.499 578.748 578.982 579.182 579.094 579.07 579.115 579.138 579.159 579.157 579.154 579.16 578.956 578.981 579.005 579.066 579.027 578.966 578.828 578.686 578.606 578.402 578.365 578.432 578.607 578.324 578.123 578.146 578.211
449.773 450.445 451.148 451.71 452.548 453.358 453.82 454.168 454.705 455.378 455.908 456.298 456.713 457.498 458.363 459.045 460.098 461.325 462.545 462.65 461.65 463.23 464.563 464.45 465.225 465.245 464.908 463.04 463.225 462.685 463.86 463.853 464.105 465.543 462.69 464.963 464.398 462.3 462.448 462.933 463.585 464.315 465.158 465.958 466.753 467.93 469.155 470.478 471.908 473.228 474.588 475.16 476.015 477.03 477.868 478.615 479.328 480.088 480.705 481.245 481.598 481.998 482.405 482.95 483.678 484.165 484.458 484.501 -9999 -9999 -9999 -9999 -9999 -9999 -9999 -9999 -9999 -9999 -9999 -9999 -9999 -9999 -9999 -9999 -9999 -9999 -9999 -9999 -9999 -9999 -9999 -9999 -9999 -9999 -9999 -9999 -9999 -9999 -9999 -9999 -9999 -9999 -9999 -9999 -9999 -9999 -9999 -9999 -9999 -9999 -9999 -9999 -9999 -9999 -9999 -9999 -9999 -9999 -9999 -9999 -9999 -9999 -9999 -9999 -9999 -9999 -9999 -9999 -9999 -9999 -9999 -9999 -9999 -9999 -9999 -9999 -9999 -9999 -9999 -9999 -9999 -9999 -9999 -9999 -9999 -9999 -9999 -9999 -9999 -9999 -9999 -9999 -9999 -9999 -9999 -9999 -9999 -9999 -9999 -9999 -9999 -9999 -9999 -9999 -9999 -9999 -9999 -9999 -9999 -9999 -9999 -9999 -9999 -9999 -9999 -9999 -9999 -9999 -9999 -9999 -9999 -9999 -9999 -9999 -9999 -9999 -9999 -9999 -9999 -9999 -9999 -9999 -9999 -9999 -9999 -9999 -9999 -9999 -9999 -9999 -9999 -9999 -9999 -9999 -9999 -9999 -9999 -9999 -9999 -9999 -9999 -9999 -9999 539.164 539.194 539.27 539.652 540.219 540.379 540.629 541.109 542.037 542.506 543.329 543.904 545.03 546.136 546.994 547.919 548.349 548.809 549.099 549.464 549.811 550.179 551.004 552.09 552.753 553.449 554.074 554.784 555.025 555.1 555.243 555.542 556.037 556.63 556.967 558.286 558.953 560.247 562.06 563.315 563.406 563.315 563.419 563.527 563.516 563.429 563.327 563.363 563.349 563.23 563.244 563.502 563.92 564.354 565.06 565.435 565.895 566.286 566.873 567.805 568.778 569.302 569.766 570.454 571.327 571.825 572.489 573.185 573.411 573.53 573.374 573.418 573.298 573.318 573.431 573.646 573.819 574.297 574.529 574.808 575.299 575.689 575.875 575.95 575.956 575.946 576.041 576.025 575.932 576.093 576.082 576.227 576.252 576.451 576.61 576.895 577.13 577.334 577.523 577.565 577.523 577.497 577.479 577.453 577.218 576.883 576.372 575.929 575.447 575.054 574.773 574.447 574.214 574.097 573.921 574.462 574.698 574.861 574.926 575.068 575.221 575.305 575.307 575.485 575.491 575.524 575.497 575.685 576.085 576.297 576.599 576.922 577.134 577.351 577.555 577.692 577.873 577.943 578.13 578.185 578.251 578.542 578.758 578.707 578.772 578.814 578.842 578.879 578.895 578.895 578.902 578.923 578.674 578.723 578.882 578.741 578.672 578.645 578.694 578.437 578.15 577.93 578.015 578.081 578.14 577.933 577.813 577.774 577.873
449.55 450.178 450.885 451.518 452.093 453.003 453.575 453.928 454.298 455 455.608 456.02 456.495 457.073 457.958 458.658 459.29 460.65 461.618 462.44 461.258 463.468 464.035 464.053 464.01 463.898 464.098 464.275 463.203 463.783 464.835 464.333 464.658 465.265 463.548 462.9 464.695 462.598 462.338 462.79 463.35 463.913 464.608 465.373 466.205 467.445 468.653 470.165 471.428 472.615 473.853 474.64 475.18 476.228 477.348 478.248 478.915 479.655 480.423 481 481.288 481.515 481.895 482.27 483.15 483.643 483.928 484.048 484.54 485.231 -9999 -9999 -9999 -9999 -9999 -9999 -9999 -9999 -9999 -9999 -9999 -9999 -9999 -9999 -9999 -9999 -9999 -9999 -9999 -9999 -9999 -9999 -9999 -9999 -9999 -9999 -9999 -9999 -9999 -9999 -9999 -9999 -9999 -9999 -9999 -9999 -9999 -9999 -9999 -9999 -9999 -9999 -9999 -9999 -9999 -9999 -9999 -9999 -9999 -9999 -9999 -9999 -9999 -9999 -9999 -9999 -9999 -9999 -9999 -9999 -9999 -9999 -9999 -9999 -9999 -9999 -9999 -9999 -9999 -9999 -9999 -9999 -9999 -9999 -9999 -9999 -9999 -9999 -9999 -9999 -9999 -9999 -9999 -9999 -9999 -9999 -9999 -9999 -9999 -9999 -9999 -9999 -9999 -9999 -9999 -9999 -9999 -9999 -9999 -9999 -9999 -9999 -9999 -9999 -9999 -9999 -9999 -9999 -9999 -9999 -9999 -9999 -9999 -9999 -9999 -9999 -9999 -9999 -9999 -9999 -9999 -9999 -9999 -9999 -9999 -9999 -9999 -9999 -9999 -9999 -9999 -9999 -9999 -9999 -9999 -9999 -9999 -9999 -9999 -9999 -9999 -9999 -9999 538.757 538.667 538.945 539.437 539.875 540.146 540.523 541.136 541.929 542.43 543.418 544.145 545.148 546.09 546.974 547.704 548.377 548.637 548.979 549.329 549.732 550.094 550.856 551.678 552.069 552.793 553.378 554.075 554.406 554.539 554.731 554.983 555.373 556.081 556.524 557.846 558.862 560.062 562.668 563.184 563.38 563.328 563.431 563.486 563.439 563.369 563.208 563.166 563.168 563.018 563.002 563.024 563.314 563.853 564.606 565.171 565.353 565.843 566.403 567.169 567.831 568.634 569.249 570.232 570.934 571.791 572.52 573.232 573.652 573.737 573.771 573.624 573.489 573.424 573.529 573.753 573.935 574.244 574.504 574.709 575.069 575.367 575.556 575.422 575.537 575.507 575.402 575.45 575.63 575.732 575.809 575.842 575.98 576.164 576.375 576.698 576.951 577.155 577.308 577.35 577.284 577.305 577.282 577.228 576.943 576.7 576.275 575.896 575.378 574.85 574.335 574.194 574.041 573.986 574.077 574.52 574.582 574.73 574.862 574.95 575.121 575.235 575.303 575.386 575.52 575.566 575.488 575.608 575.789 575.98 576.372 576.719 576.828 576.982 577.288 577.362 577.462 577.671 577.738 577.775 578.032 578.239 578.416 578.428 578.318 578.387 578.485 578.649 578.701 578.677 578.677 578.638 578.486 578.46 578.547 578.305 578.191 578.24 578.258 578.104 577.883 577.689 577.714 577.761 577.804 577.818 577.647 577.513 577.56
449.363 450.05 450.728 451.405 451.918 452.515 453.175 453.648 454.055 454.69 455.26 455.81 456.23 456.73 457.503 458.405 458.913 459.398 460.643 461.94 461.388 462.805 463.485 463.793 464.283 463.468 463.36 463.708 463.153 463.01 465.088 463.4 464.123 463.94 461.753 461.503 463.248 463.08 462.08 462.558 462.97 463.448 464.06 464.768 465.753 467.093 468.385 469.525 470.705 471.758 472.998 473.91 474.45 475.31 476.533 477.8 478.675 479.248 480.115 480.75 481.133 481.09 481.408 481.633 482.243 482.985 483.355 483.545 483.893 484.59 485.295 485.801 -9999 -9999 -9999 -9999 -9999 -9999 -9999 -9999 -9999 -9999 -9999 -9999 -9999 -9999 -9999 -9999 -9999 -9999 -9999 -9999 -9999 -9999 -9999 -9999 -9999 -9999 -9999 -9999 -9999 -9999 -9999 -9999 -9999 -9999 -9999 -9999 -9999 -9999 -9999 -9999 -9999 -9999 -9999 -9999 -9999 -9999 -9999 -9999 -9999 -9999 -9999 -9999 -9999 -9999 -9999 -9999 -9999 -9999 -9999 -9999 -9999 -9999 -9999 -9999 -9999 -9999 -9999 -9999 -9999 -9999 -9999 -9999 -9999 -9999 -9999 -9999 -9999 -9999 -9999 -9999 -9999 -9999 -9999 -9999 -9999 -9999 -9999 -9999 -9999 -9999 -9999 -9999 -9999 -9999 -9999 -9999 -9999 -9999 -9999 -9999 -9999 -9999 -9999 -9999 -9999 -9999 -9999 -9999 -9999 -9999 -9999 -9999 -9999 -9999 -9999 -9999 -9999 -9999 -9999 -9999 -9999 -9999 -9999 -9999 -9999 -9999 -9999 -9999 -9999 -9999 -9999 -9999 -9999 -9999 -9999 -9999 -9999 -9999 -9999 -9999 -9999 538.331 538.547 538.752 539.103 539.493 539.923 540.423 541.048 541.853 542.306 542.668 543.166 544.106 545.04 546.207 547.262 547.998 548.471 548.951 549.217 549.684 550.206 550.918 551.557 552.067 552.733 553.381 553.786 554.238 554.382 554.585 554.641 555.009 555.668 556.351 557.18 558.521 559.613 561.187 562.591 563.153 563.202 563.283 563.159 563.234 563.221 563.004 562.858 562.844 562.863 562.864 562.825 563.023 563.508 564.155 564.666 565.025 565.578 566.142 566.927 567.625 568.34 569.046 569.968 570.755 571.8 572.378 573.377 573.952 574.271 574.312 574.251 573.903 573.867 573.883 573.969 574.202 574.441 574.569 574.736 575.012 575.193 575.138 575.274 575.499 575.522 575.532 575.568 575.581 575.626 575.732 575.729 575.892 576.107 576.196 576.448 576.858 577.041 577.116 577.132 577.172 577.136 577.082 576.953 576.563 576.305 576.255 575.765 575.226 574.584 574.011 573.951 573.789 573.735 574.305 574.508 574.58 574.631 574.603 574.643 574.964 575.164 575.135 575.281 575.477 575.603 575.638 575.611 575.618 575.917 576.123 576.35 576.583 576.834 576.966 577.018 577.096 577.288 577.402 577.534 577.666 577.984 578.152 578.098 578.088 578.194 578.204 578.276 578.453 578.4 578.417 578.378 578.189 578.155 578.085 577.888 577.885 577.897 577.737 577.626 577.435 577.44 577.469 577.389 577.459 577.355 577.372 577.253 577.29
449.125 449.915 450.49 451.258 451.813 452.253 452.828 453.37 453.913 454.428 454.915 455.558 456.07 456.533 457.133 458.078 458.74 459.048 459.57 460.125 462.133 463.615 462.738 462.798 463.72 462.83 460.855 463.983 461.97 461.608 464.545 462.593 462.528 462.95 461.738 461.445 462.483 463.735 462.715 462.228 462.57 463.015 463.613 464.265 465.195 466.615 467.923 468.79 469.88 471.055 472.155 473.178 473.888 474.73 475.945 477.365 478.363 478.938 479.643 480.358 480.813 480.908 480.943 481.075 481.423 482.235 482.913 483.123 483.358 483.788 484.593 485.405 486.043 486.641 -9999 -9999 -9999 -9999 -9999 -9999 -9999 -9999 -9999 -9999 -9999 -9999 -9999 -9999 -9999 -9999 -9999 -9999 -9999 -9999 -9999 -9999 -9999 -9999 -9999 -9999 -9999 -9999 -9999 -9999 -9999 -9999 -9999 -9999 -9999 -9999 -9999 -9999 -9999 -9999 -9999 -9999 -9999 -9999 -9999 -9999 -9999 -9999 -9999 -9999 -9999 -9999 -9999 -9999 -9999 -9999 -9999 -9999 -9999 -9999 -9999 -9999 -9999 -9999 -9999 -9999 -9999 -9999 -9999 -9999 -9999 -9999 -9999 -9999 -9999 -9999 -9999 -9999 -9999 -9999 -9999 -9999 -9999 -9999 -9999 -9999 -9999 -9999 -9999 -9999 -9999 -9999 -9999 -9999 -9999 -9999 -9999 -9999 -9999 -9999 -9999 -9999 -9999 -9999 -9999 -9999 -9999 -9999 -9999 -9999 -9999 -9999 -9999 -9999 -9999 -9999 -9999 -9999 -9999 -9999 -9999 -9999 -9999 -9999 -9999 -9999 -9999 -9999 -9999 -9999 -9999 -9999 -9999 -9999 -9999 -9999 -9999 -9999 538.09 538.057 538.049 538.356 539.077 539.52 540.137 540.469 541.112 541.721 542.295 542.608 543.126 544.146 545.38 546.08 547.215 547.748 548.386 548.853 549.184 549.715 550.226 551.02 551.558 552.132 552.498 552.888 553.433 554.199 554.238 554.025 554.172 554.51 555.01 556.083 556.94 558.209 559.385 560.691 562.208 563.168 563.155 563.213 563.254 563.226 563.166 562.892 562.802 562.822 562.713 562.782 562.644 562.839 563.22 563.608 564.135 564.458 564.895 565.291 566.076 566.885 567.563 568.53 569.382 570.214 571.174 572.047 573.006 573.802 574.261 574.401 574.318 574.078 573.984 573.922 574.033 574.296 574.439 574.571 574.669 575.01 575.035 575.054 575.366 575.55 575.576 575.597 575.591 575.568 575.53 575.582 575.498 575.555 575.685 575.829 575.909 576.295 576.457 576.561 576.75 576.793 576.713 576.697 576.513 576.301 576.032 575.449 575.141 574.866 574.289 573.88 573.559 573.52 573.761 574.298 574.519 574.597 574.607 574.515 574.606 575.117 575.185 575.08 575.459 575.706 575.792 575.866 575.825 575.656 575.813 575.874 576.012 576.126 576.141 576.351 576.605 576.769 576.939 577.072 577.226 577.393 577.718 577.77 577.851 577.88 577.929 577.852 577.937 578.13 578.24 578.196 578.111 577.906 577.871 577.62 577.424 577.472 577.557 577.412 577.185 577.15 577.132 576.992 576.854 576.91 576.965 577.007 576.935 576.784
448.925 449.765 450.24 451.058 451.688 452.163 452.663 453.25 453.825 454.288 454.698 455.338 455.923 456.38 456.848 457.633 458.398 458.87 459.168 459.565 461.233 463.31 463.06 462.89 463.583 461.89 462.59 462.185 461.515 461.278 463.453 462.205 463.175 462.438 461.493 461.715 461.375 463.635 464.13 462.188 462.255 462.61 463.088 463.765 464.84 466.11 467.198 467.973 469.02 470.31 471.425 472.45 473.308 474.258 475.363 476.72 477.748 478.683 479.358 479.955 480.455 480.515 480.658 480.595 480.81 481.625 482.465 482.788 482.908 483.068 483.975 485.023 485.8 486.45 487.105 487.504 -9999 -9999 -9999 -9999 -9999 -9999 -9999 -9999 -9999 -9999 -9999 -9999 -9999 -9999 -9999 -9999 -9999 -9999 -9999 -9999 -9999 -9999 -9999 -9999 -9999 -9999 -9999 -9999 -9999 -9999 -9999 -9999 -9999 -9999 -9999 -9999 -9999 -9999 -9999 -9999 -9999 -9999 -9999 -9999 -9999 -9999 -9999 -9999 -9999 -9999 -9999 -9999 -9999 -9999 -9999 -9999 -9999 -9999 -9999 -9999 -9999 -9999 -9999 -9999 -9999 -9999 -9999 -9999 -9999 -9999 -9999 -9999 -9999 -9999 -9999 -9999 -9999 -9999 -9999 -9999 -9999 -9999 -9999 -9999 -9999 -9999 -9999 -9999 -9999 -9999 -9999 -9999 -9999 -9999 -9999 -9999 -9999 -9999 -9999 -9999 -9999 -9999 -9999 -9999 -9999 -9999 -9999 -9999 -9999 -9999 -9999 -9999 -9999 -9999 -9999 -9999 -9999 -9999 -9999 -9999 -9999 -9999 -9999 -9999 -9999 -9999 -9999 -9999 -9999 -9999 -9999 -9999 -9999 -9999 -9999 -9999 537.916 537.891 537.853 538.436 538.984 539.632 540.105 540.422 541.215 541.922 542.296 542.574 543.009 543.763 544.749 545.834 546.779 547.549 547.953 548.365 548.982 549.658 550.245 551.062 551.599 552.222 552.548 552.895 553.239 554.02 554.216 553.943 554.147 554.446 554.959 555.851 556.661 557.594 558.74 560.182 560.961 562.411 562.752 562.743 562.879 562.907 562.844 562.772 562.584 562.414 562.374 562.337 562.306 562.49 563.02 563.346 563.721 564.12 564.389 565.022 565.72 566.421 567.679 568.456 569.229 570.031 571.099 571.907 572.764 573.869 574.331 574.407 574.414 574.12 574.154 574.165 574.247 574.334 574.444 574.568 574.693 574.862 575.088 575.353 575.652 575.596 575.546 575.528 575.514 575.503 575.492 575.502 575.49 575.527 575.517 575.511 575.617 575.768 576.139 576.297 576.441 576.494 576.525 576.447 576.278 576.135 575.734 575.004 574.839 574.555 573.903 573.325 573.237 573.278 573.867 574.137 574.369 574.648 574.823 575.298 575.487 575.722 575.945 576.136 576.413 576.421 576.31 576.309 576.294 576.09 575.914 575.875 575.855 575.778 575.771 575.978 576.174 576.45 576.606 576.806 576.944 577.041 577.224 577.337 577.437 577.551 577.67 577.643 577.751 577.85 577.998 578.024 577.837 577.563 577.284 577.364 577.321 577.342 577.239 577.169 577.1 576.982 576.803 576.686 576.589 576.592 576.459 576.48 576.632 576.522
448.665 449.523 450.123 450.658 451.353 451.953 452.46 453.105 453.728 454.17 454.545 455.105 455.735 456.23 456.723 457.308 458.015 458.63 458.973 459.208 460.718 461.9 462.645 463.04 462.953 462.435 462.52 463.368 460.983 461.663 462.185 462.768 462.22 461.76 462.375 462.22 461.268 462.12 465.345 462.918 461.848 462.07 462.418 463.073 464.18 465.46 466.183 467.005 468.053 469.453 470.63 471.585 472.433 473.385 474.4 475.498 476.61 477.93 478.985 479.64 480.173 480.465 480.553 480.4 480.358 481.038 482.08 482.478 482.565 482.728 483.565 484.765 485.608 486.318 486.953 487.613 488.383 489.393 -9999 -9999 -9999 -9999 -9999 -9999 -9999 -9999 -9999 -9999 -9999 -9999 -9999 -9999 -9999 -9999 -9999 -9999 -9999 -9999 -9999 -9999 -9999 -9999 -9999 -9999 -9999 -9999 -9999 -9999 -9999 -9999 -9999 -9999 -9999 -9999 -9999 -9999 -9999 -9999 -9999 -9999 -9999 -9999 -9999 -9999 -9999 -9999 -9999 -9999 -9999 -9999 -9999 -9999 -9999 -9999 -9999 -9999 -9999 -9999 -9999 -9999 -9999 -9999 -9999 -9999 -9999 -9999 -9999 -9999 -9999 -9999 -9999 -9999 -9999 -9999 -9999 -9999 -9999 -9999 -9999 -9999 -9999 -9999 -9999 -9999 -9999 -9999 -9999 -9999 -9999 -9999 -9999 -9999 -9999 -9999 -9999 -9999 -9999 -9999 -9999 -9999 -9999 -9999 -9999 -9999 -9999 -9999 -9999 -9999 -9999 -9999 -9999 -9999 -9999 -9999 -9999 -9999 -9999 -9999 -9999 -9999 -9999 -9999 -9999 -9999 -9999 -9999 -9999 -9999 -9999 -9999 -9999 -9999 537.782 537.99 537.951 538.646 538.922 539.446 540.122 540.655 541.168 541.862 542.275 542.662 542.935 543.682 544.685 545.853 546.896 547.59 547.87 548.39 549.007 549.442 550.26 551.053 551.836 552.262 552.705 552.807 553.06 553.425 553.772 553.947 553.914 554.016 554.498 555.265 555.988 556.925 557.848 559.473 560.634 562.063 562.405 562.526 562.594 562.68 562.789 562.752 562.508 562.416 562.281 562.232 562.18 562.419 563.013 563.107 563.228 563.647 563.934 564.453 565.06 565.88 566.386 567.638 568.5 569.279 569.999 570.979 572.133 573.298 573.639 574.099 574.159 574.133 574.124 574.125 574.231 574.344 574.443 574.589 574.659 574.789 575.064 575.38 575.637 575.634 575.568 575.509 575.562 575.471 575.432 575.404 575.437 575.474 575.36 575.089 575.046 575.094 575.222 575.244 575.434 575.78 575.825 575.749 575.509 575.295 574.856 574.317 574.213 574.016 573.457 573.175 573.005 573.236 573.911 574.34 574.789 575.051 575.379 575.855 576.209 576.297 576.434 576.571 576.91 576.976 576.663 576.789 576.637 576.143 575.941 575.826 575.831 575.77 575.659 575.625 575.652 575.927 576.131 576.401 576.537 576.646 576.707 576.778 576.843 577.036 577.357 577.458 577.514 577.617 577.7 577.719 577.564 577.289 577.067 577.14 577.156 576.989 576.952 576.918 576.979 576.77 576.641 576.508 576.255 576.121 575.975 576.135 576.287 576.173
448.34 449.175 449.863 450.51 451.045 451.613 452.188 452.838 453.493 454 454.42 454.848 455.45 456.07 456.513 456.973 457.633 458.378 458.798 459.023 460.218 461.718 461.943 461.33 461.448 462.195 462.658 463.145 462.983 461.865 461.663 461.025 461.948 461.975 461.51 461.448 462.873 462.05 463.345 462.91 461.488 461.788 462.153 462.695 463.593 464.41 465.395 466.458 467.563 468.473 469.648 470.795 471.725 472.618 473.523 474.603 475.53 476.798 478.395 479.408 479.983 480.353 480.375 480.088 479.895 480.645 481.678 482.223 482.315 482.518 483.208 484.46 485.263 486.038 486.673 487.603 488.393 489.313 489.97 490.248 -9999 -9999 -9999 -9999 -9999 -9999 -9999 -9999 -9999 -9999 -9999 -9999 -9999 -9999 -9999 -9999 -9999 -9999 -9999 -9999 -9999 -9999 -9999 -9999 -9999 -9999 -9999 -9999 -9999 -9999 -9999 -9999 -9999 -9999 -9999 -9999 -9999 -9999 -9999 -9999 -9999 -9999 -9999 -9999 -9999 -9999 -9999 -9999 -9999 -9999 -9999 -9999 -9999 -9999 -9999 -9999 -9999 -9999 -9999 -9999 -9999 -9999 -9999 -9999 -9999 -9999 -9999 -9999 -9999 -9999 -9999 -9999 -9999 -9999 -9999 -9999 -9999 -9999 -9999 -9999 -9999 -9999 -9999 -9999 -9999 -9999 -9999 -9999 -9999 -9999 -9999 -9999 -9999 -9999 -9999 -9999 -9999 -9999 -9999 -9999 -9999 -9999 -9999 -9999 -9999 -9999 -9999 -9999 -9999 -9999 -9999 -9999 -9999 -9999 -9999 -9999 -9999 -9999 -9999 -9999 -9999 -9999 -9999 -9999 -9999 -9999 -9999 -9999 -9999 -9999 -9999 -9999 537.494 537.581 537.869 538.36 539.18 539.586 540.184 540.723 541.045 541.885 542.47 542.75 542.95 543.693 544.32 545.607 546.811 547.432 547.861 548.211 548.773 549.765 550.28 550.959 551.894 552.174 552.606 552.847 553.12 553.198 553.396 553.67 553.882 554.069 554.455 555.301 556.158 556.783 557.94 558.915 560.578 561.597 562.007 562.287 562.385 562.532 562.433 562.5 562.298 562.111 561.976 561.883 561.905 562.237 562.167 562.353 562.605 562.969 563.484 564.081 564.676 565.232 566.13 567.149 568.165 568.997 569.886 570.584 571.798 573.016 573.619 573.76 574.014 574.107 574.067 574.056 574.149 574.302 574.426 574.549 574.769 574.806 574.814 574.973 575.193 575.341 575.519 575.571 575.532 575.364 575.309 575.168 575.06 575.097 575.155 574.936 574.789 574.604 574.634 574.741 574.728 575.174 575.443 575.219 574.995 574.748 574.427 573.918 574.04 573.786 573.262 572.894 572.951 573.271 574.116 575.019 575.144 575.271 575.855 576.304 576.685 576.85 576.862 577.022 577.213 577.161 577.102 577.115 576.642 576.16 575.971 575.85 575.689 575.698 575.603 575.493 575.404 575.371 575.551 575.867 576.138 576.242 576.234 576.273 576.313 576.571 576.699 577.041 577.27 577.392 577.482 577.479 577.401 577.076 577.112 576.979 576.965 576.806 576.702 576.606 576.54 576.449 576.303 576.287 576.05 575.798 575.747 575.865 575.971 575.72
447.765 448.585 449.388 450.093 450.81 451.435 451.838 452.53 453.193 453.783 454.355 454.718 455.153 455.773 456.255 456.718 457.26 458.013 458.55 458.798 458.94 459.87 459.42 460.193 461.348 461.288 461.84 462.48 463.575 462.7 462.688 462.14 461.248 461.138 461.12 461.37 462.68 461.97 461.403 461.648 462.478 462.728 462.135 462.59 463.253 463.808 464.67 465.95 467.085 467.88 468.508 469.648 470.773 471.945 472.885 474.01 474.838 475.943 477.23 478.705 479.68 480.28 480.383 479.845 479.57 480.185 481.353 481.955 482.238 482.418 482.938 484.128 484.953 485.583 486.39 487.403 488.375 489.158 489.72 490.113 490.32 490.451 490.753 -9999 -9999 -9999 -9999 -9999 -9999 -9999 -9999 -9999 -9999 -9999 -9999 -9999 -9999 -9999 -9999 -9999 -9999 -9999 -9999 -9999 -9999 -9999 -9999 -9999 -9999 -9999 -9999 -9999 -9999 -9999 -9999 -9999 -9999 -9999 -9999 -9999 -9999 -9999 -9999 -9999 -9999 -9999 -9999 -9999 -9999 -9999 -9999 -9999 -9999 -9999 -9999 -9999 -9999 -9999 -9999 -9999 -9999 -9999 -9999 -9999 -9999 -9999 -9999 -9999 -9999 -9999 -9999 -9999 -9999 -9999 -9999 -9999 -9999 -9999 -9999 -9999 -9999 -9999 -9999 -9999 -9999 -9999 -9999 -9999 -9999 -9999 -9999 -9999 -9999 -9999 -9999 -9999 -9999 -9999 -9999 -9999 -9999 -9999 -9999 -9999 -9999 -9999 -9999 -9999 -9999 -9999 -9999 -9999 -9999 -9999 -9999 -9999 -9999 -9999 -9999 -9999 -9999 -9999 -9999 -9999 -9999 -9999 -9999 -9999 -9999 -9999 -9999 536.636 536.854 537.039 537.248 537.759 538.659 539.404 539.807 540.519 540.968 541.231 542.061 542.433 542.516 543.13 544.125 545.144 546.164 547.184 547.785 548.224 548.921 549.35 550.424 551.162 551.794 552.318 552.576 552.922 553.01 552.683 552.835 553.528 553.719 553.851 554.067 554.826 555.394 556.255 556.904 558.147 559.34 560.893 561.66 561.977 562.201 562.327 562.333 562.273 562.144 562.043 561.9 561.866 561.939 562.177 562.081 562.213 562.54 562.912 563.226 563.828 564.376 565.093 565.616 566.331 567.007 567.981 568.975 569.518 570.821 571.879 572.739 573.425 573.781 573.789 573.863 573.924 574.014 574.175 574.357 574.611 574.773 574.886 574.876 574.88 575.089 575.209 575.437 575.543 575.488 575.305 575.109 574.947 574.878 574.898 574.759 574.748 574.402 574.126 573.99 574.068 573.875 573.855 573.887 573.965 573.986 573.888 573.647 573.533 573.708 573.197 572.605 572.532 573.122 573.855 574.598 574.963 575.285 575.316 575.671 576.358 576.781 577.006 577.056 577.133 577.223 577.13 577.243 576.894 576.492 576.143 575.952 575.836 575.669 575.599 575.577 575.371 575.235 575.129 575.326 575.49 575.676 575.569 575.449 575.676 575.884 576.087 576.274 576.7 576.999 577.142 577.009 577.301 577.04 576.988 576.867 576.857 576.851 576.691 576.473 576.463 576.284 576.201 576.077 575.899 575.715 575.624 575.448 575.567 575.609 575.317
447.22 447.998 448.84 449.535 450.24 450.938 451.59 452.165 452.835 453.52 454.203 454.58 454.933 455.335 455.963 456.425 456.99 457.678 458.223 458.538 458.705 458.94 460.435 460.625 460.958 460.835 462.495 461.845 462.613 462.463 462.123 461.988 461.41 461.91 461.283 461.158 462.343 461.585 461.168 461.298 463.358 462.573 462.09 462.478 462.953 463.388 464.133 465.19 466.188 467.038 467.678 468.285 469.575 470.96 471.903 472.72 473.89 474.863 476.24 477.643 479.035 480.093 480.348 479.98 479.583 479.983 480.895 481.673 482.073 482.37 482.78 483.82 484.578 485.205 486.003 487.045 488.273 489.028 489.518 489.9 490.103 490.283 490.605 490.965 491.191 -9999 -9999 -9999 -9999 -9999 -9999 -9999 -9999 -9999 -9999 -9999 -9999 -9999 -9999 -9999 -9999 -9999 -9999 -9999 -9999 -9999 -9999 -9999 -9999 -9999 -9999 -9999 -9999 -9999 -9999 -9999 -9999 -9999 -9999 -9999 -9999 -9999 -9999 -9999 -9999 -9999 -9999 -9999 -9999 -9999 -9999 -9999 -9999 -9999 -9999 -9999 -9999 -9999 -9999 -9999 -9999 -9999 -9999 -9999 -9999 -9999 -9999 -9999 -9999 -9999 -9999 -9999 -9999 -9999 -9999 -9999 -9999 -9999 -9999 -9999 -9999 -9999 -9999 -9999 -9999 -9999 -9999 -9999 -9999 -9999 -9999 -9999 -9999 -9999 -9999 -9999 -9999 -9999 -9999 -9999 -9999 -9999 -9999 -9999 -9999 -9999 -9999 -9999 -9999 -9999 -9999 -9999 -9999 -9999 -9999 -9999 -9999 -9999 -9999 -9999 -9999 -9999 -9999 -9999 -9999 -9999 -9999 -9999 -9999 -9999 -9999 -9999 536.62 536.587 536.906 537.375 538.394 539.196 539.764 540.343 541.023 541.375 541.78 542.304 542.44 542.842 543.917 545.141 545.936 546.882 547.737 548.062 548.737 549.303 550.161 550.831 551.273 551.823 552.323 552.713 552.797 552.693 552.65 553.08 553.542 553.628 553.737 554.341 554.851 556.077 556.648 557.982 558.834 560.327 561.428 561.665 561.995 562.128 562.147 561.914 561.946 561.812 561.68 561.527 561.484 561.548 561.56 561.792 562.203 562.413 562.784 563.251 563.757 564.308 565.233 565.915 566.494 567.577 568.109 569.505 570.196 571.304 572.203 572.972 573.589 573.562 573.76 573.768 573.963 574.125 574.303 574.616 574.807 575.028 575.18 575.165 575.148 574.965 575.143 575.313 575.144 574.85 574.55 574.082 573.731 574.209 574.266 574.098 573.771 573.344 572.889 572.959 573.02 573.093 573.087 573.461 573.424 573.351 573.223 573.108 573.305 572.784 572.291 572.328 573.242 574.003 574.6 574.912 575.157 575.219 575.701 576.471 576.75 577.146 577.413 577.343 577.233 577.297 577.223 576.744 576.353 576.14 575.956 575.762 575.681 575.513 575.459 575.146 574.942 574.885 574.886 574.988 575.095 575.101 575.085 575.258 575.57 575.743 575.959 576.398 576.579 576.652 576.728 576.655 576.627 576.684 576.593 576.585 576.578 576.452 576.282 576.24 576.131 575.975 575.847 575.665 575.508 575.314 575.257 575.268 575.215 574.97
446.84 447.665 448.44 449.048 449.73 450.6 451.233 451.735 452.493 453.23 453.983 454.485 454.778 455.135 455.635 456.143 456.74 457.38 457.885 458.268 458.493 458.668 459.748 460.683 460.47 460.475 460.585 461.55 462.173 462.505 461.503 461.333 460.83 461.325 462.61 461.66 461.62 461.178 461.35 462.625 463.233 463.945 462.25 462.388 462.708 463.1 463.64 464.443 465.295 466.01 466.87 467.683 468.548 469.783 470.655 471.54 472.87 474.06 475.453 477.023 478.45 479.763 480.325 480.003 479.665 479.973 480.835 481.443 481.83 482.25 482.663 483.435 484.175 484.76 485.505 486.69 488 488.873 489.303 489.668 489.915 490.158 490.395 490.755 491.038 491.21 491.493 491.708 -9999 -9999 -9999 -9999 -9999 -9999 -9999 -9999 -9999 -9999 -9999 -9999 -9999 -9999 -9999 -9999 -9999 -9999 -9999 -9999 -9999 -9999 -9999 -9999 -9999 -9999 -9999 -9999 -9999 -9999 -9999 -9999 -9999 -9999 -9999 -9999 -9999 -9999 -9999 -9999 -9999 -9999 -9999 -9999 -9999 -9999 -9999 -9999 -9999 -9999 -9999 -9999 -9999 -9999 -9999 -9999 -9999 -9999 -9999 -9999 -9999 -9999 -9999 -9999 -9999 -9999 -9999 -9999 -9999 -9999 -9999 -9999 -9999 -9999 -9999 -9999 -9999 -9999 -9999 -9999 -9999 -9999 -9999 -9999 -9999 -9999 -9999 -9999 -9999 -9999 -9999 -9999 -9999 -9999 -9999 -9999 -9999 -9999 -9999 -9999 -9999 -9999 -9999 -9999 -9999 -9999 -9999 -9999 -9999 -9999 -9999 -9999 -9999 -9999 -9999 -9999 -9999 -9999 -9999 -9999 -9999 -9999 -9999 -9999 535.907 536.036 536.481 537.225 538.003 538.686 539.396 540.005 540.402 540.929 541.539 541.914 542.087 542.474 543.053 544.344 545.69 546.452 547.082 547.638 548.303 549.092 549.839 550.795 551.149 551.762 552.254 552.675 552.876 552.666 552.453 552.845 553.274 553.478 553.584 553.873 554.536 555.027 556.089 556.991 558.323 559.754 560.39 560.76 561.285 561.663 561.765 561.729 561.733 561.682 561.447 561.331 561.24 561.288 561.448 561.764 562.055 562.378 562.616 563.12 563.708 564.446 564.704 565.542 565.966 566.592 567.152 567.499 568.327 569.591 570.811 572.132 572.484 572.707 572.907 573.312 573.514 573.802 573.986 574.13 574.423 574.772 575.093 575.179 575.149 574.996 575.056 575.038 574.821 574.577 574.422 573.757 573.554 573.814 573.829 573.659 573.31 573.019 572.611 572.422 572.322 572.341 572.522 572.521 572.662 572.597 572.576 572.692 572.262 571.974 571.943 572.551 573.443 573.902 574.379 574.598 574.917 575.135 575.383 575.995 576.667 577.051 577.378 577.347 577.231 577.198 576.973 576.61 576.3 576.066 575.965 575.809 575.676 575.491 575.387 575.005 574.651 574.511 574.636 574.689 574.692 574.734 574.85 575.143 575.389 575.388 575.697 575.92 576.095 576.211 576.308 576.264 576.386 576.433 576.344 576.302 576.283 576.201 576.039 576.035 575.895 575.749 575.606 575.384 575.224 575.123 574.952 574.972 574.844 574.567
446.425 447.305 448.055 448.87 449.278 450.258 450.93 451.263 452.045 452.988 453.673 454.295 454.678 455.038 455.283 455.825 456.38 457.01 457.525 457.938 458.27 458.458 458.748 460.453 460.7 461.013 460.275 459.925 461.045 461.313 460.835 462.253 461.568 461.758 462.24 461.818 461.39 461.43 462.525 464.27 463.688 465.393 463.633 462.295 462.643 462.938 463.318 463.99 464.58 465.255 466.135 466.968 467.61 468.645 469.818 470.983 472.133 473.688 475.173 476.568 477.863 479.228 480.088 480.058 479.843 479.868 480.565 481.143 481.573 481.97 482.338 482.993 483.713 484.318 485.05 486.153 487.523 488.558 489.073 489.42 489.763 490.028 490.258 490.528 490.843 491.03 491.29 491.575 492.008 492.268 -9999 -9999 -9999 -9999 -9999 -9999 -9999 -9999 -9999 -9999 -9999 -9999 -9999 -9999 -9999 -9999 -9999 -9999 -9999 -9999 -9999 -9999 -9999 -9999 -9999 -9999 -9999 -9999 -9999 -9999 -9999 -9999 -9999 -9999 -9999 -9999 -9999 -9999 -9999 -9999 -9999 -9999 -9999 -9999 -9999 -9999 -9999 -9999 -9999 -9999 -9999 -9999 -9999 -9999 -9999 -9999 -9999 -9999 -9999 -9999 -9999 -9999 -9999 -9999 -9999 -9999 -9999 -9999 -9999 -9999 -9999 -9999 -9999 -9999 -9999 -9999 -9999 -9999 -9999 -9999 -9999 -9999 -9999 -9999 -9999 -9999 -9999 -9999 -9999 -9999 -9999 -9999 -9999 -9999 -9999 -9999 -9999 -9999 -9999 -9999 -9999 -9999 -9999 -9999 -9999 -9999 -9999 -9999 -9999 -9999 -9999 -9999 -9999 -9999 -9999 -9999 -9999 -9999 -9999 -9999 -9999 535.506 535.32 535.386 536.15 537.022 537.895 538.571 539.186 539.865 540.416 540.778 541.391 541.88 542.035 542.474 542.755 543.568 544.576 545.798 546.373 547.215 547.963 548.797 549.209 549.966 550.481 550.954 551.282 551.663 552.012 552.124 552.295 552.46 553.057 553.258 553.332 553.707 554.149 554.932 555.557 557.027 558.239 559.1 560.359 560.885 561.04 561.246 561.542 561.602 561.505 561.506 561.298 561.029 560.95 560.914 560.986 561.346 561.768 561.778 562.045 562.349 562.87 563.695 564.39 564.877 565.494 565.988 566.499 567.212 567.801 568.911 569.921 571.366 571.915 572.276 572.651 573.107 573.337 573.499 573.757 573.949 574.139 574.549 574.81 575.13 575.148 574.946 574.818 574.789 574.396 574.174 573.805 573.511 573.329 573.013 572.887 572.789 572.612 572.243 571.668 571.306 571.559 571.549 571.343 571.573 571.659 571.92 571.944 572.167 571.84 571.604 572.008 572.679 573.398 573.755 574.085 574.448 574.829 574.934 575.294 575.924 576.511 576.953 577.321 577.256 577.089 577.109 576.582 576.357 576.164 575.982 575.901 575.901 575.757 575.462 575.227 574.862 574.424 574.072 574.314 574.26 574.268 574.303 574.469 574.59 574.958 575.212 575.397 575.48 575.782 575.801 575.876 576.029 576.06 576.141 576.123 576.027 575.949 575.862 575.765 575.638 575.607 575.468 575.308 575.135 574.978 574.827 574.718 574.636 574.511 574.252
445.868 446.683 447.465 448.303 448.873 449.58 450.533 451.085 451.615 452.585 453.493 453.983 454.568 454.878 455.093 455.54 456.113 456.623 457.15 457.62 457.973 458.208 458.405 459.27 460.895 460.75 460.735 460.3 459.975 460.25 461.595 461.68 461.713 461.265 462.49 462.373 462.768 462.943 461.87 462.498 464.83 465.298 464.943 463.243 462.635 462.885 463.218 463.7 464.2 464.815 465.703 466.463 467.208 468.08 469.44 470.96 472.17 473.623 475.158 476.143 477.193 478.618 479.658 479.95 480.065 480.01 480.235 480.863 481.368 481.71 482.028 482.403 483.138 483.878 484.673 485.683 487.16 488.168 488.773 489.2 489.553 489.845 490.085 490.348 490.63 490.885 491.115 491.373 491.785 492.208 492.4 492.531 -9999 -9999 -9999 -9999 -9999 -9999 -9999 -9999 -9999 -9999 -9999 -9999 -9999 -9999 -9999 -9999 -9999 -9999 -9999 -9999 -9999 -9999 -9999 -9999 -9999 -9999 -9999 -9999 -9999 -9999 -9999 -9999 -9999 -9999 -9999 -9999 -9999 -9999 -9999 -9999 -9999 -9999 -9999 -9999 -9999 -9999 -9999 -9999 -9999 -9999 -9999 -9999 -9999 -9999 -9999 -9999 -9999 -9999 -9999 -9999 -9999 -9999 -9999 -9999 -9999 -9999 -9999 -9999 -9999 -9999 -9999 -9999 -9999 -9999 -9999 -9999 -9999 -9999 -9999 -9999 -9999 -9999 -9999 -9999 -9999 -9999 -9999 -9999 -9999 -9999 -9999 -9999 -9999 -9999 -9999 -9999 -9999 -9999 -9999 -9999 -9999 -9999 -9999 -9999 -9999 -9999 -9999 -9999 -9999 -9999 -9999 -9999 -9999 -9999 -9999 -9999 -9999 -9999 -9999 534.504 534.783 535.194 535.699 536.9 537.831 538.583 539.015 539.425 539.749 540.214 540.617 541.088 541.313 541.562 541.746 542.624 543.377 544.418 545.558 546.578 547.685 548.345 548.964 549.565 550.267 550.933 551.165 551.556 551.924 552.066 552.197 552.338 552.529 552.889 552.996 553.51 553.86 554.364 554.811 556.008 557.358 557.885 559.116 559.769 560.409 560.447 560.594 560.847 560.822 561.079 560.914 560.837 560.733 560.567 560.637 560.934 561.29 561.495 561.703 561.906 562.781 563.482 564.092 564.749 565.27 565.916 566.352 566.892 567.479 567.991 568.791 569.933 570.944 571.489 571.893 572.263 572.891 573.15 573.258 573.598 573.738 574.017 574.212 574.223 574.838 574.76 574.678 574.588 574.263 574.034 573.659 573.363 572.983 572.832 572.408 572.283 572.064 571.707 571.353 571.009 570.927 570.987 571.113 571.034 571.171 571.406 571.529 571.262 571.031 571.139 572.089 572.713 573.138 573.582 574.009 574.337 574.604 574.695 575.117 575.553 576.096 576.533 576.824 576.721 576.642 576.413 576.267 576.147 576.107 575.939 575.795 575.757 575.705 575.596 575.156 574.665 574.237 573.984 574.015 574.007 573.948 573.892 574.002 574.295 574.689 575.096 575.129 575.397 575.528 575.492 575.687 575.695 575.81 575.838 575.783 575.783 575.673 575.581 575.482 575.31 575.302 575.095 575.052 574.763 574.572 574.552 574.42 574.339 574.237 574.09
445.41 446.075 446.87 447.708 448.375 449.093 449.803 450.745 451.37 452.253 453.225 453.72 454.385 454.775 454.96 455.193 455.758 456.33 456.783 457.243 457.66 457.945 458.155 458.385 459.585 460.645 460.23 460.81 460.705 460.47 460.97 461.408 462.195 462.215 462.523 462.16 463.198 461.565 461.813 462.04 464.495 464.248 465.003 464.388 462.685 462.935 463.325 463.698 464.138 464.725 465.518 466.31 467.098 467.59 468.705 470.598 471.825 473.123 474.393 475.39 476.458 478.148 479.31 479.753 479.918 479.91 480.053 480.698 481.31 481.65 482.008 482.215 482.663 483.358 484.158 485.168 486.723 487.818 488.5 488.973 489.35 489.638 489.933 490.233 490.478 490.745 491.035 491.255 491.593 492.025 492.305 492.443 492.528 492.598 -9999 -9999 -9999 -9999 -9999 -9999 -9999 -9999 -9999 -9999 -9999 -9999 -9999 -9999 -9999 -9999 -9999 -9999 -9999 -9999 -9999 -9999 -9999 -9999 -9999 -9999 -9999 -9999 -9999 -9999 -9999 -9999 -9999 -9999 -9999 -9999 -9999 -9999 -9999 -9999 -9999 -9999 -9999 -9999 -9999 -9999 -9999 -9999 -9999 -9999 -9999 -9999 -9999 -9999 -9999 -9999 -9999 -9999 -9999 -9999 -9999 -9999 -9999 -9999 -9999 -9999 -9999 -9999 -9999 -9999 -9999 -9999 -9999 -9999 -9999 -9999 -9999 -9999 -9999 -9999 -9999 -9999 -9999 -9999 -9999 -9999 -9999 -9999 -9999 -9999 -9999 -9999 -9999 -9999 -9999 -9999 -9999 -9999 -9999 -9999 -9999 -9999 -9999 -9999 -9999 -9999 -9999 -9999 -9999 -9999 -9999 -9999 -9999 -9999 -9999 -9999 533.684 534.114 533.972 534.179 535.224 536.502 537.388 538.295 538.933 539.352 539.71 540.083 540.532 540.999 541.343 541.476 541.875 542.626 543.507 544.132 544.937 545.929 546.712 547.575 548.569 549.251 549.566 550.059 550.346 550.602 550.885 551.006 551.466 551.437 551.727 552.007 552.247 552.881 553.387 553.755 554.339 555.408 556.566 557.3 558.71 559.977 560.174 560.27 560.391 560.695 560.756 560.688 560.698 560.624 560.506 560.297 560.418 560.647 560.833 560.827 561.025 561.151 561.651 562.853 563.302 564.289 565.017 565.69 566.01 566.429 566.778 567.396 568.377 569.302 570.646 571.131 571.65 572.272 572.56 572.9 573.23 573.586 573.632 573.785 573.895 574.155 574.49 574.438 574.415 574.356 574.2 573.952 573.507 573.156 572.755 572.203 571.724 571.401 571.155 570.869 570.623 570.381 570.272 570.102 570.115 570.089 570.01 570.285 570.47 570.558 570.772 570.859 571.911 572.638 573.007 573.366 573.712 574.129 574.456 574.587 574.926 575.312 575.9 576.433 576.613 576.475 576.321 576.195 576.028 576.009 575.914 575.819 575.634 575.554 575.523 575.405 575.073 574.481 574.036 573.832 573.754 573.758 573.734 573.693 573.764 574.001 574.585 574.744 574.812 575.004 575.042 575.145 575.285 575.335 575.364 575.485 575.556 575.499 575.422 575.337 575.173 575.022 574.937 574.757 574.56 574.404 574.213 574.131 574.098 573.883 573.846 573.726
445.17 445.75 446.408 447.178 447.848 448.588 449.405 450.268 450.9 451.915 452.945 453.58 454.153 454.608 454.8 454.983 455.48 456.175 456.605 456.968 457.338 457.695 457.923 458.158 458.555 460.943 460.228 459.71 461.21 460.418 460.41 461.895 462.2 461.25 462.1 462.41 461.885 461.168 461.598 461.398 462.93 464.233 465.023 464.623 463.06 462.968 463.41 463.628 464.165 464.53 465.168 466.075 466.783 467.335 468.065 469.415 471.045 472.433 473.483 474.64 475.883 477.508 478.865 479.71 479.893 479.965 480.125 480.453 481.11 481.618 481.99 482.155 482.52 483.043 483.778 484.58 485.968 487.348 488.145 488.72 489.14 489.505 489.83 490.118 490.358 490.593 490.848 491.07 491.405 491.823 492.2 492.358 492.458 492.505 492.468 -9999 -9999 -9999 -9999 -9999 -9999 -9999 -9999 -9999 -9999 -9999 -9999 -9999 -9999 -9999 -9999 -9999 -9999 -9999 -9999 -9999 -9999 -9999 -9999 -9999 -9999 -9999 -9999 -9999 -9999 -9999 -9999 -9999 -9999 -9999 -9999 -9999 -9999 -9999 -9999 -9999 -9999 -9999 -9999 -9999 -9999 -9999 -9999 -9999 -9999 -9999 -9999 -9999 -9999 -9999 -9999 -9999 -9999 -9999 -9999 -9999 -9999 -9999 -9999 -9999 -9999 -9999 -9999 -9999 -9999 -9999 -9999 -9999 -9999 -9999 -9999 -9999 -9999 -9999 -9999 -9999 -9999 -9999 -9999 -9999 -9999 -9999 -9999 -9999 -9999 -9999 -9999 -9999 -9999 -9999 -9999 -9999 -9999 -9999 -9999 -9999 -9999 -9999 -9999 -9999 -9999 -9999 -9999 -9999 -9999 -9999 -9999 -9999 -9999 -9999 533.142 533.606 534.026 534.38 535.407 536.662 537.512 538.205 538.749 539.295 539.609 539.91 540.429 540.63 541.018 541.294 541.521 541.613 541.888 542.954 543.609 544.69 545.335 545.963 547.27 547.875 549.016 549.439 549.712 550.38 550.798 551.044 551.531 551.677 551.783 551.906 552.342 552.716 553.048 553.351 554.092 554.84 555.613 556.371 557.834 558.944 559.326 559.549 559.626 559.481 559.707 559.893 559.981 559.952 559.919 559.965 560.158 560.285 560.534 560.573 560.658 560.801 561.356 562.156 562.895 563.905 564.801 565.463 565.871 566.25 566.631 567.216 568.063 568.96 569.704 570.562 571.206 571.648 572.166 572.408 572.863 573.131 573.402 573.614 573.743 573.66 573.852 573.991 573.935 573.868 573.723 573.73 573.419 573.043 572.675 572.086 571.5 571.117 570.76 570.494 570.437 570.073 569.941 569.864 569.681 569.785 569.684 569.812 570.028 570.15 570.295 570.876 571.766 572.485 572.85 573.191 573.512 573.74 574.258 574.459 574.924 575.193 575.751 575.996 575.982 576.167 576.155 575.973 575.833 575.726 575.699 575.61 575.422 575.205 575.086 574.986 574.758 574.267 573.823 573.643 573.587 573.598 573.572 573.525 573.586 573.64 574.037 574.259 574.493 574.513 574.606 574.863 575.037 575.034 575.132 575.169 575.173 575.188 575.062 575.038 574.843 574.803 574.585 574.436 574.316 574.057 573.864 573.771 573.688 573.527 573.534 573.347
444.88 445.508 446.068 446.85 447.468 448.09 449.015 449.888 450.543 451.49 452.793 453.425 453.918 454.425 454.745 454.945 455.388 455.998 456.385 456.74 457.123 457.465 457.74 458.018 458.16 459.55 460.688 459.275 459.863 461.055 460.6 462.148 461.783 461.045 461.553 462.543 461.805 461.875 462.453 462.683 463.163 463.805 463.65 464.585 463.62 462.743 463.11 463.548 463.835 464.278 464.778 465.493 466.44 467.005 467.685 468.64 470.088 471.38 472.698 473.853 475.255 476.753 478.368 479.735 480.013 480.045 480.21 480.368 480.813 481.38 481.838 482.19 482.495 483.003 483.56 484.233 485.278 486.753 487.738 488.453 488.96 489.345 489.705 490.05 490.26 490.463 490.735 490.88 491.213 491.715 492.06 492.285 492.403 492.428 492.35 492.348 492.351 -9999 -9999 -9999 -9999 -9999 -9999 -9999 -9999 -9999 -9999 -9999 -9999 -9999 -9999 -9999 -9999 -9999 -9999 -9999 -9999 -9999 -9999 -9999 -9999 -9999 -9999 -9999 -9999 -9999 -9999 -9999 -9999 -9999 -9999 -9999 -9999 -9999 -9999 -9999 -9999 -9999 -9999 -9999 -9999 -9999 -9999 -9999 -9999 -9999 -9999 -9999 -9999 -9999 -9999 -9999 -9999 -9999 -9999 -9999 -9999 -9999 -9999 -9999 -9999 -9999 -9999 -9999 -9999 -9999 -9999 -9999 -9999 -9999 -9999 -9999 -9999 -9999 -9999 -9999 -9999 -9999 -9999 -9999 -9999 -9999 -9999 -9999 -9999 -9999 -9999 -9999 -9999 -9999 -9999 -9999 -9999 -9999 -9999 -9999 -9999 -9999 -9999 -9999 -9999 -9999 -9999 -9999 -9999 -9999 -9999 -9999 -9999 -9999 533.092 533.117 533.02 533.869 534.877 535.709 536.332 537.179 538.255 538.849 539.407 539.896 540.287 540.496 540.822 541.11 541.426 541.733 541.92 542.97 543.634 544.306 545.12 545.737 546.328 547.052 548.046 548.611 549.207 549.488 549.971 550.307 550.626 551.057 551.008 551.029 551.632 551.78 552.347 552.586 553.637 554.448 554.948 555.617 557.028 558.517 558.9 559.282 559.366 559.457 559.537 559.743 559.872 559.865 559.844 559.894 559.867 560.012 560.204 560.316 560.334 560.453 560.735 561.293 561.917 563.078 563.774 564.379 565.204 565.578 565.864 566.438 567.39 568.416 569.403 570.17 570.961 571.485 571.952 572.427 572.792 573.104 573.359 573.567 573.627 573.599 573.679 573.726 573.741 573.708 573.498 573.378 573.25 572.999 572.568 571.908 571.262 570.808 570.337 570.143 569.978 569.818 569.736 569.439 569.204 569.189 569.36 569.543 569.729 569.728 570.324 571.154 571.612 572.078 572.61 572.93 573.27 573.626 574.031 574.527 574.914 575.153 575.645 575.837 575.825 575.817 575.826 575.739 575.688 575.549 575.555 575.379 575.182 575.048 574.906 574.724 574.485 573.926 573.601 573.383 573.395 573.368 573.346 573.392 573.417 573.456 573.645 573.988 574.104 574.181 574.495 574.608 574.666 574.759 574.857 574.929 574.884 574.818 574.678 574.55 574.578 574.383 574.228 574.117 573.938 573.741 573.568 573.394 573.307 573.189 573.14 572.962
444.443 445.243 445.713 446.37 447.128 447.625 448.313 449.43 450.318 451.093 452.438 453.263 453.74 454.25 454.65 454.903 455.343 455.818 456.215 456.56 456.918 457.265 457.543 457.808 457.958 458.29 460.248 459.37 459.753 460.64 461.123 461.08 461.255 461.85 461.483 461.353 461.643 461.905 462.523 463.078 462 463.555 463.423 464.36 465.728 465.028 463.333 463.48 464.043 464.48 465.033 465.608 466.233 466.843 467.523 468.548 469.58 470.768 472.07 473.395 474.965 476.615 478.14 479.463 479.978 480.138 480.235 480.328 480.665 481.308 481.923 482.375 482.603 482.995 483.505 484.005 484.785 486.083 487.343 488.163 488.728 489.18 489.603 489.955 490.148 490.343 490.548 490.805 491.078 491.523 491.933 492.188 492.275 492.278 492.23 492.255 492.305 492.255 -9999 -9999 -9999 -9999 -9999 -9999 -9999 -9999 -9999 -9999 -9999 -9999 -9999 -9999 -9999 -9999 -9999 -9999 -9999 -9999 -9999 -9999 -9999 -9999 -9999 -9999 -9999 -9999 -9999 -9999 -9999 -9999 -9999 -9999 -9999 -9999 -9999 -9999 -9999 -9999 -9999 -9999 -9999 -9999 -9999 -9999 -9999 -9999 -9999 -9999 -9999 -9999 -9999 -9999 -9999 -9999 -9999 -9999 -9999 -9999 -9999 -9999 -9999 -9999 -9999 -9999 -9999 -9999 -9999 -9999 -9999 -9999 -9999 -9999 -9999 -9999 -9999 -9999 -9999 -9999 -9999 -9999 -9999 -9999 -9999 -9999 -9999 -9999 -9999 -9999 -9999 -9999 -9999 -9999 -9999 -9999 -9999 -9999 -9999 -9999 -9999 -9999 -9999 -9999 -9999 -9999 -9999 -9999 -9999 -9999 -9999 -9999 532.753 532.876 532.982 533.646 534.846 535.968 536.504 537.107 537.957 538.679 539.332 539.88 540.156 540.361 540.617 541.02 541.36 541.599 541.9 542.205 542.544 543.281 543.757 544.23 544.806 545.603 546.354 547.315 548.078 548.633 549.413 549.947 550.268 550.578 550.778 550.967 551.561 551.664 552.052 552.492 552.994 553.792 554.555 555.201 556.264 557.742 558.391 558.375 558.429 558.423 558.731 558.832 559.025 559.26 559.565 559.686 559.698 559.893 559.96 560.044 560.026 560.046 560.362 560.565 561.436 562.377 563.207 563.959 564.565 565.344 565.774 566.268 567.114 568.118 569.278 570.079 570.681 571.396 571.817 572.308 572.772 573.099 573.256 573.383 573.53 573.556 573.609 573.579 573.498 573.438 573.346 573.224 572.953 572.758 572.518 572.036 571.294 570.566 569.73 569.699 569.713 569.578 569.392 569.256 569.013 569.045 569.24 569.34 569.469 569.672 570.112 570.761 571.547 571.974 572.374 572.743 573.193 573.527 573.902 574.333 574.628 574.977 575.395 575.633 575.546 575.538 575.489 575.525 575.308 575.279 575.283 575.154 574.902 574.772 574.744 574.651 574.432 574.035 573.589 573.351 573.206 573.155 573.245 573.28 573.299 573.24 573.513 573.816 573.834 573.957 574.126 574.283 574.31 574.437 574.491 574.529 574.561 574.377 574.37 574.265 574.185 573.959 573.818 573.721 573.632 573.457 573.299 573.132 573.046 572.968 572.696 572.693
443.918 444.775 445.31 445.763 446.458 447.23 447.83 448.813 450.125 450.84 451.945 453.008 453.55 454.045 454.478 454.788 455.203 455.76 456.028 456.39 456.735 457.035 457.33 457.618 457.835 457.945 458.413 459.418 458.933 459.258 460.253 460.478 460.45 461.983 461.96 461.883 461.508 462.11 461.395 462.403 463.76 462.608 464.29 463.248 465.643 466.005 464.393 463.193 463.905 464.42 464.918 465.448 465.933 466.54 467.385 468.885 469.853 470.748 471.92 473.32 474.838 476.375 477.903 479.128 479.785 480.14 480.308 480.398 480.698 481.35 482.01 482.433 482.693 482.955 483.448 483.9 484.48 485.598 486.92 487.823 488.525 489.025 489.443 489.79 490.025 490.308 490.495 490.77 491.013 491.393 491.88 492.12 492.17 492.26 492.213 492.258 492.138 492.248 492.431 -9999 -9999 -9999 -9999 -9999 -9999 -9999 -9999 -9999 -9999 -9999 -9999 -9999 -9999 -9999 -9999 -9999 -9999 -9999 -9999 -9999 -9999 -9999 -9999 -9999 -9999 -9999 -9999 -9999 -9999 -9999 -9999 -9999 -9999 -9999 -9999 -9999 -9999 -9999 -9999 -9999 -9999 -9999 -9999 -9999 -9999 -9999 -9999 -9999 -9999 -9999 -9999 -9999 -9999 -9999 -9999 -9999 -9999 -9999 -9999 -9999 -9999 -9999 -9999 -9999 -9999 -9999 -9999 -9999 -9999 -9999 -9999 -9999 -9999 -9999 -9999 -9999 -9999 -9999 -9999 -9999 -9999 -9999 -9999 -9999 -9999 -9999 -9999 -9999 -9999 -9999 -9999 -9999 -9999 -9999 -9999 -9999 -9999 -9999 -9999 -9999 -9999 -9999 -9999 -9999 -9999 -9999 -9999 -9999 -9999 -9999 532.172 532.479 532.528 533.644 534.893 535.816 536.537 537.524 538.085 538.645 539.076 539.482 539.856 540.352 540.621 540.99 541.343 541.606 541.836 542.081 542.427 542.862 543.627 543.957 544.578 544.968 545.935 546.521 547.288 548.308 548.96 549.396 549.872 549.943 550.005 550.27 550.833 551.324 551.427 551.858 552.435 552.91 553.43 554.695 555.955 556.844 557.462 557.989 558.039 558.138 558.412 558.549 558.974 559.317 559.56 559.673 559.727 559.837 559.909 559.835 559.836 559.841 559.952 560.211 560.802 561.499 562.367 563.043 563.718 564.394 565.06 565.679 566.457 567.467 568.538 569.456 570.254 570.749 571.837 572.277 572.676 572.993 573.196 573.332 573.458 573.491 573.581 573.46 573.461 573.379 573.265 573.138 572.913 572.625 572.281 571.827 571.32 570.63 569.708 569.383 569.329 569.313 569.204 568.943 568.638 568.718 569.105 569.185 569.03 569.394 570.032 570.576 571.08 571.513 572.174 572.468 572.862 573.353 573.68 573.89 574.282 574.79 575.144 575.413 575.394 575.387 575.297 575.228 575.237 575.093 574.941 574.937 574.722 574.581 574.57 574.372 574.208 574.001 573.68 573.273 573.057 573.174 573.115 573.148 573.083 572.989 573.26 573.541 573.63 573.712 573.872 573.997 573.97 574.095 574.157 574.151 574.154 574.078 573.945 573.983 573.795 573.592 573.459 573.266 573.285 573.153 572.92 572.811 572.702 572.566 572.41 572.253
443.42 444.25 444.755 445.235 445.83 446.64 447.418 448.445 449.648 450.625 451.6 452.703 453.44 453.9 454.328 454.69 454.995 455.545 455.883 456.205 456.518 456.84 457.095 457.363 457.598 457.848 457.988 458.433 458.718 459.03 459.503 461.163 461.205 461.79 461.21 460.96 461.388 461.86 461.625 462.465 463.04 463.558 464.033 464.293 463.855 464.433 463.623 462.918 463.423 464 464.52 464.975 465.45 466.075 467.198 468.578 469.73 470.67 471.843 473.265 474.868 476.563 477.75 478.63 479.443 480.05 480.28 480.463 480.755 481.293 481.865 482.365 482.618 482.815 483.24 483.773 484.305 485.233 486.563 487.513 488.18 488.8 489.268 489.673 489.945 490.18 490.36 490.653 490.958 491.273 491.733 492.018 492.063 492.15 492.073 492.065 492.033 492.078 492.033 492.238 -9999 -9999 -9999 -9999 -9999 -9999 -9999 -9999 -9999 -9999 -9999 -9999 -9999 -9999 -9999 -9999 -9999 -9999 -9999 -9999 -9999 -9999 -9999 -9999 -9999 -9999 -9999 -9999 -9999 -9999 -9999 -9999 -9999 -9999 -9999 -9999 -9999 -9999 -9999 -9999 -9999 -9999 -9999 -9999 -9999 -9999 -9999 -9999 -9999 -9999 -9999 -9999 -9999 -9999 -9999 -9999 -9999 -9999 -9999 -9999 -9999 -9999 -9999 -9999 -9999 -9999 -9999 -9999 -9999 -9999 -9999 -9999 -9999 -9999 -9999 -9999 -9999 -9999 -9999 -9999 -9999 -9999 -9999 -9999 -9999 -9999 -9999 -9999 -9999 -9999 -9999 -9999 -9999 -9999 -9999 -9999 -9999 -9999 -9999 -9999 -9999 -9999 -9999 -9999 -9999 -9999 -9999 -9999 -9999 -9999 532.015 531.991 532.396 533.369 534.871 535.696 536.421 537.371 538.281 538.871 539.125 539.243 539.718 540.287 540.782 540.92 541.287 541.686 541.813 542.064 542.255 542.377 542.833 543.196 543.426 543.849 544.434 544.912 545.628 546.388 548.249 548.886 549.315 549.472 549.571 549.994 550.421 551.032 551.309 552.003 552.465 552.737 553.481 554.558 555.163 556.062 556.885 557.315 557.413 557.68 557.907 558.199 558.492 559.11 559.502 559.416 559.463 559.604 559.448 559.542 559.473 559.482 559.538 559.826 560.314 560.936 561.811 562.442 563.284 564.135 564.781 565.955 566.392 567.07 568.225 569.052 570.125 571.03 571.768 572.346 572.612 572.986 573.124 573.331 573.361 573.368 573.409 573.233 573.158 573.072 573.017 572.814 572.475 572.223 571.974 571.507 570.748 570.048 569.244 569.096 568.959 568.927 568.765 568.787 568.53 568.588 568.778 568.824 569.009 569.522 569.924 570.338 570.823 571.279 571.901 572.207 572.538 573.142 573.568 573.835 574.261 574.729 574.926 574.818 574.669 574.939 574.831 574.816 574.93 574.868 574.73 574.608 574.499 574.188 574.104 574.125 573.93 573.636 573.421 573.124 572.952 572.799 572.81 572.906 572.795 572.863 572.997 573.24 573.299 573.407 573.578 573.663 573.721 573.778 573.764 573.683 573.716 573.646 573.657 573.521 573.425 573.263 573.108 572.969 572.842 572.714 572.618 572.499 572.314 572.042 572.142 571.909
443.013 443.778 444.368 444.62 445.155 446.18 447.1 448.203 449.298 450.298 451.393 452.535 453.275 453.75 454.198 454.538 454.853 455.245 455.62 455.953 456.328 456.628 456.868 457.125 457.448 457.593 457.755 458.053 458.655 459.625 459.428 460.545 461.04 460.9 461.068 461.23 460.525 460.805 460.863 461.108 462.97 463.128 463.77 464.61 464.228 463.32 465.485 463.103 463.175 463.608 464.198 464.568 464.965 465.598 466.745 467.985 469.245 470.505 471.813 473.138 474.63 476.05 477.363 478.123 478.773 479.56 480.095 480.385 480.733 481.153 481.673 482.21 482.59 482.825 483.103 483.64 484.128 484.965 486.248 487.158 487.863 488.57 489.093 489.563 489.913 490.088 490.273 490.48 490.808 491.11 491.505 491.81 491.888 491.96 491.928 491.895 491.958 492.17 491.963 492.02 492.335 -9999 -9999 -9999 -9999 -9999 -9999 -9999 -9999 -9999 -9999 -9999 -9999 -9999 -9999 -9999 -9999 -9999 -9999 -9999 -9999 -9999 -9999 -9999 -9999 -9999 -9999 -9999 -9999 -9999 -9999 -9999 -9999 -9999 -9999 -9999 -9999 -9999 -9999 -9999 -9999 -9999 -9999 -9999 -9999 -9999 -9999 -9999 -9999 -9999 -9999 -9999 -9999 -9999 -9999 -9999 -9999 -9999 -9999 -9999 -9999 -9999 -9999 -9999 -9999 -9999 -9999 -9999 -9999 -9999 -9999 -9999 -9999 -9999 -9999 -9999 -9999 -9999 -9999 -9999 -9999 -9999 -9999 -9999 -9999 -9999 -9999 -9999 -9999 -9999 -9999 -9999 -9999 -9999 -9999 -9999 -9999 -9999 -9999 -9999 -9999 -9999 -9999 -9999 -9999 -9999 -9999 -9999 -9999 -9999 531.829 531.671 532.389 533.334 534.198 535.391 536.158 537.023 537.674 537.873 538.347 539.012 539.332 539.838 540.374 540.846 541.371 541.736 541.886 542.067 542.288 542.464 542.777 542.964 543.268 543.517 544.177 544.512 545.372 546.505 547.153 547.952 548.736 548.973 549.082 549.49 550.021 550.514 550.861 551.057 551.256 551.902 552.863 553.386 554.16 554.822 555.602 556.087 556.704 557.016 557.418 557.818 558.107 558.541 558.941 559.198 559.212 559.48 559.389 559.463 559.498 559.444 559.503 559.676 559.962 560.539 561.378 562.041 562.706 563.443 564.392 565.158 566.429 567.003 568.048 568.888 569.625 570.587 571.389 572.147 572.582 573.011 573.264 573.39 573.349 573.394 573.366 573.192 573.07 572.897 572.823 572.709 572.406 572.152 571.895 571.401 570.802 569.925 568.925 568.721 568.758 568.731 568.548 568.357 568.435 568.417 568.509 568.621 568.922 569.173 569.648 570.073 570.6 571.109 571.55 572.033 572.382 572.964 573.319 573.589 573.828 574.066 574.403 574.394 574.408 574.465 574.522 574.586 574.755 574.697 574.461 574.436 574.323 573.82 573.769 573.678 573.584 573.398 573.134 572.83 572.691 572.635 572.608 572.454 572.603 572.56 572.772 572.831 572.963 573.012 573.125 573.284 573.379 573.408 573.408 573.334 573.247 573.226 573.085 573.142 573.017 572.874 572.737 572.703 572.589 572.352 572.165 572.031 571.868 571.657 571.674 571.468
442.728 443.35 443.873 444.125 444.538 445.683 446.735 447.68 448.855 449.908 451.223 452.388 453.003 453.505 454.028 454.368 454.65 454.953 455.253 455.675 456.12 456.483 456.683 456.925 457.163 457.373 457.573 457.783 458.143 459.595 459.653 460.14 459.83 460.155 459.943 460.58 460.108 461.21 461.248 461.748 462.773 462.113 463.745 465.025 464.89 465.085 465.833 464.575 463.073 463.345 463.715 464.153 464.773 465.435 466.41 467.373 468.693 470.093 471.52 472.973 474.373 475.65 477.023 477.868 478.425 479.008 479.695 480.285 480.625 480.95 481.378 481.885 482.468 482.815 483.065 483.508 484.01 484.805 486.09 487.035 487.683 488.345 488.908 489.42 489.788 489.978 490.153 490.36 490.6 490.87 491.22 491.563 491.82 491.858 492.095 492.218 491.753 491.808 491.923 491.928 492.078 492.545 -9999 -9999 -9999 -9999 -9999 -9999 -9999 -9999 -9999 -9999 -9999 -9999 -9999 -9999 -9999 -9999 -9999 -9999 -9999 -9999 -9999 -9999 -9999 -9999 -9999 -9999 -9999 -9999 -9999 -9999 -9999 -9999 -9999 -9999 -9999 -9999 -9999 -9999 -9999 -9999 -9999 -9999 -9999 -9999 -9999 -9999 -9999 -9999 -9999 -9999 -9999 -9999 -9999 -9999 -9999 -9999 -9999 -9999 -9999 -9999 -9999 -9999 -9999 -9999 -9999 -9999 -9999 -9999 -9999 -9999 -9999 -9999 -9999 -9999 -9999 -9999 -9999 -9999 -9999 -9999 -9999 -9999 -9999 -9999 -9999 -9999 -9999 -9999 -9999 -9999 -9999 -9999 -9999 -9999 -9999 -9999 -9999 -9999 -9999 -9999 -9999 -9999 -9999 -9999 -9999 -9999 -9999 -9999 531.439 531.458 531.755 533.001 533.874 534.939 535.67 536.828 537.589 537.656 538.439 538.866 539.418 539.795 540.317 540.894 541.339 541.674 541.89 542.069 542.292 542.568 542.643 542.805 543.128 543.235 543.334 543.738 544.092 544.895 545.717 546.329 547.333 547.819 548.649 548.912 549.52 550.179 550.56 550.815 551.014 551.502 552.815 553.129 553.943 554.653 555.263 555.73 556.185 556.752 557.19 557.363 557.594 558.064 558.373 558.76 558.691 558.671 558.922 558.973 559.067 559.136 559.163 559.303 559.581 560.101 560.913 561.297 561.981 563.02 563.747 564.591 565.593 566.588 567.377 568.476 569.479 570.197 571.101 571.862 572.758 573.198 573.373 573.481 573.317 573.453 573.309 573.127 573.021 572.718 572.379 572.123 572.042 571.796 571.353 570.703 570.006 569.124 568.662 568.433 568.298 568.114 568.165 568.001 567.968 568.127 568.061 568.355 568.837 569.057 569.547 570.138 570.456 571.017 571.484 571.904 572.235 572.6 573.079 573.312 573.556 573.812 573.997 574.067 574.141 574.231 574.145 574.211 574.336 574.284 574.106 573.986 573.83 573.502 573.393 573.338 573.143 572.977 572.774 572.626 572.39 572.287 572.389 572.287 572.241 572.251 572.285 572.511 572.512 572.551 572.624 572.784 572.926 573.063 573.083 572.963 572.839 572.802 572.674 572.696 572.529 572.365 572.429 572.201 572.125 572.02 571.803 571.58 571.538 571.357 571.197 571.117
442.683 443.09 443.468 443.763 444.393 445.37 446.418 447.25 448.36 449.535 450.813 452.065 452.723 453.255 453.845 454.12 454.47 454.715 454.923 455.385 455.933 456.28 456.468 456.62 456.913 457.215 457.405 457.65 457.95 458.36 459.598 460.785 460.39 459.62 459.635 460.043 459.988 461.743 462.528 462.035 462.943 463.803 464.175 464.353 465.195 465.693 464.87 463.918 462.68 463.07 463.358 463.803 464.523 465.475 466.433 467.23 468.408 469.97 471.495 473.053 474.528 475.718 476.813 477.643 478.093 478.608 479.4 480.123 480.505 480.748 481.083 481.565 482.26 482.693 482.97 483.41 483.8 484.498 485.85 486.9 487.565 488.148 488.72 489.27 489.698 489.838 490.003 490.173 490.403 490.643 491.02 491.34 491.695 491.828 491.588 491.69 491.803 491.828 491.968 491.965 492.013 492.19 492.703 -9999 -9999 -9999 -9999 -9999 -9999 -9999 -9999 -9999 -9999 -9999 -9999 -9999 -9999 -9999 -9999 -9999 -9999 -9999 -9999 -9999 -9999 -9999 -9999 -9999 -9999 -9999 -9999 -9999 -9999 -9999 -9999 -9999 -9999 -9999 -9999 -9999 -9999 -9999 -9999 -9999 -9999 -9999 -9999 -9999 -9999 -9999 -9999 -9999 -9999 -9999 -9999 -9999 -9999 -9999 -9999 -9999 -9999 -9999 -9999 -9999 -9999 -9999 -9999 -9999 -9999 -9999 -9999 -9999 -9999 -9999 -9999 -9999 -9999 -9999 -9999 -9999 -9999 -9999 -9999 -9999 -9999 -9999 -9999 -9999 -9999 -9999 -9999 -9999 -9999 -9999 -9999 -9999 -9999 -9999 -9999 -9999 -9999 -9999 -9999 -9999 -9999 -9999 -9999 -9999 -9999 530.697 530.896 531.169 531.857 532.38 533.577 534.746 535.4 536.011 536.198 536.882 537.507 538.421 538.939 539.351 539.685 540.027 541.026 541.688 541.984 542.164 542.332 542.611 542.763 542.947 543.204 543.268 543.315 543.65 544.196 544.801 545.694 546.629 546.998 547.607 548.203 548.561 549.159 549.665 549.82 550.332 550.663 551.066 551.896 552.271 552.872 553.479 553.755 554.33 554.774 555.21 556.036 556.853 557.068 557.475 557.779 558.117 558.379 558.464 558.659 558.742 558.96 559.109 559.101 559.169 559.457 559.965 560.51 561.139 561.982 562.583 563.377 564.012 564.871 565.7 566.63 567.825 568.625 569.356 569.895 570.814 571.509 572.548 573.22 573.382 573.39 573.368 573.293 573.061 572.905 572.634 572.218 571.929 571.773 571.489 571.077 570.397 569.678 568.86 568.476 568.264 568.095 568 568.051 567.792 567.617 567.762 567.746 568.228 568.702 569.037 569.569 569.817 570.302 570.863 571.252 571.569 572.075 572.495 572.802 573.112 573.303 573.488 573.622 573.705 573.724 573.686 573.854 573.93 574.048 573.949 573.722 573.54 573.418 573.074 572.959 573.016 572.874 572.71 572.459 572.27 572.132 572.012 572.126 571.968 572 571.962 572.006 572.073 572.193 572.163 572.341 572.465 572.506 572.514 572.679 572.586 572.536 572.427 572.324 572.192 572.046 571.957 571.927 571.791 571.693 571.458 571.292 571.322 571.177 570.995 570.855 570.687
442.568 442.898 443.145 443.583 444.29 445.238 446.163 447.095 448.198 449.345 450.33 451.468 452.465 452.93 453.633 453.918 454.14 454.4 454.658 455.19 455.693 456.015 456.228 456.388 456.705 457.1 457.31 457.513 457.833 458.16 459.178 459.18 460.338 460.473 459.558 459.795 460.005 460.213 461.595 463.275 462.843 463.343 463.483 464.205 463.878 464.258 463.613 462.418 462.54 462.855 463.213 463.6 464.328 465.288 466.19 467.188 468.438 469.833 471.308 472.798 474.163 475.48 476.395 477.263 477.808 478.33 479.183 480.02 480.56 480.693 481.02 481.35 481.785 482.463 482.93 483.395 483.815 484.463 485.445 486.51 487.325 487.993 488.535 489.053 489.518 489.723 489.878 489.988 490.168 490.46 490.828 491.143 491.4 491.605 491.583 491.713 491.733 491.995 492.095 492.16 492.065 492.11 492.47 493.228 -9999 -9999 -9999 -9999 -9999 -9999 -9999 -9999 -9999 -9999 -9999 -9999 -9999 -9999 -9999 -9999 -9999 -9999 -9999 -9999 -9999 -9999 -9999 -9999 -9999 -9999 -9999 -9999 -9999 -9999 -9999 -9999 -9999 -9999 -9999 -9999 -9999 -9999 -9999 -9999 -9999 -9999 -9999 -9999 -9999 -9999 -9999 -9999 -9999 -9999 -9999 -9999 -9999 -9999 -9999 -9999 -9999 -9999 -9999 -9999 -9999 -9999 -9999 -9999 -9999 -9999 -9999 -9999 -9999 -9999 -9999 -9999 -9999 -9999 -9999 -9999 -9999 -9999 -9999 -9999 -9999 -9999 -9999 -9999 -9999 -9999 -9999 -9999 -9999 -9999 -9999 -9999 -9999 -9999 -9999 -9999 -9999 -9999 -9999 -9999 -9999 -9999 -9999 -9999 -9999 530.19 530.446 530.333 531.195 531.896 533.082 534.389 535.059 535.438 535.523 536.254 537.194 537.977 538.626 539.36 539.614 540.117 541.266 541.613 542.081 542.152 542.362 542.752 542.896 543.088 543.28 543.281 543.271 543.499 543.664 544.095 544.5 545.093 545.926 546.542 546.932 547.388 548.05 548.659 549.247 549.547 549.934 550.526 551.357 551.889 552.22 553.189 553.676 553.878 554.446 554.938 555.453 555.967 556.374 556.732 557.143 557.531 557.901 558.114 558.296 558.471 558.717 558.843 558.876 558.912 559.234 559.424 559.688 560.25 561.041 561.908 562.629 563.715 564.507 565.308 566.209 567.453 568.427 568.924 569.682 570.496 571.244 572.238 572.859 573.392 573.494 573.283 573.243 572.997 572.847 572.452 572.111 571.642 571.333 570.918 570.44 569.698 568.966 568.23 568.003 567.945 567.788 567.658 567.458 567.236 567.151 567.495 567.82 568.073 568.258 568.809 569.359 569.714 570.227 570.685 571.189 571.574 571.921 572.424 572.81 572.957 573.034 573.199 573.338 573.402 573.45 573.379 573.514 573.677 573.758 573.55 573.39 573.112 572.855 572.829 572.543 572.468 572.408 572.277 572.139 571.971 571.803 571.697 571.727 571.768 571.739 571.729 571.623 571.77 571.81 571.878 571.87 572.037 571.977 572.019 572.028 572.2 572.147 572.078 571.798 571.721 571.679 571.639 571.452 571.297 571.148 570.945 570.874 570.762 570.699 570.676 570.461 570.318
442.263 442.583 442.933 443.368 444.128 445.043 446.043 447.045 448.18 449.188 449.858 450.738 452.188 452.6 453.185 453.575 453.865 454.148 454.41 454.915 455.533 455.87 456.083 456.203 456.525 456.95 457.17 457.415 457.723 458.038 458.528 459.71 459.878 459.393 459.485 459.658 459.893 460.193 461.163 463.045 462.56 461.468 462.683 462.87 462.895 462.195 462.078 462.02 462.26 462.645 463.088 463.588 464.2 465.023 466.02 467.188 468.295 469.428 470.605 472.01 473.38 475.02 476.17 476.91 477.553 478.323 479.01 479.833 480.455 480.748 481.01 481.345 481.59 482.063 482.89 483.44 483.903 484.523 485.173 486.215 487.165 487.82 488.383 488.843 489.25 489.553 489.705 489.72 489.97 490.25 491.14 491.373 491.235 491.485 491.693 491.858 491.803 491.875 492.035 492.073 492.09 492.195 492.375 493.015 493.723 494.303 -9999 -9999 -9999 -9999 -9999 -9999 -9999 -9999 -9999 -9999 -9999 -9999 -9999 -9999 -9999 -9999 -9999 -9999 -9999 -9999 -9999 -9999 -9999 -9999 -9999 -9999 -9999 -9999 -9999 -9999 -9999 -9999 -9999 -9999 -9999 -9999 -9999 -9999 -9999 -9999 -9999 -9999 -9999 -9999 -9999 -9999 -9999 -9999 -9999 -9999 -9999 -9999 -9999 -9999 -9999 -9999 -9999 -9999 -9999 -9999 -9999 -9999 -9999 -9999 -9999 -9999 -9999 -9999 -9999 -9999 -9999 -9999 -9999 -9999 -9999 -9999 -9999 -9999 -9999 -9999 -9999 -9999 -9999 -9999 -9999 -9999 -9999 -9999 -9999 -9999 -9999 -9999 -9999 -9999 -9999 -9999 -9999 -9999 -9999 -9999 -9999 -9999 -9999 529.742 530.066 530.476 531.293 532.014 532.913 534.073 534.625 534.611 534.819 535.59 536.64 537.502 538.105 538.691 539.46 539.617 540.318 541.258 542.07 542.18 542.368 542.495 542.842 543.054 543.159 543.246 543.296 543.291 543.278 543.757 544.254 545.249 545.846 546.301 546.726 547.494 547.968 548.334 548.782 549.049 549.608 550.237 550.657 550.907 551.275 551.735 552.129 552.413 552.784 553.495 553.965 554.51 554.804 555.272 555.988 556.763 557.282 557.471 557.816 558.151 558.455 558.47 558.585 558.581 558.921 559.088 559.542 560.012 560.723 561.522 562.515 563.213 564.079 565.002 566.021 566.79 567.578 568.149 568.968 569.563 570.388 570.863 571.751 572.502 573.013 573.01 572.63 572.557 572.47 572.173 571.767 571.404 571.018 570.573 570.069 569.324 568.552 568.067 567.769 567.616 567.427 567.411 567.202 566.924 566.963 567.323 567.738 567.953 568.107 568.478 569.243 569.824 570.133 570.621 571.091 571.426 571.85 572.252 572.548 572.704 572.79 572.997 573.202 573.142 573.028 573.12 573.186 573.261 573.178 573.116 572.937 572.641 572.371 571.991 572.021 572.079 572.1 571.935 571.838 571.644 571.576 571.486 571.499 571.494 571.466 571.448 571.391 571.367 571.439 571.53 571.536 571.548 571.625 571.652 571.592 571.559 571.566 571.537 571.323 571.142 571.2 571.114 571.023 570.94 570.719 570.538 570.485 570.374 570.333 570.214 570.172 570.181
441.785 442.173 442.733 443.383 444.165 445.003 446 446.993 448.05 448.983 449.908 450.518 451.838 452.44 452.82 453.305 453.583 453.893 454.143 454.658 455.338 455.655 455.905 456.028 456.288 456.703 457.038 457.318 457.648 457.955 458.243 458.833 460.173 459.845 459.45 459.653 459.913 460.335 461.42 462.508 461.593 461.13 461.123 461.14 461.138 461.365 461.518 461.675 462.023 462.465 462.908 463.573 464.245 464.975 465.945 467.043 467.965 468.988 470.235 471.268 472.708 474.383 475.753 476.773 477.318 478.168 478.903 479.763 480.505 480.815 480.975 481.243 481.565 481.75 482.618 483.433 483.913 484.518 485.058 485.875 486.885 487.555 488.12 488.618 489.033 489.375 489.53 489.693 490.273 490.42 490.655 490.91 491.225 491.49 491.675 491.83 491.855 491.863 491.985 492.053 492.128 492.183 492.36 492.703 493.36 494.045 494.751 -9999 -9999 -9999 -9999 -9999 -9999 -9999 -9999 -9999 -9999 -9999 -9999 -9999 -9999 -9999 -9999 -9999 -9999 -9999 -9999 -9999 -9999 -9999 -9999 -9999 -9999 -9999 -9999 -9999 -9999 -9999 -9999 -9999 -9999 -9999 -9999 -9999 -9999 -9999 -9999 -9999 -9999 -9999 -9999 -9999 -9999 -9999 -9999 -9999 -9999 -9999 -9999 -9999 -9999 -9999 -9999 -9999 -9999 -9999 -9999 -9999 -9999 -9999 -9999 -9999 -9999 -9999 -9999 -9999 -9999 -9999 -9999 -9999 -9999 -9999 -9999 -9999 -9999 -9999 -9999 -9999 -9999 -9999 -9999 -9999 -9999 -9999 -9999 -9999 -9999 -9999 -9999 -9999 -9999 -9999 -9999 -9999 -9999 -9999 -9999 -9999 528.81 529.269 528.79 529.307 530.079 531.072 531.751 532.924 533.682 533.872 534.276 535.135 536.162 536.842 537.448 538.312 538.613 539.412 540.334 540.973 542.006 542.179 542.386 542.422 542.815 543.01 543.194 543.269 543.291 543.106 542.978 543.276 543.761 544.578 545.193 545.604 546.218 546.683 547.15 547.64 547.942 548.231 548.702 549.262 549.786 550.126 550.64 551 551.651 551.92 552.271 553.275 553.68 554.121 554.62 555.179 555.633 556.341 556.867 557.023 557.35 557.729 558 558.21 558.243 558.205 558.074 558.174 558.555 558.969 559.843 560.835 561.922 562.65 563.476 564.298 565.328 566.371 567.286 567.849 568.54 569.204 569.87 570.448 570.958 572.172 572.835 572.887 572.582 572.181 572.129 571.751 571.416 570.947 570.646 570.208 569.579 568.752 567.939 567.6 567.559 567.454 567.205 566.98 566.944 566.59 566.817 567.301 567.521 567.7 567.94 568.236 568.962 569.393 569.871 570.386 570.636 571.195 571.614 571.961 572.351 572.56 572.514 572.75 572.825 572.897 572.857 572.979 572.935 572.911 572.924 572.814 572.616 572.27 571.97 571.743 571.658 571.687 571.519 571.58 571.548 571.392 571.216 571.211 571.283 571.254 571.212 571.21 571.147 571.043 570.947 571.124 571.104 571.111 571.262 571.256 571.139 571.129 571.055 570.916 570.698 570.584 570.644 570.625 570.505 570.32 570.295 570.161 570.093 570.002 569.944 569.871 569.861 569.959
441.323 441.81 442.453 443.32 444.138 444.983 445.903 446.893 447.928 448.905 449.998 450.398 451.245 452.12 452.528 453.015 453.34 453.685 453.895 454.425 455.175 455.435 455.695 455.928 456.133 456.508 456.923 457.233 457.563 457.865 458.135 458.48 459.788 459.35 459.375 460.028 459.838 459.99 460.828 462.605 461.513 462.915 461.293 460.828 460.908 461.108 461.293 461.48 461.793 462.213 462.728 463.445 464.17 465.02 466.09 466.88 467.578 468.703 470.008 471.313 472.78 474.368 475.76 476.665 477.23 477.95 478.803 479.68 480.578 480.925 481.078 481.258 481.558 481.815 482.183 483.103 483.85 484.425 484.958 485.585 486.49 487.24 487.913 488.495 488.823 489.115 489.575 489.82 489.838 490.185 490.605 490.858 491.208 491.47 491.628 491.78 491.905 491.903 491.96 492.023 492.093 492.118 492.238 492.45 492.893 493.595 494.54 495.313 495.825 -9999 -9999 -9999 -9999 -9999 -9999 -9999 -9999 -9999 -9999 -9999 -9999 -9999 -9999 -9999 -9999 -9999 -9999 -9999 -9999 -9999 -9999 -9999 -9999 -9999 -9999 -9999 -9999 -9999 -9999 -9999 -9999 -9999 -9999 -9999 -9999 -9999 -9999 -9999 -9999 -9999 -9999 -9999 -9999 -9999 -9999 -9999 -9999 -9999 -9999 -9999 -9999 -9999 -9999 -9999 -9999 -9999 -9999 -9999 -9999 -9999 -9999 -9999 -9999 -9999 -9999 -9999 -9999 -9999 -9999 -9999 -9999 -9999 -9999 -9999 -9999 -9999 -9999 -9999 -9999 -9999 -9999 -9999 -9999 -9999 -9999 -9999 -9999 -9999 -9999 -9999 -9999 -9999 -9999 -9999 -9999 -9999 -9999 -9999 -9999 528.62 528.743 529.017 529.973 531.098 531.765 532.782 533.494 533.718 533.987 534.446 535.022 535.778 536.727 537.321 537.579 538.386 539.253 540.122 540.858 541.442 541.892 542.279 542.449 542.746 542.909 543.118 543.054 542.919 542.821 543.039 543.586 544.187 545.022 545.312 546.246 546.733 547.163 547.511 547.836 548.115 548.486 548.587 548.789 549.22 549.678 550.095 550.382 550.682 551.069 551.757 552.376 553.163 553.585 554.078 554.712 555.233 555.625 555.97 556.437 556.866 557.598 557.741 557.759 557.657 557.61 557.766 558.258 558.832 559.573 560.945 561.593 562.385 563.19 564.018 565.079 566.284 566.958 567.567 568.04 568.52 569.051 569.448 570.121 570.881 571.826 572.536 572.253 571.901 571.394 571.036 570.792 570.319 569.994 569.354 568.771 568.07 567.615 567.46 567.305 567.251 567.037 566.832 566.668 566.531 566.791 567.174 567.317 567.476 567.628 567.915 568.624 569.127 569.634 570.059 570.494 570.971 571.443 571.711 572.013 572.175 572.186 572.239 572.29 572.562 572.697 572.666 572.567 572.501 572.163 572.023 571.935 571.75 571.546 571.274 571.277 571.328 571.308 571.29 571.021 571.032 571.09 570.984 570.937 570.999 571.036 570.953 571.017 570.896 570.756 570.689 570.744 570.732 570.776 570.857 570.87 570.658 570.648 570.478 570.325 570.203 570.156 569.994 569.987 569.873 569.779 569.824 569.762 569.73 569.735 569.59 569.59 569.6
441.223 441.64 442.258 443.093 444.058 444.918 445.823 446.84 447.868 448.81 449.75 450.385 450.86 451.853 452.305 452.705 453.1 453.453 453.728 454.098 454.833 455.233 455.518 455.803 456.053 456.363 456.798 457.205 457.515 457.775 458.01 458.3 459.058 459.158 459.603 459.578 460.2 461.315 461.165 461.385 460.718 461.488 460.695 460.718 460.82 460.928 461.08 461.318 461.565 461.923 462.66 463.41 464.265 465.068 465.93 466.665 467.245 468.523 470.195 471.68 473.17 474.358 475.608 476.45 476.95 477.868 478.705 479.768 480.6 481.063 481.188 481.348 481.6 481.62 481.905 482.813 483.708 484.278 484.83 485.435 486.245 487.005 487.7 488.293 488.673 488.935 489.76 489.738 489.885 490.243 490.57 490.878 491.32 491.543 491.688 491.823 491.87 491.945 492.028 492.07 492.055 492.163 492.283 492.428 492.675 493.235 494.058 494.995 495.598 495.898 496.015 -9999 -9999 -9999 -9999 -9999 -9999 -9999 -9999 -9999 -9999 -9999 -9999 -9999 -9999 -9999 -9999 -9999 -9999 -9999 -9999 -9999 -9999 -9999 -9999 -9999 -9999 -9999 -9999 -9999 -9999 -9999 -9999 -9999 -9999 -9999 -9999 -9999 -9999 -9999 -9999 -9999 -9999 -9999 -9999 -9999 -9999 -9999 -9999 -9999 -9999 -9999 -9999 -9999 -9999 -9999 -9999 -9999 -9999 -9999 -9999 -9999 -9999 -9999 -9999 -9999 -9999 -9999 -9999 -9999 -9999 -9999 -9999 -9999 -9999 -9999 -9999 -9999 -9999 -9999 -9999 -9999 -9999 -9999 -9999 -9999 -9999 -9999 -9999 -9999 -9999 -9999 -9999 -9999 -9999 -9999 -9999 -9999 528.395 528.393 528.276 528.636 529.12 529.531 530.671 531.408 531.778 532.601 533.49 534.084 534.504 535.244 536.231 537.053 537.513 538.181 538.941 540.032 540.859 541.514 541.836 542.187 542.324 542.56 542.778 542.922 542.83 542.678 542.602 542.735 543.013 543.888 544.484 545.122 545.532 546.051 546.679 547.344 547.696 547.995 548.25 548.203 548.312 548.446 549.111 549.432 549.73 550.057 550.436 551.172 551.711 552.188 553.002 553.961 554.503 555.002 555.402 555.725 556.055 556.559 556.714 557.208 557.287 557.127 556.994 557.052 557.392 557.883 558.811 559.692 560.879 561.669 562.546 563.564 564.212 565.355 566.208 566.93 567.506 568.169 568.591 569.199 569.737 570.452 571.271 572.195 572.213 571.851 571.352 570.868 570.397 569.894 569.499 568.985 568.359 567.77 567.408 567.309 567.121 567.019 566.79 566.545 566.351 566.359 566.755 566.961 567.131 567.302 567.473 567.776 568.216 568.643 569.651 570.215 570.434 570.749 571.104 571.205 571.636 571.878 571.95 571.885 571.982 572.164 572.455 572.363 572.388 572.337 571.861 571.622 571.374 571.217 571.193 570.888 570.886 571.067 571.079 571.039 570.781 570.777 570.758 570.74 570.693 570.676 570.677 570.684 570.665 570.615 570.521 570.437 570.39 570.334 570.332 570.264 570.45 570.273 570.098 570.049 569.959 569.877 569.683 569.693 569.495 569.475 569.428 569.516 569.406 569.465 569.463 569.395 569.392 569.332
