ncols 408
nrows 32
xllcorner    387100
yllcorner    478430
cellsize     2
NODATA_value -9999
-9999 -9999 -9999 -9999 -9999 -9999 -9999 -9999 -9999 -9999 -9999 -9999 -9999 -9999 -9999 -9999 -9999 -9999 -9999 -9999 -9999 -9999 -9999 549.467 549.794 550.174 550.347 550.442 550.632 550.997 551.194 551.372 551.734 551.859 551.979 552.269 552.659 553.054 553.365 553.612 553.847 554.004 554.194 554.349 554.615 554.762 554.902 555.079 555.399 555.774 556.085 556.312 556.557 556.882 557.07 557.16 557.1 557.2 557.555 557.83 558.045 558.03 557.962 557.96 558.16 558.382 558.532 558.752 559.015 559.21 559.472 559.612 559.717 559.892 560.2 560.475 560.632 560.855 561.252 561.42 561.522 561.735 561.88 561.837 561.702 561.717 561.885 561.915 561.912 561.865 561.627 561.33 561.372 561.31 561.417 561.5 561.625 561.617 561.632 561.632 561.645 561.69 561.93 562.307 562.682 563.045 563.415 563.81 564.077 564.322 564.557 564.862 565.337 565.665 565.905 566.197 566.39 566.475 566.732 566.95 567.207 567.427 567.617 567.845 568.087 568.355 568.622 569 569.292 569.555 569.84 570.185 570.465 570.772 571.18 571.37 571.552 571.822 572.06 572.307 572.62 572.762 572.932 572.95 572.992 573.12 573.187 573.237 573.265 573.265 573.285 573.305 573.275 573.245 573.292 573.405 573.422 573.425 573.585 572.94 572.972 573.577 573.702 573.712 573.7 573.677 573.65 573.657 573.705 573.682 573.715 573.7 573.7 573.75 573.827 573.837 573.777 573.842 573.905 573.925 573.817 573.697 573.757 573.95 574.197 573.952 573.8 573.822 573.93 574.037 574.03 574.095 574.182 574.287 574.34 574.335 574.427 574.445 574.447 574.38 574.367 574.392 574.435 574.465 574.547 574.56 574.632 574.877 575.085 575.1 575.015 575.012 575.032 575.107 575.11 575.18 575.275 575.605 575.637 575.58 575.667 575.79 575.762 575.76 575.782 575.73 575.577 575.175 575.35 575.647 575.782 575.995 576.212 576.3 576.282 576.297 576.305 576.325 576.33 576.392 576.562 576.76 576.73 576.832 576.867 576.96 577.092 577.19 577.28 577.467 577.582 577.622 577.612 577.622 577.53 577.322 577.18 577.04 576.915 576.847 576.775 576.675 576.637 576.517 576.17 576.422 576.53 576.492 576.517 576.622 576.81 576.74 576.615 576.487 576.577 576.545 576.455 576.375 576.29 576.29 576.295 576.12 576.01 576.175 576.365 576.292 576.207 576.392 576.355 576.265 576.427 576.567 576.567 576.575 576.585 576.53 576.442 576.435 576.482 576.515 576.59 576.658 576.608 576.615 576.513 576.355 576.128 575.96 575.885 575.883 575.795 575.67 575.585 575.433 575.54 575.523 575.328 575.19 574.923 574.655 574.583 574.438 574.2 573.852 573.413 573.078 572.818 572.908 572.773 572.56 571.868 571.443 571.28 571.15 571.117 571.22 571.43 571.663 571.715 571.643 571.713 571.825 572.098 572.293 572.375 572.58 572.858 573.185 573.595 574 573.923 573.798 573.768 573.708 573.51 573.063 573.053 573.53 573.748 574.043 574.01 574.085 574.118 574.113 574.175 573.915 573.675 573.555 573.498 573.485 573.578 573.56 573.463 573.253 573.233 573.055 572.913 572.85 572.855 572.778 572.483 572.313 572.083 571.913 571.728 571.465 571.063 571.165 571.398 571.528 571.515 571.353 571.288 571.123 570.983 570.975 570.973 570.968 570.878 570.765 570.755 570.72 570.7 570.72 570.738 570.78 570.74 570.718
-9999 -9999 -9999 -9999 -9999 -9999 -9999 -9999 -9999 -9999 -9999 -9999 -9999 -9999 -9999 -9999 -9999 -9999 -9999 -9999 -9999 -9999 -9999 -9999 -9999 -9999 -9999 -9999 -9999 -9999 -9999 -9999 -9999 551.61 551.784 552.102 552.564 552.754 552.909 553.187 553.472 553.792 553.939 554.094 554.317 554.552 554.717 554.884 555.142 555.487 555.82 556.057 556.29 556.655 556.885 557.002 557.072 557.17 557.41 557.647 557.835 557.935 557.935 557.747 557.865 558.04 558.25 558.497 558.685 558.99 559.327 559.462 559.572 559.7 560.06 560.447 560.587 560.812 561.175 561.35 561.492 561.742 561.845 561.772 561.637 561.657 561.717 561.71 561.697 561.672 561.537 561.29 561.342 561.387 561.47 561.497 561.53 561.552 561.577 561.58 561.59 561.78 561.997 562.315 562.702 563.057 563.48 563.9 564.112 564.302 564.57 565.047 565.475 565.81 566.027 566.215 566.347 566.48 566.66 566.86 567.075 567.287 567.45 567.667 567.97 568.267 568.562 568.905 569.212 569.457 569.737 570.085 570.457 570.75 571.027 571.245 571.452 571.687 571.997 572.28 572.6 572.785 572.995 573.042 573.042 573.127 573.202 573.235 573.25 573.287 573.292 573.27 573.232 573.247 573.345 573.457 573.44 573.34 573.505 573.487 573.657 573.737 573.74 573.755 573.785 573.76 573.697 573.695 573.677 573.692 573.712 573.775 573.765 573.772 573.825 573.825 573.792 573.815 573.812 573.77 573.715 573.65 573.735 573.827 573.842 573.995 573.95 574.222 574.077 573.927 574.11 574.15 574.24 574.295 574.33 574.285 574.397 574.515 574.48 574.467 574.42 574.43 574.507 574.625 574.712 574.777 574.852 575.065 575.115 575.09 575.04 575.03 575.01 575.085 575.13 575.262 575.51 575.735 575.58 575.605 575.637 575.635 575.682 575.755 575.697 575.63 575.357 575.322 575.447 575.707 576.202 576.35 576.37 576.38 576.467 576.402 576.377 576.357 576.397 576.46 576.535 576.675 576.772 577.027 577.075 576.975 577.235 577.26 577.345 577.525 577.66 577.647 577.592 577.597 577.515 577.417 577.337 577.212 577.075 576.972 576.937 576.87 576.837 576.747 576.59 576.51 576.65 576.607 576.585 576.587 576.77 576.897 576.797 576.707 576.707 576.667 576.555 576.502 576.492 576.462 576.472 576.445 576.38 576.237 576.24 576.375 576.507 576.557 576.515 576.482 576.547 576.63 576.685 576.717 576.757 576.615 576.6 576.665 576.735 576.735 576.723 576.725 576.635 576.513 576.308 576.18 576.073 575.987 575.928 575.85 575.79 575.73 575.598 575.473 575.595 575.583 575.468 575.33 575.215 575.015 574.913 574.755 574.63 574.1 573.495 573.145 573 573.185 573.038 572.828 572.175 571.683 571.54 571.483 571.52 571.703 571.948 571.975 571.975 572.148 572.263 572.378 572.408 572.48 572.59 572.71 572.878 573.305 573.95 574.403 574.418 574.368 574.233 573.973 573.598 573.178 573.388 573.873 574.27 574.438 574.473 574.658 574.708 574.733 574.723 574.53 574.28 574.175 574.148 574.15 574.215 574.218 574.173 574.115 573.99 573.78 573.613 573.473 573.335 573.213 573.128 572.99 572.743 572.503 572.22 571.908 571.645 571.77 571.985 571.99 571.895 571.885 571.805 571.603 571.413 571.335 571.49 571.423 571.12 571.015 570.935 570.86 570.87 570.935 570.91 570.948 571.01 570.91
-9999 -9999 -9999 -9999 -9999 -9999 -9999 -9999 -9999 -9999 -9999 -9999 -9999 -9999 -9999 -9999 -9999 -9999 -9999 -9999 -9999 -9999 -9999 -9999 -9999 -9999 -9999 -9999 -9999 -9999 -9999 -9999 -9999 -9999 -9999 -9999 -9999 -9999 -9999 -9999 -9999 -9999 553.684 553.842 554.017 554.319 554.577 554.732 554.949 555.265 555.572 555.785 555.985 556.36 556.687 556.895 557.092 557.16 557.247 557.46 557.637 557.712 557.607 557.485 557.622 557.767 557.985 558.245 558.502 558.757 559.06 559.23 559.395 559.645 560.06 560.4 560.605 560.795 561.062 561.205 561.322 561.625 561.712 561.665 561.63 561.627 561.582 561.525 561.522 561.525 561.402 561.277 561.29 561.32 561.397 561.445 561.51 561.525 561.525 561.607 561.717 562 562.325 562.59 562.97 563.31 563.702 564.03 564.172 564.365 564.625 565 565.51 565.792 565.967 566.187 566.382 566.597 566.842 566.977 567.077 567.222 567.38 567.645 567.987 568.297 568.542 568.892 569.195 569.435 569.67 570.072 570.42 570.66 570.922 571.197 571.39 571.672 571.97 572.242 572.482 572.67 572.842 572.915 572.992 573.135 573.175 573.212 573.232 573.242 573.225 573.222 573.215 573.31 573.395 573.47 573.53 573.59 573.662 573.687 573.682 573.727 573.722 573.78 573.787 573.805 573.77 573.702 573.695 573.707 573.715 573.755 573.787 573.847 573.927 573.927 573.79 573.752 573.71 573.672 573.617 573.615 573.685 573.765 573.775 573.792 573.86 573.952 574.067 574.292 574.047 574.077 574.18 574.255 574.3 574.295 574.372 574.395 574.46 574.562 574.502 574.502 574.552 574.687 574.762 574.852 574.995 575.09 575.065 575.062 575.055 575.037 575.065 575.12 575.237 575.437 575.647 575.59 575.64 575.645 575.662 575.607 575.667 575.68 575.58 575.417 575.227 575.345 575.485 575.845 576.302 576.435 576.465 576.582 576.617 576.46 576.427 576.465 576.472 576.497 576.62 576.725 576.84 577.04 577.107 577.16 577.337 577.417 577.507 577.612 577.67 577.652 577.592 577.572 577.547 577.465 577.405 577.325 577.22 577.18 577.1 577.005 576.94 576.987 577.005 576.612 576.687 576.802 576.705 576.652 576.692 576.9 576.877 576.852 576.832 576.805 576.77 576.73 576.68 576.65 576.662 576.665 576.602 576.605 576.707 576.625 576.485 576.472 576.545 576.665 576.68 576.707 576.747 576.755 576.772 576.7 576.787 576.85 576.862 576.855 576.79 576.773 576.685 576.603 576.598 576.45 576.08 575.995 575.968 575.9 575.863 575.76 575.665 575.58 575.65 575.658 575.603 575.495 575.403 575.418 575.4 575.255 574.928 574.163 573.518 573.218 573.275 573.44 573.425 572.858 572.48 571.923 571.845 571.728 571.895 572.265 572.463 572.365 572.4 572.625 572.823 572.872 572.958 572.88 572.79 572.803 573.01 573.475 574.208 574.617 574.64 574.613 574.47 574.075 573.543 573.193 573.585 574.288 574.84 574.795 574.958 575.058 575.085 575.113 575.108 574.97 574.785 574.708 574.815 574.905 574.94 574.953 574.883 574.728 574.595 574.493 574.28 574.143 574.015 573.808 573.605 573.45 573.295 573.073 572.823 572.503 572.338 572.398 572.53 572.475 572.385 572.33 572.21 572.145 571.898 571.74 571.848 571.81 571.468 571.32 571.173 571.098 571.063 571.11 571.173 571.193 571.238 571.188
-9999 -9999 -9999 -9999 -9999 -9999 -9999 -9999 -9999 -9999 -9999 -9999 -9999 -9999 -9999 -9999 -9999 -9999 -9999 -9999 -9999 -9999 -9999 -9999 -9999 -9999 -9999 -9999 -9999 -9999 -9999 -9999 -9999 -9999 -9999 -9999 -9999 -9999 -9999 -9999 -9999 -9999 -9999 -9999 -9999 -9999 -9999 -9999 -9999 -9999 -9999 -9999 -9999 -9999 -9999 -9999 -9999 -9999 556.987 557.33 557.47 557.46 557.367 557.297 557.415 557.577 557.842 558.087 558.36 558.575 558.837 559.012 559.227 559.517 559.915 560.287 560.63 560.772 560.877 560.967 561.157 561.417 561.547 561.56 561.555 561.562 561.535 561.56 561.632 561.435 561.295 561.257 561.257 561.312 561.327 561.375 561.47 561.495 561.512 561.625 561.89 562.27 562.727 563.025 563.272 563.56 563.82 564.015 564.162 564.312 564.547 564.935 565.397 565.65 565.875 566.18 566.382 566.63 566.93 567.177 567.312 567.385 567.477 567.712 568.057 568.312 568.605 568.94 569.205 569.367 569.612 569.98 570.342 570.595 570.872 571.157 571.405 571.652 571.925 572.255 572.48 572.652 572.745 572.805 572.89 573.037 573.142 573.212 573.28 573.237 573.185 573.165 573.227 573.322 573.422 573.535 573.622 573.682 573.757 573.755 573.757 573.747 573.747 573.785 573.817 573.787 573.772 573.7 573.667 573.675 573.717 573.735 573.795 573.81 573.817 573.762 573.775 573.755 573.712 573.687 573.647 573.607 573.635 573.725 573.665 573.695 573.702 573.74 573.872 574.005 574.182 574.307 574.2 574.212 574.265 574.272 574.31 574.32 574.337 574.4 574.432 574.515 574.612 574.745 574.78 574.817 574.887 575.03 575.055 575.097 575.11 575.107 575.122 575.195 575.36 575.622 575.495 575.53 575.59 575.65 575.715 575.64 575.655 575.637 575.622 575.44 575.402 575.382 575.437 575.882 576.42 576.477 576.537 576.635 576.555 576.545 576.515 576.597 576.71 576.695 576.722 576.815 576.905 577.032 577.247 577.28 577.427 577.622 577.69 577.8 577.692 577.68 577.625 577.587 577.57 577.527 577.515 577.4 577.332 577.285 577.267 577.187 577.127 577.127 576.992 576.972 576.817 576.87 576.835 576.752 576.712 576.942 577.022 576.972 577.007 577.035 577.05 576.952 576.87 576.852 576.892 576.837 576.767 576.765 576.822 576.785 576.737 576.832 576.73 576.68 576.717 576.872 576.915 576.83 576.817 576.817 576.937 576.912 576.907 576.91 576.833 576.88 576.825 576.758 576.793 576.578 576.188 576.043 575.978 575.92 575.878 575.833 575.755 575.63 575.695 575.727 575.725 575.595 575.57 575.633 575.61 575.443 574.82 574.18 573.64 573.423 573.523 573.603 573.343 572.958 572.555 572.183 572.135 572.068 572.32 572.723 572.85 572.79 572.908 573.208 573.418 573.533 573.355 573.108 573.008 572.953 573.145 573.715 574.46 574.833 574.908 574.858 574.658 574.133 573.54 573.518 573.853 574.568 575.123 575.238 575.38 575.393 575.43 575.495 575.443 575.348 575.253 575.248 575.375 575.495 575.538 575.558 575.425 575.235 575.075 575.005 574.898 574.825 574.678 574.405 574.133 574.045 573.735 573.428 573.203 573.033 572.973 573 573.118 572.993 572.9 572.813 572.66 572.378 572.12 572.093 572.205 572.145 571.94 571.718 571.518 571.443 571.355 571.393 571.45 571.468 571.433 571.385
-9999 -9999 -9999 -9999 -9999 -9999 -9999 -9999 -9999 -9999 -9999 -9999 -9999 -9999 -9999 -9999 -9999 -9999 -9999 -9999 -9999 -9999 -9999 -9999 -9999 -9999 -9999 -9999 -9999 -9999 -9999 -9999 -9999 -9999 -9999 -9999 -9999 -9999 -9999 -9999 -9999 -9999 -9999 -9999 -9999 -9999 -9999 -9999 -9999 -9999 -9999 -9999 -9999 -9999 -9999 -9999 -9999 -9999 -9999 -9999 -9999 -9999 -9999 -9999 557.357 557.457 557.577 557.922 558.29 558.472 558.692 558.82 559.085 559.44 559.835 560.172 560.335 560.532 560.757 560.952 561.125 561.187 561.217 561.292 561.43 561.515 561.5 561.447 561.452 561.317 561.282 561.307 561.272 561.282 561.29 561.347 561.362 561.36 561.45 561.647 561.892 562.232 562.515 562.662 562.902 563.277 563.687 563.972 564.145 564.235 564.457 564.905 565.262 565.555 565.83 566.117 566.47 566.76 567.102 567.382 567.54 567.495 567.535 567.815 568.13 568.427 568.705 568.912 569.182 569.37 569.595 569.925 570.285 570.56 570.882 571.175 571.382 571.59 571.835 572.115 572.345 572.53 572.642 572.73 572.822 572.892 573.047 573.152 573.217 573.187 573.135 573.177 573.247 573.297 573.387 573.537 573.67 573.742 573.807 573.802 573.805 573.795 573.78 573.79 573.822 573.785 573.755 573.747 573.722 573.687 573.667 573.702 573.72 573.755 573.73 573.705 573.725 573.69 573.607 573.597 573.655 573.635 573.677 573.66 573.595 573.562 573.555 573.627 573.827 573.962 574.06 574.132 574.397 574.622 574.407 574.262 574.297 574.332 574.367 574.372 574.462 574.552 574.682 574.77 574.8 574.852 574.877 574.962 575.07 575.105 575.122 575.11 575.155 575.295 575.68 575.697 575.497 575.517 575.575 575.615 575.65 575.697 575.715 575.725 575.665 575.482 575.41 575.37 575.485 575.997 576.467 576.577 576.585 576.587 576.592 576.597 576.615 576.79 576.9 576.865 576.885 576.965 577.11 577.26 577.457 577.56 577.59 577.817 577.8 577.807 577.742 577.672 577.635 577.617 577.61 577.572 577.51 577.477 577.4 577.365 577.337 577.3 577.21 577.09 577.115 577.057 576.857 576.857 576.917 576.805 576.76 576.97 577.175 577.207 577.215 577.29 577.275 577.19 577.07 577.077 577.112 576.972 576.905 576.925 577.06 576.897 576.837 577.07 577.182 577.06 576.882 576.825 576.91 576.947 576.86 576.9 576.932 576.947 576.895 576.952 576.997 577.05 576.988 576.825 576.66 576.538 576.338 576.173 576.075 576.005 575.975 575.925 575.855 575.573 575.747 575.815 575.785 575.718 575.6 575.693 575.715 575.478 575.035 574.43 573.835 573.68 573.737 573.622 573.333 573.1 572.653 572.375 572.388 572.468 572.833 573.208 573.433 573.358 573.508 573.855 574.443 574.563 574.23 573.608 573.333 573.168 573.278 573.85 574.42 575.058 575.175 575.103 574.948 574.498 574.05 574.02 574.385 574.708 575.08 575.4 575.57 575.695 575.783 575.863 575.855 575.76 575.683 575.703 575.763 575.948 576.003 576.005 575.948 575.833 575.645 575.543 575.42 575.353 575.203 575.03 574.798 574.58 574.3 573.963 573.638 573.538 573.52 573.583 573.618 573.485 573.438 573.49 573.405 572.855 572.595 572.518 572.45 572.37 572.26 572.08 571.893 571.798 571.738 571.725 571.713 571.723 571.585 571.558
-9999 -9999 -9999 -9999 -9999 -9999 -9999 -9999 -9999 -9999 -9999 -9999 -9999 -9999 -9999 -9999 -9999 -9999 -9999 -9999 -9999 -9999 -9999 -9999 -9999 -9999 -9999 -9999 -9999 -9999 -9999 -9999 -9999 -9999 -9999 -9999 -9999 -9999 -9999 -9999 -9999 -9999 -9999 -9999 -9999 -9999 -9999 -9999 -9999 -9999 -9999 -9999 -9999 -9999 -9999 -9999 -9999 -9999 -9999 -9999 -9999 -9999 -9999 -9999 -9999 -9999 -9999 -9999 -9999 -9999 -9999 558.67 558.895 559.207 559.557 559.865 560.202 560.432 560.7 561.02 561.112 561.052 561.132 561.287 561.427 561.527 561.562 561.542 561.382 561.212 561.177 561.235 561.275 561.25 561.25 561.285 561.297 561.362 561.462 561.64 561.847 562.017 562.12 562.36 562.67 563.032 563.492 563.857 564.022 564.147 564.422 564.805 565.172 565.452 565.702 566.072 566.412 566.797 567.05 567.322 567.512 567.635 567.762 568.062 568.397 568.712 568.842 569.005 569.197 569.372 569.612 569.902 570.205 570.575 570.912 571.157 571.39 571.575 571.767 572.007 572.25 572.387 572.54 572.725 572.832 572.897 572.965 573.045 573.122 573.14 573.075 573.13 573.222 573.322 573.4 573.585 573.685 573.737 573.8 573.822 573.83 573.847 573.83 573.817 573.8 573.78 573.76 573.742 573.705 573.655 573.677 573.71 573.687 573.702 573.655 573.61 573.647 573.632 573.585 573.565 573.557 573.61 573.687 573.712 573.652 573.537 573.535 573.635 573.84 574.032 574.042 574.087 574.137 574.22 574.487 574.845 574.387 574.332 574.342 574.372 574.467 574.615 574.772 574.837 574.882 574.895 574.942 575.007 575.08 575.155 575.197 575.15 575.23 575.63 575.832 575.525 575.605 575.627 575.642 575.615 575.655 575.8 575.775 575.752 575.79 575.702 575.605 575.522 575.717 576.152 576.592 576.67 576.637 576.647 576.635 576.682 576.73 576.785 576.895 576.99 577.027 577.105 577.272 577.445 577.52 577.577 577.61 577.762 577.852 577.782 577.76 577.74 577.712 577.67 577.667 577.645 577.587 577.567 577.48 577.445 577.437 577.402 577.295 577.272 577.337 577.145 577.09 576.937 576.935 576.93 576.862 576.982 577.365 577.432 577.437 577.447 577.455 577.352 577.267 577.312 577.31 577.162 576.975 576.857 576.882 576.882 577.072 577.362 577.37 577.352 577.265 577.185 577.052 576.795 576.915 577.1 577.09 577.195 577.107 577.112 577.105 577.17 577.128 576.99 576.798 576.525 576.375 576.26 576.182 576.138 576.035 575.997 575.965 575.685 575.745 575.93 576.02 575.848 575.673 575.66 575.66 575.53 575.31 574.63 574.113 573.975 573.978 573.673 573.463 573.247 572.883 572.685 572.693 572.853 573.285 573.718 573.997 573.985 574.298 574.737 574.965 574.998 574.923 574.37 573.622 573.348 573.428 573.895 574.443 575.225 575.35 575.348 575.233 574.723 574.37 574.475 574.87 575.118 575.335 575.608 575.993 576.063 576.165 576.228 576.208 576.215 576.193 576.2 576.275 576.383 576.423 576.45 576.495 576.395 576.255 576.135 576.02 575.958 575.723 575.585 575.373 575.105 574.873 574.57 574.22 573.965 573.948 574.043 574.018 574.02 573.903 573.92 573.818 573.358 573.1 572.958 572.813 572.715 572.518 572.373 572.158 571.995 571.978 571.978 571.945 571.925 571.845 571.783
-9999 -9999 -9999 -9999 -9999 -9999 -9999 -9999 -9999 -9999 -9999 -9999 -9999 -9999 -9999 -9999 -9999 -9999 -9999 -9999 -9999 -9999 -9999 -9999 -9999 -9999 -9999 -9999 -9999 -9999 -9999 -9999 -9999 -9999 -9999 -9999 -9999 -9999 -9999 -9999 -9999 -9999 -9999 -9999 -9999 -9999 -9999 -9999 -9999 -9999 -9999 -9999 -9999 -9999 -9999 -9999 -9999 -9999 -9999 -9999 -9999 -9999 -9999 -9999 -9999 -9999 -9999 -9999 -9999 -9999 -9999 -9999 -9999 -9999 -9999 -9999 -9999 560.474 560.722 561.045 561.05 561.04 561.105 561.252 561.48 561.545 561.592 561.605 561.532 561.255 561.147 561.15 561.195 561.202 561.25 561.292 561.347 561.382 561.36 561.537 561.7 561.84 561.987 562.26 562.62 563.01 563.477 563.757 563.847 564.132 564.495 564.825 565.16 565.427 565.677 566.007 566.365 566.797 567.152 567.355 567.627 567.862 568.09 568.257 568.597 568.93 568.95 569.092 569.22 569.422 569.67 569.94 570.185 570.562 570.9 571.18 571.42 571.607 571.782 571.957 572.085 572.252 572.412 572.625 572.79 572.855 572.922 572.967 572.987 573.017 573.047 573.162 573.287 573.375 573.46 573.537 573.647 573.7 573.742 573.83 573.875 573.9 573.852 573.837 573.84 573.795 573.732 573.697 573.685 573.667 573.62 573.67 573.64 573.597 573.575 573.592 573.59 573.55 573.517 573.502 573.53 573.547 573.512 573.53 573.597 573.542 573.557 573.622 573.82 573.945 574.122 574.095 574.08 574.135 574.197 574.275 574.662 574.75 574.582 574.395 574.49 574.645 574.81 575.095 575.1 575.045 575.04 575.062 575.145 575.207 575.282 575.252 575.362 575.612 575.522 575.66 575.745 575.8 575.785 575.712 575.607 575.657 575.765 575.755 575.787 575.957 575.715 575.675 575.83 576.405 576.825 576.822 576.725 576.802 576.815 576.73 576.852 577.007 577.037 577.085 577.145 577.27 577.355 577.412 577.495 577.765 577.917 577.757 577.987 577.922 577.775 577.787 577.81 577.855 577.832 577.765 577.707 577.652 577.585 577.55 577.532 577.535 577.51 577.505 577.475 577.295 577.107 577.092 577.047 577.082 576.99 577.092 577.522 577.597 577.6 577.58 577.582 577.517 577.465 577.47 577.505 577.352 577.192 577.07 577.245 577.325 577.527 577.605 577.607 577.56 577.5 577.455 577.435 577.22 576.927 576.945 577.307 577.35 577.307 577.297 577.253 577.285 577.283 577.193 577.023 576.82 576.575 576.375 576.3 576.293 576.198 576.073 576.03 575.938 575.95 575.91 575.908 575.88 575.773 575.655 575.578 575.478 575.285 574.71 574.255 574.175 574.075 573.798 573.625 573.37 573.12 572.988 572.997 573.108 573.585 574.093 574.473 574.43 574.833 575.28 575.295 575.263 575.215 574.783 573.8 573.435 573.49 573.83 574.345 575.165 575.515 575.575 575.51 574.945 574.705 574.913 575.3 575.498 575.668 575.863 576.02 576.253 576.488 576.643 576.648 576.663 576.665 576.673 576.768 576.775 576.768 576.758 576.745 576.715 576.67 576.565 576.473 576.35 576.17 576.035 575.9 575.618 575.295 575.075 574.8 574.418 574.278 574.368 574.543 574.553 574.45 574.403 574.13 573.75 573.51 573.498 573.28 573.03 572.768 572.735 572.568 572.383 572.245 572.188 572.123 572.095 572.023 572.02
-9999 -9999 -9999 -9999 -9999 -9999 -9999 -9999 -9999 -9999 -9999 -9999 -9999 -9999 -9999 -9999 -9999 -9999 -9999 -9999 -9999 -9999 -9999 -9999 -9999 -9999 -9999 -9999 -9999 -9999 -9999 -9999 -9999 -9999 -9999 -9999 -9999 -9999 -9999 -9999 -9999 -9999 -9999 -9999 -9999 -9999 -9999 -9999 -9999 -9999 -9999 -9999 -9999 -9999 -9999 -9999 -9999 -9999 -9999 -9999 -9999 -9999 -9999 -9999 -9999 -9999 -9999 -9999 -9999 -9999 -9999 -9999 -9999 -9999 -9999 -9999 -9999 -9999 -9999 -9999 -9999 -9999 561.08 561.315 561.505 561.515 561.51 561.587 561.555 561.26 561.16 561.152 561.192 561.195 561.24 561.417 561.537 561.435 561.33 561.475 561.657 561.797 561.907 562.295 562.72 563.057 563.342 563.505 563.672 564.04 564.445 564.827 565.21 565.512 565.845 566.275 566.555 566.88 567.327 567.697 567.872 568.007 568.15 568.332 568.632 568.862 568.94 569.075 569.232 569.5 569.747 569.99 570.337 570.682 570.967 571.225 571.437 571.627 571.87 572 571.98 572.115 572.302 572.507 572.697 572.785 572.875 572.925 572.952 572.96 573.085 573.21 573.285 573.35 573.447 573.552 573.72 573.712 573.712 573.807 573.887 573.85 573.842 573.83 573.82 573.767 573.7 573.652 573.647 573.637 573.627 573.617 573.61 573.52 573.522 573.427 573.435 573.377 573.482 573.475 573.425 573.445 573.48 573.507 573.567 573.612 573.687 573.8 573.93 573.947 574.065 574.115 574.087 574.12 574.147 574.227 574.215 574.32 574.54 574.722 574.722 574.602 574.785 575.06 575.257 575.245 575.3 575.217 575.222 575.26 575.387 575.422 575.81 575.685 575.612 575.702 575.732 575.735 575.757 575.8 575.722 575.797 575.822 575.79 575.792 576.06 575.897 575.845 575.992 576.5 576.792 576.79 576.86 577.072 576.987 576.905 577.1 577.152 577.16 577.157 577.242 577.327 577.412 577.45 577.652 577.895 578.04 578.1 577.972 577.987 578.01 577.9 577.867 577.925 577.977 577.935 577.887 577.797 577.757 577.717 577.655 577.64 577.632 577.595 577.56 577.442 577.237 577.21 577.18 577.097 577.175 577.352 577.747 577.77 577.77 577.722 577.672 577.71 577.62 577.632 577.672 577.595 577.575 577.632 577.682 577.675 577.765 577.82 577.827 577.71 577.69 577.71 577.587 577.392 577.21 577.25 577.17 577.412 577.462 577.467 577.54 577.51 577.5 577.42 577.285 577.015 576.715 576.518 576.395 576.31 576.238 576.16 576.128 576.058 576 575.982 576.025 576.175 575.95 575.768 575.612 575.35 575.068 574.735 574.443 574.398 574.455 574.138 573.79 573.61 573.405 573.355 573.365 573.5 573.913 574.403 574.853 575.185 575.428 575.593 575.62 575.615 575.468 574.885 573.833 573.54 573.54 573.88 574.445 575.205 575.675 575.828 575.74 575.085 574.863 575.125 575.668 575.85 575.928 576.08 576.178 576.323 576.548 576.775 576.965 577.083 577.213 577.215 577.193 577.23 577.218 577.21 577.163 577.11 577.02 576.915 576.853 576.715 576.63 576.598 576.45 576.083 575.795 575.515 575.265 574.94 574.73 574.815 574.95 574.953 574.905 574.883 574.615 574.225 573.873 573.84 573.643 573.293 573.05 572.993 572.87 572.765 572.455 572.39 572.33 572.303 572.255 572.298
-9999 -9999 -9999 -9999 -9999 -9999 -9999 -9999 -9999 -9999 -9999 -9999 -9999 -9999 -9999 -9999 -9999 -9999 -9999 -9999 -9999 -9999 -9999 -9999 -9999 -9999 -9999 -9999 -9999 -9999 -9999 -9999 -9999 -9999 -9999 -9999 -9999 -9999 -9999 -9999 -9999 -9999 -9999 -9999 -9999 -9999 -9999 -9999 -9999 -9999 -9999 -9999 -9999 -9999 -9999 -9999 -9999 -9999 -9999 -9999 -9999 -9999 -9999 -9999 -9999 -9999 -9999 -9999 -9999 -9999 -9999 -9999 -9999 -9999 -9999 -9999 -9999 -9999 -9999 -9999 -9999 -9999 -9999 -9999 -9999 561.49 561.49 561.465 561.4 561.132 561.115 561.13 561.137 561.152 561.112 561.407 561.545 561.455 561.34 561.407 561.685 561.872 561.98 562.347 562.69 562.972 563.11 563.405 563.605 563.935 564.342 564.84 565.212 565.62 565.947 566.355 566.72 567.055 567.462 567.7 567.802 567.9 568.147 568.395 568.655 568.827 568.9 569.105 569.335 569.53 569.77 570.107 570.467 570.752 570.98 571.215 571.417 571.64 571.827 571.982 572.055 572.075 572.2 572.39 572.515 572.637 572.765 572.815 572.85 572.907 573.047 573.19 573.285 573.327 573.427 573.59 573.687 573.69 573.67 573.727 573.792 573.852 573.855 573.812 573.8 573.742 573.67 573.627 573.582 573.525 573.57 573.557 573.502 573.435 573.467 573.502 573.302 573.295 573.367 573.367 573.4 573.412 573.405 573.48 573.562 573.647 573.755 573.86 574.065 574.12 574.11 574.142 574.142 574.122 574.125 574.127 574.147 574.235 574.35 574.437 574.817 574.975 574.887 574.935 575.225 575.482 575.562 575.49 575.42 575.382 575.542 575.7 575.675 575.557 575.695 575.722 575.765 575.75 575.842 575.817 575.76 575.862 575.892 575.83 575.8 576.1 576.022 576.055 576.192 576.53 576.662 576.777 577.117 577.19 577.11 577.145 577.25 577.222 577.222 577.3 577.36 577.467 577.61 577.752 577.852 577.995 578.105 578.22 578.242 578.117 578.402 578.285 578.035 578.115 578.245 578.062 578.017 577.955 577.845 577.792 577.765 577.75 577.78 577.707 577.647 577.575 577.422 577.412 577.472 577.387 577.255 577.505 577.96 577.985 577.952 577.905 577.807 577.79 577.78 577.807 577.8 577.755 577.745 577.815 577.845 577.88 577.957 577.985 578.01 577.977 577.945 577.955 577.835 577.6 577.552 577.67 577.517 577.395 577.645 577.7 577.688 577.613 577.59 577.48 577.32 577.04 576.883 576.795 576.605 576.47 576.375 576.303 576.273 576.15 575.925 576.103 576.103 576.243 576.215 576.083 575.863 575.5 575.01 574.737 574.66 574.61 574.655 574.14 573.883 573.798 573.7 573.713 573.795 573.943 574.365 574.778 575.145 575.595 575.82 575.865 575.915 575.862 575.493 574.783 574.175 574.04 573.85 574.038 574.555 575.265 575.758 576.008 575.845 575.415 575.03 575.248 575.76 576.098 576.255 576.338 576.45 576.645 576.845 577.003 577.158 577.32 577.408 577.48 577.508 577.615 577.66 577.59 577.505 577.495 577.458 577.373 577.288 577.128 577.01 576.87 576.673 576.43 576.128 575.978 575.843 575.523 575.245 575.255 575.385 575.31 575.248 575.273 575.248 574.81 574.393 574.043 573.893 573.608 573.34 573.255 573.11 572.928 572.703 572.563 572.603 572.548 572.515 572.57
-9999 -9999 -9999 -9999 -9999 -9999 -9999 -9999 -9999 -9999 -9999 -9999 -9999 -9999 -9999 -9999 -9999 -9999 -9999 -9999 -9999 -9999 -9999 -9999 -9999 -9999 -9999 -9999 -9999 -9999 -9999 -9999 -9999 -9999 -9999 -9999 -9999 -9999 -9999 -9999 -9999 -9999 -9999 -9999 -9999 -9999 -9999 -9999 -9999 -9999 -9999 -9999 -9999 -9999 -9999 -9999 -9999 -9999 -9999 -9999 -9999 -9999 -9999 -9999 -9999 -9999 -9999 -9999 -9999 -9999 -9999 -9999 -9999 -9999 -9999 -9999 -9999 -9999 -9999 -9999 -9999 -9999 -9999 -9999 -9999 -9999 -9999 -9999 -9999 561.022 561.04 561.07 561.135 561.095 561.167 561.39 561.537 561.515 561.372 561.382 561.572 561.777 561.98 562.252 562.585 562.782 563.037 563.435 563.645 563.937 564.36 564.822 565.22 565.64 565.925 566.312 566.602 567.07 567.372 567.617 567.825 567.955 568.147 568.317 568.545 568.747 568.91 569.157 569.347 569.455 569.717 570.177 570.515 570.795 571 571.177 571.382 571.637 571.75 571.815 571.88 571.975 572.06 572.18 572.335 572.467 572.56 572.635 572.717 572.83 572.987 573.135 573.212 573.307 573.412 573.532 573.642 573.617 573.65 573.687 573.702 573.71 573.772 573.762 573.705 573.672 573.617 573.59 573.482 573.417 573.377 573.38 573.382 573.355 573.29 573.187 573.15 573.237 573.31 573.275 573.292 573.36 573.355 573.45 573.55 573.66 573.745 573.777 573.945 574.147 574.125 574.06 574.027 574.027 574.085 574.1 574.13 574.24 574.347 574.465 574.567 574.732 575.027 575.27 575.46 575.387 575.53 575.612 575.64 575.687 575.802 576.175 575.817 575.48 575.557 575.692 575.752 575.857 575.88 575.875 575.865 575.905 575.947 575.84 575.88 576.085 576.107 576.2 576.372 576.562 576.682 576.972 577.272 577.322 577.265 577.31 577.312 577.302 577.262 577.352 577.465 577.61 577.735 577.855 577.992 578.12 578.185 578.282 578.382 578.382 578.352 578.545 578.49 578.47 578.507 578.435 578.205 577.997 577.97 577.917 577.9 577.92 577.9 577.82 577.8 577.77 577.787 577.895 578.087 577.982 577.967 577.942 577.86 578.112 578.152 578.11 578.077 577.995 577.982 577.915 577.875 577.865 577.845 577.887 577.937 577.997 578.065 578.162 578.195 578.202 578.207 578.13 578.027 577.932 577.94 577.977 577.885 577.857 577.695 577.855 577.813 577.693 577.583 577.473 577.38 577.195 577.108 577.005 576.858 576.713 576.605 576.488 576.448 576.38 576.143 576.273 576.228 576.478 576.45 576.29 576.078 575.533 575.035 574.845 574.923 574.693 574.798 574.133 573.992 574.05 574.075 574.21 574.195 574.348 574.718 575.24 575.705 575.9 576.033 576.115 576.098 575.99 575.413 575.018 574.848 574.468 574.27 574.27 574.492 575.03 575.705 576.068 575.96 575.538 575.213 575.358 575.898 576.43 576.593 576.675 576.785 576.923 577.105 577.26 577.365 577.445 577.59 577.72 577.77 577.835 577.865 577.835 577.773 577.763 577.618 577.495 577.48 577.415 577.338 577.173 577.045 576.868 576.745 576.675 576.465 576.22 575.985 575.915 575.825 575.64 575.673 575.738 575.753 575.443 574.86 574.378 574.178 573.983 573.688 573.5 573.343 573.213 573.04 572.905 572.943 572.908 572.895 572.885
-9999 -9999 -9999 -9999 -9999 -9999 -9999 -9999 -9999 -9999 -9999 -9999 -9999 -9999 -9999 -9999 -9999 -9999 -9999 -9999 -9999 -9999 -9999 -9999 -9999 -9999 -9999 -9999 -9999 -9999 -9999 -9999 -9999 -9999 -9999 -9999 -9999 -9999 -9999 -9999 -9999 -9999 -9999 -9999 -9999 -9999 -9999 -9999 -9999 -9999 -9999 -9999 -9999 -9999 -9999 -9999 -9999 -9999 -9999 -9999 -9999 -9999 -9999 -9999 -9999 -9999 -9999 -9999 -9999 -9999 -9999 -9999 -9999 -9999 -9999 -9999 -9999 -9999 -9999 -9999 -9999 -9999 -9999 -9999 -9999 -9999 -9999 -9999 -9999 -9999 -9999 -9999 -9999 561.135 561.127 561.237 561.52 561.56 561.485 561.5 561.557 561.627 561.885 562.045 562.415 562.697 562.952 563.33 563.625 563.912 564.367 564.832 565.302 565.7 565.907 566.192 566.6 567.04 567.33 567.527 567.767 567.997 568.055 568.217 568.487 568.727 568.905 569.125 569.312 569.45 569.692 570.085 570.385 570.68 570.88 571.127 571.355 571.58 571.627 571.735 571.86 571.955 572.002 572.157 572.215 572.277 572.357 572.47 572.575 572.667 572.842 572.99 573.127 573.235 573.362 573.455 573.532 573.555 573.58 573.625 573.667 573.642 573.625 573.615 573.587 573.535 573.492 573.5 573.407 573.335 573.272 573.217 573.147 573.157 573.23 573.202 573.242 573.305 573.262 573.242 573.287 573.297 573.345 573.452 573.617 573.747 573.73 573.74 573.855 574.042 574.005 573.937 573.952 573.932 574 574.057 574.17 574.357 574.465 574.547 574.66 574.742 574.877 575.005 575.337 575.837 575.832 575.647 575.67 575.742 576.142 575.922 575.695 575.61 575.6 575.767 575.915 575.932 575.91 575.937 576.005 576.005 576.037 576.045 575.972 576.127 576.18 576.302 576.492 576.58 576.755 577.062 577.402 577.43 577.407 577.435 577.415 577.355 577.372 577.452 577.532 577.64 577.76 577.847 577.987 578.12 578.247 578.342 578.43 578.527 578.51 578.507 578.665 578.637 578.632 578.587 578.415 578.117 578.055 578.05 578.06 577.995 577.995 577.94 577.942 578.112 578.305 578.38 578.31 578.055 578.272 578.382 578.335 578.302 578.252 578.222 578.107 578.085 578.107 578.072 578.017 577.975 577.92 577.932 578.01 578.057 578.175 578.3 578.387 578.365 578.337 578.26 578.215 578.272 578.182 578.205 578.195 578.195 577.997 577.827 577.903 577.798 577.71 577.693 577.588 577.42 577.32 577.188 577.028 576.872 576.773 576.723 576.668 576.588 576.495 576.435 576.475 576.733 576.625 576.448 576.053 575.54 575.048 574.985 575.1 574.725 574.36 574.263 574.233 574.345 574.5 574.695 574.62 574.653 574.833 575.408 575.913 576.11 576.255 576.338 576.293 576.075 575.545 575.365 575.3 575.128 575.04 574.84 574.742 574.992 575.7 576.088 576.313 576.018 575.585 575.538 575.973 576.605 576.968 577.068 577.113 577.248 577.4 577.533 577.618 577.653 577.803 577.935 578.07 578.108 578.09 578.115 578.068 578.005 577.878 577.8 577.71 577.66 577.668 577.598 577.493 577.455 577.465 577.373 577.203 576.925 576.675 576.455 576.32 576.293 576.398 576.413 576.295 575.85 575.143 574.773 574.538 574.32 574.083 573.925 573.685 573.563 573.415 573.308 573.323 573.27 573.243 573.198
-9999 -9999 -9999 -9999 -9999 -9999 -9999 -9999 -9999 -9999 -9999 -9999 -9999 -9999 -9999 -9999 -9999 -9999 -9999 -9999 -9999 -9999 -9999 -9999 -9999 -9999 -9999 -9999 -9999 -9999 -9999 -9999 -9999 -9999 -9999 -9999 -9999 -9999 -9999 -9999 -9999 -9999 -9999 -9999 -9999 -9999 -9999 -9999 -9999 -9999 -9999 -9999 -9999 -9999 -9999 -9999 -9999 -9999 -9999 -9999 -9999 -9999 -9999 -9999 -9999 -9999 -9999 -9999 -9999 -9999 -9999 -9999 -9999 -9999 -9999 -9999 -9999 -9999 -9999 -9999 -9999 -9999 -9999 -9999 -9999 -9999 -9999 -9999 -9999 -9999 -9999 -9999 -9999 -9999 -9999 -9999 -9999 -9999 561.544 561.532 561.52 561.585 561.705 561.857 562.167 562.59 562.905 563.26 563.65 563.942 564.427 564.96 565.392 565.597 565.867 566.255 566.73 567.057 567.337 567.487 567.722 568.002 568.05 568.182 568.412 568.727 568.992 569.155 569.297 569.48 569.727 570.032 570.33 570.612 570.847 571.125 571.357 571.497 571.562 571.71 571.83 572.01 572.112 572.187 572.182 572.122 572.232 572.382 572.462 572.485 572.617 572.77 572.917 573.082 573.225 573.345 573.4 573.427 573.472 573.47 573.515 573.525 573.51 573.475 573.435 573.41 573.362 573.322 573.24 573.15 573.12 573.077 573.022 573.047 573.057 573.132 573.157 573.265 573.212 573.16 573.235 573.28 573.357 573.485 573.775 573.925 573.76 573.76 573.805 573.8 573.81 573.835 573.912 573.98 574.007 574.092 574.245 574.372 574.535 574.702 574.82 574.882 575.02 575.16 575.337 575.552 575.86 576.135 576.022 575.807 575.687 575.67 575.705 575.655 575.637 575.887 575.972 576.04 575.98 576.01 576.037 576.1 576.03 576.037 576.11 576.16 576.227 576.372 576.522 576.607 576.847 577.262 577.475 577.502 577.515 577.535 577.53 577.51 577.457 577.485 577.605 577.677 577.757 577.857 578.06 578.207 578.335 578.39 578.505 578.602 578.657 578.605 578.68 578.787 578.765 578.77 578.677 578.555 578.442 578.305 578.232 578.217 578.192 578.175 578.315 578.517 578.655 578.65 578.52 578.277 578.485 578.587 578.542 578.455 578.42 578.28 578.27 578.185 578.145 578.145 578.212 578.23 578.075 578.07 578.08 578.172 578.305 578.415 578.537 578.572 578.447 578.357 578.297 578.322 578.425 578.432 578.47 578.38 578.202 577.995 578.018 578.053 577.91 577.955 577.735 577.635 577.573 577.468 577.23 577.053 576.965 576.895 576.823 576.8 576.675 576.603 576.885 576.895 576.747 576.593 576.278 575.665 575.18 575.173 575.245 574.825 574.44 574.385 574.492 574.57 574.725 575.103 575.27 574.993 574.898 575.368 576.083 576.343 576.46 576.605 576.523 576.275 575.658 575.535 575.598 575.64 575.565 575.415 575.283 575.193 575.62 575.958 576.275 576.58 575.95 575.848 576.033 576.745 577.273 577.428 577.5 577.595 577.693 577.735 577.858 577.903 578.043 578.18 578.313 578.413 578.393 578.408 578.355 578.368 578.338 578.308 578.183 578.168 578.155 578.08 577.965 577.86 577.908 577.81 577.68 577.505 577.255 577 576.99 577.003 577.003 576.93 576.723 576.08 575.47 575.28 574.868 574.593 574.495 574.34 574.178 573.94 573.848 573.75 573.678 573.603 573.573 573.63
-9999 -9999 -9999 -9999 -9999 -9999 -9999 -9999 -9999 -9999 -9999 -9999 -9999 -9999 -9999 -9999 -9999 -9999 -9999 -9999 -9999 -9999 -9999 -9999 -9999 -9999 -9999 -9999 -9999 -9999 -9999 -9999 -9999 -9999 -9999 -9999 -9999 -9999 -9999 -9999 -9999 -9999 -9999 -9999 -9999 -9999 -9999 -9999 -9999 -9999 -9999 -9999 -9999 -9999 -9999 -9999 -9999 -9999 -9999 -9999 -9999 -9999 -9999 -9999 -9999 -9999 -9999 -9999 -9999 -9999 -9999 -9999 -9999 -9999 -9999 -9999 -9999 -9999 -9999 -9999 -9999 -9999 -9999 -9999 -9999 -9999 -9999 -9999 -9999 -9999 -9999 -9999 -9999 -9999 -9999 -9999 -9999 -9999 -9999 -9999 -9999 -9999 -9999 -9999 -9999 -9999 -9999 -9999 563.67 564.04 564.442 -9999 -9999 -9999 -9999 -9999 -9999 -9999 -9999 -9999 -9999 -9999 -9999 -9999 -9999 -9999 -9999 -9999 -9999 -9999 -9999 -9999 -9999 -9999 -9999 571.214 571.432 571.475 571.53 571.662 571.81 571.972 572.08 572.087 572.047 572.072 572.282 572.425 572.43 572.365 572.407 572.57 572.712 572.862 573.005 573.127 573.195 573.29 573.297 573.345 573.352 573.33 573.352 573.325 573.282 573.252 573.227 573.157 573.09 573.03 572.952 572.942 572.83 572.805 572.925 572.947 572.957 573.06 573.095 573.1 573.22 573.305 573.39 573.645 573.827 573.87 573.737 573.705 573.675 573.705 573.78 573.812 573.872 573.897 573.95 574.12 574.265 574.392 574.497 574.702 574.902 575.017 575.092 575.25 575.495 575.687 575.72 575.712 575.745 576.03 575.722 575.625 575.66 575.677 575.735 575.932 575.972 576.007 576.037 576.05 576.06 575.992 575.977 576.065 576.207 576.227 576.31 576.447 576.575 576.775 577.077 577.425 577.482 577.522 577.532 577.597 577.642 577.557 577.552 577.545 577.672 577.78 577.842 577.975 578.142 578.237 578.38 578.457 578.552 578.662 578.74 578.737 578.71 578.812 578.882 578.867 578.877 578.83 578.772 578.73 578.652 578.635 578.567 578.587 578.67 578.792 578.862 578.885 578.832 578.745 578.755 578.74 578.652 578.475 578.352 578.355 578.505 578.47 578.427 578.385 578.312 578.21 578.237 578.205 578.22 578.372 578.46 578.55 578.602 578.66 578.565 578.457 578.397 578.427 578.585 578.65 578.575 578.482 578.3 578.247 578.265 578.208 578.225 578.163 578.043 577.89 577.893 577.727 577.435 577.253 577.173 577.098 577.043 576.995 577.073 577.03 577.1 576.93 576.753 576.63 576.433 575.895 575.413 575.42 575.48 575.02 574.695 574.7 574.795 574.903 575.113 575.528 575.688 575.475 575.055 575.56 576.233 576.535 576.638 576.74 576.718 576.453 575.795 575.665 575.968 576.448 576.633 576.313 575.925 575.69 575.93 576.145 576.323 576.465 575.858 575.87 576.2 576.818 577.423 577.778 577.84 577.873 577.938 577.938 577.965 578.06 578.233 578.415 578.51 578.518 578.513 578.513 578.448 578.583 578.733 578.83 578.888 578.83 578.638 578.568 578.428 578.255 578.198 578.15 578.075 577.908 577.658 577.63 577.613 577.553 577.538 577.398 576.99 576.34 575.9 575.678 575.275 574.98 574.805 574.708 574.515 574.448 574.25 574.128 574.105 574.115 574.155 574.19
-9999 -9999 -9999 -9999 -9999 -9999 -9999 -9999 -9999 -9999 -9999 -9999 -9999 -9999 -9999 -9999 -9999 -9999 -9999 -9999 -9999 -9999 -9999 -9999 -9999 -9999 -9999 -9999 -9999 -9999 -9999 -9999 -9999 -9999 -9999 -9999 -9999 -9999 -9999 -9999 -9999 -9999 -9999 -9999 -9999 -9999 -9999 -9999 -9999 -9999 -9999 -9999 -9999 -9999 -9999 -9999 -9999 -9999 -9999 -9999 -9999 -9999 -9999 -9999 -9999 -9999 -9999 -9999 -9999 -9999 -9999 -9999 -9999 -9999 -9999 -9999 -9999 -9999 -9999 -9999 -9999 -9999 -9999 -9999 -9999 -9999 -9999 -9999 -9999 -9999 -9999 -9999 -9999 -9999 -9999 -9999 -9999 -9999 -9999 -9999 -9999 -9999 -9999 -9999 -9999 -9999 -9999 -9999 -9999 -9999 -9999 -9999 -9999 -9999 -9999 -9999 -9999 -9999 -9999 -9999 -9999 -9999 -9999 -9999 -9999 -9999 -9999 -9999 -9999 -9999 -9999 -9999 -9999 -9999 -9999 -9999 -9999 -9999 -9999 -9999 571.74 571.892 571.967 571.985 572.062 572.22 572.407 572.447 572.32 572.26 572.297 572.36 572.482 572.62 572.8 572.892 572.96 573.03 573.047 573.1 573.13 573.157 573.15 573.165 573.122 573.09 573.035 573.037 572.982 572.917 572.81 572.785 572.715 572.717 572.797 572.81 572.842 572.927 572.917 573.005 573.155 573.397 573.482 573.63 573.607 573.6 573.625 573.61 573.66 573.79 573.862 573.885 573.967 573.887 573.96 574.127 574.307 574.495 574.632 574.787 574.99 575.08 575.182 575.345 575.495 575.667 575.645 575.62 575.677 575.715 575.612 575.63 575.795 575.835 575.787 575.947 575.987 576.065 576.05 576.017 575.937 575.927 575.88 576.115 576.287 576.4 576.39 576.555 576.902 577.147 577.23 577.515 577.547 577.545 577.555 577.667 577.742 577.722 577.7 577.707 577.885 577.922 577.97 578.035 578.152 578.29 578.402 578.52 578.582 578.652 578.66 578.702 578.787 578.845 578.972 579.007 579.01 578.962 578.915 578.89 578.852 578.817 578.697 578.95 578.96 578.985 578.985 578.98 578.975 578.922 578.912 578.795 578.69 578.685 578.49 578.535 578.555 578.625 578.547 578.582 578.542 578.432 578.302 578.225 578.487 578.55 578.592 578.67 578.685 578.685 578.647 578.607 578.58 578.552 578.72 578.772 578.695 578.53 578.307 578.322 578.418 578.403 578.45 578.385 578.308 578.213 578.138 577.968 577.673 577.433 577.35 577.343 577.335 577.435 577.498 577.345 577.145 577.015 576.838 576.668 576.433 575.965 575.575 575.72 575.612 575.158 574.93 575.008 575.138 575.258 575.568 575.895 575.988 575.745 575.375 575.833 576.458 576.66 576.8 576.867 576.87 576.615 575.945 575.928 576.3 576.903 577.093 577.122 576.635 576.145 576.238 576.275 576.295 576.508 576.663 576.363 576.365 576.768 577.185 577.893 578.1 578.108 578.123 578.158 578.12 578.178 578.498 578.743 578.785 578.76 578.693 578.613 578.563 578.735 579.043 579.283 579.395 579.413 579.228 579.035 578.855 578.685 578.598 578.505 578.458 578.27 577.958 578.11 578.105 578.025 577.955 577.703 577.21 576.705 576.35 575.985 575.723 575.358 575.263 575.108 574.835 574.638 574.648 574.68 574.833 574.893 574.88 574.825
-9999 -9999 -9999 -9999 -9999 -9999 -9999 -9999 -9999 -9999 -9999 -9999 -9999 -9999 -9999 -9999 -9999 -9999 -9999 -9999 -9999 -9999 -9999 -9999 -9999 -9999 -9999 -9999 -9999 -9999 -9999 -9999 -9999 -9999 -9999 -9999 -9999 -9999 -9999 -9999 -9999 -9999 -9999 -9999 -9999 -9999 -9999 -9999 -9999 -9999 -9999 -9999 -9999 -9999 -9999 -9999 -9999 -9999 -9999 -9999 -9999 -9999 -9999 -9999 -9999 -9999 -9999 -9999 -9999 -9999 -9999 -9999 -9999 -9999 -9999 -9999 -9999 -9999 -9999 -9999 -9999 -9999 -9999 -9999 -9999 -9999 -9999 -9999 -9999 -9999 -9999 -9999 -9999 -9999 -9999 -9999 -9999 -9999 -9999 -9999 -9999 -9999 -9999 -9999 -9999 -9999 -9999 -9999 -9999 -9999 -9999 -9999 -9999 -9999 -9999 -9999 -9999 -9999 -9999 -9999 -9999 -9999 -9999 -9999 -9999 -9999 -9999 -9999 -9999 -9999 -9999 -9999 -9999 -9999 -9999 -9999 -9999 -9999 -9999 -9999 -9999 -9999 -9999 -9999 572.124 572.285 572.317 572.232 572.14 572.097 572.127 572.175 572.27 572.41 572.547 572.677 572.725 572.802 572.872 572.907 572.99 572.995 573.015 573.025 573.012 572.937 572.882 572.87 572.792 572.715 572.685 572.547 572.545 572.612 572.67 572.742 572.782 572.802 572.887 572.985 573.255 573.492 573.41 573.41 573.457 573.495 573.582 573.67 573.76 573.905 573.89 573.88 573.892 573.92 574.055 574.202 574.37 574.572 574.75 574.872 575.017 575.162 575.225 575.372 575.5 575.575 575.512 575.55 575.612 575.782 575.572 575.557 575.687 575.915 575.837 575.912 576.005 576.05 576.04 575.945 575.91 575.952 575.867 576.175 576.425 576.475 576.53 576.755 577.187 577.237 577.285 577.51 577.557 577.572 577.587 577.665 577.745 577.75 577.75 577.812 577.96 578.02 578.025 578.075 578.15 578.142 578.27 578.44 578.595 578.735 578.84 578.92 579.017 578.895 579.047 579.087 579.082 579.04 578.96 578.96 578.96 578.87 578.815 579.06 579.122 579.125 579.09 579.092 579.082 579.042 578.91 578.945 578.942 578.85 578.675 578.755 578.722 578.622 578.772 578.732 578.74 578.67 578.54 578.437 578.375 578.442 578.547 578.682 578.682 578.635 578.65 578.657 578.63 578.647 578.677 578.75 578.785 578.69 578.42 578.307 578.543 578.673 578.673 578.538 578.415 578.305 578.245 578.203 578 577.857 577.71 577.753 577.883 577.833 577.608 577.455 577.293 577.125 576.925 576.678 576.475 576.028 575.853 575.852 575.71 575.475 575.218 575.265 575.318 575.53 575.97 576.215 576.273 576.048 575.818 576.08 576.258 576.367 576.525 576.798 576.987 576.598 576.03 576.05 576.713 577.225 577.33 577.403 577.155 576.768 576.523 576.455 576.465 576.63 576.815 576.758 576.555 576.723 577.268 578.063 578.363 578.358 578.4 578.365 578.353 578.36 578.518 578.733 578.915 578.88 578.853 578.78 578.795 579.065 579.428 579.68 579.78 579.79 579.693 579.533 579.333 579.135 579.04 578.925 578.87 578.583 578.335 578.618 578.523 578.463 578.265 578.003 577.32 576.978 576.778 576.415 576.135 575.868 575.66 575.408 575.178 575.075 575.193 575.305 575.335 575.528 575.448 575.368
-9999 -9999 -9999 -9999 -9999 -9999 -9999 -9999 -9999 -9999 -9999 -9999 -9999 -9999 -9999 -9999 -9999 -9999 -9999 -9999 -9999 -9999 -9999 -9999 -9999 -9999 -9999 -9999 -9999 -9999 -9999 -9999 -9999 -9999 -9999 -9999 -9999 -9999 -9999 -9999 -9999 -9999 -9999 -9999 -9999 -9999 -9999 -9999 -9999 -9999 -9999 -9999 -9999 -9999 -9999 -9999 -9999 -9999 -9999 -9999 -9999 -9999 -9999 -9999 -9999 -9999 -9999 -9999 -9999 -9999 -9999 -9999 -9999 -9999 -9999 -9999 -9999 -9999 -9999 -9999 -9999 -9999 -9999 -9999 -9999 -9999 -9999 -9999 -9999 -9999 -9999 -9999 -9999 -9999 -9999 -9999 -9999 -9999 -9999 -9999 -9999 -9999 -9999 -9999 -9999 -9999 -9999 -9999 -9999 -9999 -9999 -9999 -9999 -9999 -9999 -9999 -9999 -9999 -9999 -9999 -9999 -9999 -9999 -9999 -9999 -9999 -9999 -9999 -9999 -9999 -9999 -9999 -9999 -9999 -9999 -9999 -9999 -9999 -9999 -9999 -9999 -9999 -9999 -9999 -9999 -9999 -9999 -9999 -9999 572.062 572.06 572.035 572.035 572.14 572.242 572.377 572.505 572.542 572.612 572.662 572.74 572.845 572.885 572.877 572.835 572.825 572.835 572.765 572.68 572.605 572.557 572.472 572.482 572.495 572.607 572.655 572.682 572.747 572.827 573.022 573.257 573.445 573.46 573.46 573.43 573.542 573.642 573.72 573.845 573.932 574.017 574.075 573.97 573.96 574.08 574.262 574.437 574.622 574.767 574.887 575.082 575.205 575.315 575.385 575.492 575.452 575.422 575.475 575.74 576.12 575.5 575.462 575.587 575.892 575.947 575.905 575.915 575.895 575.895 575.915 575.935 575.985 575.98 576.1 576.235 576.335 576.602 576.915 577.135 577.157 577.25 577.4 577.552 577.575 577.597 577.607 577.705 577.77 577.857 577.937 577.995 578.027 578.02 578.147 578.137 578.052 578.307 578.512 578.687 578.8 578.917 578.987 579.07 579.085 579.065 579.15 579.167 579.137 579.085 579.022 579.055 578.982 578.972 579.167 579.18 579.185 579.222 579.202 579.13 579.047 579.15 579.11 579.087 579.01 578.88 578.895 578.87 578.812 578.892 578.842 578.872 578.79 578.69 578.607 578.685 578.697 578.632 578.545 578.555 578.697 578.735 578.672 578.692 578.78 578.842 578.872 578.94 578.847 578.722 578.732 578.843 578.92 578.838 578.763 578.612 578.45 578.298 578.355 578.298 578.235 578.18 578.102 578.06 577.83 577.56 577.395 577.298 577.13 576.898 576.703 576.463 576.163 575.997 575.785 575.645 575.47 575.49 575.45 575.505 575.655 576.005 576.27 576.14 576.033 575.98 576.163 576.385 576.495 576.568 576.568 576.635 576.335 576.14 576.37 577.078 577.487 577.565 577.598 577.613 577.29 576.748 576.538 576.658 576.885 577.135 577.13 576.948 576.863 577.215 577.833 578.5 578.668 578.718 578.638 578.525 578.498 578.518 578.703 578.928 578.978 578.928 578.898 579.05 579.413 579.745 579.945 580.068 580.108 580.115 580.01 579.823 579.623 579.443 579.325 579.17 578.853 578.8 578.968 578.865 578.733 578.565 578.073 577.408 577.21 577.083 576.783 576.505 576.27 575.9 575.625 575.54 575.66 575.76 575.91 576.045 576.135 575.933 575.873
-9999 -9999 -9999 -9999 -9999 -9999 -9999 -9999 -9999 -9999 -9999 -9999 -9999 -9999 -9999 -9999 -9999 -9999 -9999 -9999 -9999 -9999 -9999 -9999 -9999 -9999 -9999 -9999 -9999 -9999 -9999 -9999 -9999 -9999 -9999 -9999 -9999 -9999 -9999 -9999 -9999 -9999 -9999 -9999 -9999 -9999 -9999 -9999 -9999 -9999 -9999 -9999 -9999 -9999 -9999 -9999 -9999 -9999 -9999 -9999 -9999 -9999 -9999 -9999 -9999 -9999 -9999 -9999 -9999 -9999 -9999 -9999 -9999 -9999 -9999 -9999 -9999 -9999 -9999 -9999 -9999 -9999 -9999 -9999 -9999 -9999 -9999 -9999 -9999 -9999 -9999 -9999 -9999 -9999 -9999 -9999 -9999 -9999 -9999 -9999 -9999 -9999 -9999 -9999 -9999 -9999 -9999 -9999 -9999 -9999 -9999 -9999 -9999 -9999 -9999 -9999 -9999 -9999 -9999 -9999 -9999 -9999 -9999 -9999 -9999 -9999 -9999 -9999 -9999 -9999 -9999 -9999 -9999 -9999 -9999 -9999 -9999 -9999 -9999 -9999 -9999 -9999 -9999 -9999 -9999 -9999 -9999 -9999 -9999 -9999 -9999 -9999 571.967 572.002 572.08 572.102 572.177 572.325 572.435 572.43 572.515 572.597 572.632 572.655 572.71 572.727 572.692 572.647 572.585 572.575 572.532 572.467 572.47 572.502 572.56 572.625 572.67 572.707 572.79 573.005 573.19 573.4 573.46 573.477 573.46 573.522 573.732 573.847 574.007 574.035 574.167 574.327 574.162 574.04 574.135 574.292 574.447 574.592 574.747 574.905 575.102 575.312 575.347 575.217 575.275 575.36 575.372 575.54 575.782 575.912 575.487 575.427 575.567 575.77 576.035 576.165 576.012 575.932 576.005 575.927 575.932 575.955 576.03 576.105 576.155 576.2 576.372 576.627 576.697 576.825 577.157 577.282 577.325 577.432 577.582 577.66 577.755 577.79 577.892 577.97 578.005 577.932 577.83 577.957 578.035 578.17 578.245 578.435 578.725 578.862 578.97 579.042 579.125 579.142 579.045 579.182 579.22 579.187 579.182 579.165 579.155 579.182 579.182 579.235 579.267 579.285 579.322 579.145 579.18 579.335 579.317 579.255 579.21 579.16 579.14 579.115 579.095 579.035 578.985 578.947 578.962 578.96 578.885 578.76 578.802 578.762 578.715 578.76 578.782 578.695 578.682 578.837 578.96 579.052 578.975 578.942 579 578.915 578.762 579.01 579.013 578.948 579.008 578.94 578.68 578.453 578.487 578.655 578.535 578.372 578.268 578.183 578.075 578.01 577.895 577.608 577.398 577.155 576.915 576.678 576.553 576.35 576.088 575.788 575.543 575.545 575.593 575.605 575.575 575.743 575.94 576.062 575.99 576.133 576.388 576.635 576.885 577.028 577.003 576.848 576.575 576.47 576.58 576.983 577.495 577.728 577.755 577.803 577.825 577.448 576.855 576.603 576.713 577.19 577.485 577.35 576.99 576.95 577.215 577.593 578.525 578.845 578.903 578.908 578.793 578.658 578.545 578.54 578.803 578.955 578.98 579.023 579.265 579.705 580.013 580.235 580.388 580.455 580.448 580.37 580.23 580.108 579.9 579.745 579.573 579.403 579.375 579.325 579.198 579.035 578.705 578.123 577.6 577.435 577.273 577.053 576.848 576.498 576.14 575.863 575.883 576.118 576.263 576.57 576.598 576.518 576.418 576.355
-9999 -9999 -9999 -9999 -9999 -9999 -9999 -9999 -9999 -9999 -9999 -9999 -9999 -9999 -9999 -9999 -9999 -9999 -9999 -9999 -9999 -9999 -9999 -9999 -9999 -9999 -9999 -9999 -9999 -9999 -9999 -9999 -9999 -9999 -9999 -9999 -9999 -9999 -9999 -9999 -9999 -9999 -9999 -9999 -9999 -9999 -9999 -9999 -9999 -9999 -9999 -9999 -9999 -9999 -9999 -9999 -9999 -9999 -9999 -9999 -9999 -9999 -9999 -9999 -9999 -9999 -9999 -9999 -9999 -9999 -9999 -9999 -9999 -9999 -9999 -9999 -9999 -9999 -9999 -9999 -9999 -9999 -9999 -9999 -9999 -9999 -9999 -9999 -9999 -9999 -9999 -9999 -9999 -9999 -9999 -9999 -9999 -9999 -9999 -9999 -9999 -9999 -9999 -9999 -9999 -9999 -9999 -9999 -9999 -9999 -9999 -9999 -9999 -9999 -9999 -9999 -9999 -9999 -9999 -9999 -9999 -9999 -9999 -9999 -9999 -9999 -9999 -9999 -9999 -9999 -9999 -9999 -9999 -9999 -9999 -9999 -9999 -9999 -9999 -9999 -9999 -9999 -9999 -9999 -9999 -9999 -9999 -9999 -9999 -9999 -9999 -9999 -9999 -9999 -9999 -9999 572.032 572.14 572.157 572.095 572.245 572.342 572.422 572.507 572.53 572.515 572.55 572.532 572.48 572.495 572.497 572.41 572.422 572.462 572.552 572.577 572.582 572.662 572.805 573.03 573.155 573.35 573.492 573.492 573.58 573.662 573.747 573.885 573.92 574.032 574.267 574.312 574.13 574.11 574.207 574.357 574.475 574.647 574.755 574.875 574.975 575.092 575.115 575.015 575.137 575.317 575.545 575.637 575.757 575.647 575.472 575.462 575.48 575.727 576.037 576.152 576.167 576.292 576.345 576.265 576.095 575.915 576.112 576.217 576.272 576.207 576.317 576.482 576.612 576.877 577.172 577.287 577.335 577.395 577.472 577.595 577.675 577.697 577.702 577.827 577.912 578.057 578.06 578.175 578.212 578.215 578.255 578.392 578.587 578.902 579.012 579.145 579.222 579.257 579.232 579.18 579.26 579.245 579.227 579.24 579.315 579.305 579.337 579.36 579.402 579.347 579.26 579.377 579.45 579.46 579.452 579.41 579.362 579.327 579.305 579.222 579.167 578.92 579.115 579.085 579.035 579.105 579.015 578.935 578.965 578.87 578.857 578.912 579.107 579.072 579.03 578.932 578.942 579.137 579.192 579.145 579.07 578.607 578.845 579.187 579.193 579.145 579.185 578.945 578.588 578.56 578.803 578.742 578.495 578.393 578.32 578.175 578.168 578.11 578.01 577.825 577.603 577.305 577.015 576.763 576.598 576.47 576.225 575.923 575.678 575.555 575.523 575.565 575.648 575.763 575.908 576.09 576.353 576.61 576.988 577.205 577.375 577.453 577.403 577.178 576.69 576.768 577.1 577.593 577.828 577.92 577.98 577.99 577.983 577.673 577.013 576.713 576.845 577.335 577.565 577.473 577.05 577.045 577.215 577.615 578.48 579.015 579.128 579.078 578.998 578.853 578.725 578.685 578.745 578.87 579.02 579.148 579.355 579.838 580.243 580.513 580.688 580.76 580.723 580.715 580.59 580.44 580.23 579.92 579.718 579.698 579.675 579.575 579.468 579.315 578.885 578.308 577.933 577.613 577.498 577.308 577.028 576.683 576.418 576.305 576.453 576.698 576.913 577.013 576.905 576.798 576.793 576.745
-9999 -9999 -9999 -9999 -9999 -9999 -9999 -9999 -9999 -9999 -9999 -9999 -9999 -9999 -9999 -9999 -9999 -9999 -9999 -9999 -9999 -9999 -9999 -9999 -9999 -9999 -9999 -9999 -9999 -9999 -9999 -9999 -9999 -9999 -9999 -9999 -9999 -9999 -9999 -9999 -9999 -9999 -9999 -9999 -9999 -9999 -9999 -9999 -9999 -9999 -9999 -9999 -9999 -9999 -9999 -9999 -9999 -9999 -9999 -9999 -9999 -9999 -9999 -9999 -9999 -9999 -9999 -9999 -9999 -9999 -9999 -9999 -9999 -9999 -9999 -9999 -9999 -9999 -9999 -9999 -9999 -9999 -9999 -9999 -9999 -9999 -9999 -9999 -9999 -9999 -9999 -9999 -9999 -9999 -9999 -9999 -9999 -9999 -9999 -9999 -9999 -9999 -9999 -9999 -9999 -9999 -9999 -9999 -9999 -9999 -9999 -9999 -9999 -9999 -9999 -9999 -9999 -9999 -9999 -9999 -9999 -9999 -9999 -9999 -9999 -9999 -9999 -9999 -9999 -9999 -9999 -9999 -9999 -9999 -9999 -9999 -9999 -9999 -9999 -9999 -9999 -9999 -9999 -9999 -9999 -9999 -9999 -9999 -9999 -9999 -9999 -9999 -9999 -9999 -9999 -9999 -9999 -9999 571.937 571.862 572.022 572.115 572.192 572.222 572.195 572.22 572.31 572.362 572.162 572.17 572.262 572.347 572.357 572.417 572.52 572.535 572.577 572.655 572.8 573.102 573.28 573.455 573.595 573.657 573.577 573.715 573.785 573.865 573.835 574.007 574.28 574.255 574.095 574.102 574.217 574.412 574.6 574.717 574.78 574.897 574.96 574.955 574.975 575.092 575.21 575.362 575.49 575.592 575.665 575.547 575.455 575.565 575.52 575.692 576.01 576.145 576.2 576.287 576.377 576.432 576.287 575.957 576.195 576.327 576.355 576.355 576.415 576.632 576.915 577.187 577.292 577.31 577.297 577.415 577.377 577.432 577.61 577.667 577.937 578.045 578.035 578.132 578.26 578.285 578.29 578.28 578.265 578.465 578.815 579.077 579.11 579.237 579.31 579.355 579.345 579.215 579.307 579.297 579.332 579.335 579.387 579.397 579.417 579.465 579.307 579.312 579.49 579.517 579.567 579.552 579.575 579.577 579.56 579.5 579.38 579.22 579.064 578.875 579.045 579.12 579.124 579.188 579.182 579.052 578.998 579.012 579.092 579.202 579.31 579.295 579.255 579.2 579.132 579.117 579.172 579.177 579.165 579.212 579.237 579.332 579.328 579.3 579.283 579.125 578.988 579.108 578.95 578.6 578.482 578.418 578.305 578.265 578.153 578.058 577.93 577.855 577.773 577.565 577.253 576.933 576.73 576.568 576.41 576.32 575.89 575.72 575.638 575.623 575.715 575.938 576.08 576.295 576.665 577.148 577.383 577.495 577.6 577.663 577.678 577.59 577.395 577.518 577.675 577.913 578.063 578.138 578.188 578.19 578.163 577.885 577.395 576.97 576.983 577.35 577.825 578.183 577.423 577.218 577.215 577.513 577.995 578.895 579.258 579.265 579.215 579.105 578.955 578.85 578.858 578.82 578.86 579.04 579.345 579.798 580.345 580.718 580.873 580.968 581.013 580.955 580.833 580.555 580.17 579.925 579.858 579.925 579.945 579.818 579.715 579.538 579.005 578.408 578.073 577.878 577.893 577.743 577.398 576.985 576.703 576.77 576.96 577.168 577.513 577.358 577.233 577.175 577.15 577.085
-9999 -9999 -9999 -9999 -9999 -9999 -9999 -9999 -9999 -9999 -9999 -9999 -9999 -9999 -9999 -9999 -9999 -9999 -9999 -9999 -9999 -9999 -9999 -9999 -9999 -9999 -9999 -9999 -9999 -9999 -9999 -9999 -9999 -9999 -9999 -9999 -9999 -9999 -9999 -9999 -9999 -9999 -9999 -9999 -9999 -9999 -9999 -9999 -9999 -9999 -9999 -9999 -9999 -9999 -9999 -9999 -9999 -9999 -9999 -9999 -9999 -9999 -9999 -9999 -9999 -9999 -9999 -9999 -9999 -9999 -9999 -9999 -9999 -9999 -9999 -9999 -9999 -9999 -9999 -9999 -9999 -9999 -9999 -9999 -9999 -9999 -9999 -9999 -9999 -9999 -9999 -9999 -9999 -9999 -9999 -9999 -9999 -9999 -9999 -9999 -9999 -9999 -9999 -9999 -9999 -9999 -9999 -9999 -9999 -9999 -9999 -9999 -9999 -9999 -9999 -9999 -9999 -9999 -9999 -9999 -9999 -9999 -9999 -9999 -9999 -9999 -9999 -9999 -9999 -9999 -9999 -9999 -9999 -9999 -9999 -9999 -9999 -9999 -9999 -9999 -9999 -9999 -9999 -9999 -9999 -9999 -9999 -9999 -9999 -9999 -9999 -9999 -9999 -9999 -9999 -9999 -9999 -9999 -9999 -9999 -9999 571.892 571.91 571.87 571.902 571.972 572.102 572.24 572.007 571.995 572.115 572.23 572.272 572.41 572.48 572.495 572.552 572.65 572.765 573.02 573.215 573.45 573.632 573.692 573.702 573.747 573.762 573.772 573.767 573.84 573.997 574.047 574.002 574.072 574.255 574.492 574.645 574.76 574.897 575.01 574.997 574.895 575 575.175 575.33 575.367 575.442 575.492 575.93 575.695 575.465 575.592 575.622 575.797 575.95 576.08 576.22 576.38 576.37 576.265 576.125 576.117 576.255 576.31 576.36 576.375 576.632 577.025 577.46 577.462 577.4 577.312 577.242 577.202 577.337 577.677 577.897 577.917 577.887 578.052 578.175 578.205 578.28 578.302 578.317 578.262 578.367 578.64 579.015 579.155 579.212 579.29 579.32 579.352 579.372 579.4 579.407 579.36 579.345 579.392 579.455 579.512 579.49 579.427 579.5 579.57 579.592 579.565 579.652 579.687 579.695 579.72 579.707 579.677 579.555 579.397 579.145 578.897 579.08 579.144 579.179 579.235 579.297 579.258 579.1 579.094 579.277 579.445 579.516 579.477 579.344 579.259 579.188 579.329 579.35 579.164 578.902 579.142 579.35 579.435 579.408 579.39 579.278 579.227 579.238 579.288 579.028 578.708 578.598 578.485 578.345 578.25 578.173 578.1 577.908 577.753 577.76 577.565 577.26 576.99 576.808 576.552 576.273 576.073 576.008 575.938 575.84 575.895 576.005 576.333 576.44 576.523 576.815 577.43 577.618 577.678 577.778 577.855 577.86 577.843 577.863 577.955 578.08 578.19 578.273 578.305 578.335 578.378 578.395 578.213 577.78 577.218 577.113 577.495 577.958 578.48 577.813 577.333 577.24 577.505 578.003 578.788 579.305 579.423 579.415 579.368 579.295 579.175 579.083 578.973 578.995 579.143 579.43 579.763 580.495 580.925 581.093 581.16 581.178 581.125 580.983 580.505 579.998 579.905 580.018 580.235 580.193 580.048 579.898 579.523 578.888 578.46 578.303 578.353 578.305 578.193 577.695 577.308 577.135 577.303 577.508 577.648 577.775 577.65 577.62 577.595 577.53 577.418
-9999 -9999 -9999 -9999 -9999 -9999 -9999 -9999 -9999 -9999 -9999 -9999 -9999 -9999 -9999 -9999 -9999 -9999 -9999 -9999 -9999 -9999 -9999 -9999 -9999 -9999 -9999 -9999 -9999 -9999 -9999 -9999 -9999 -9999 -9999 -9999 -9999 -9999 -9999 -9999 -9999 -9999 -9999 -9999 -9999 -9999 -9999 -9999 -9999 -9999 -9999 -9999 -9999 -9999 -9999 -9999 -9999 -9999 -9999 -9999 -9999 -9999 -9999 -9999 -9999 -9999 -9999 -9999 -9999 -9999 -9999 -9999 -9999 -9999 -9999 -9999 -9999 -9999 -9999 -9999 -9999 -9999 -9999 -9999 -9999 -9999 -9999 -9999 -9999 -9999 -9999 -9999 -9999 -9999 -9999 -9999 -9999 -9999 -9999 -9999 -9999 -9999 -9999 -9999 -9999 -9999 -9999 -9999 -9999 -9999 -9999 -9999 -9999 -9999 -9999 -9999 -9999 -9999 -9999 -9999 -9999 -9999 -9999 -9999 -9999 -9999 -9999 -9999 -9999 -9999 -9999 -9999 -9999 -9999 -9999 -9999 -9999 -9999 -9999 -9999 -9999 -9999 -9999 -9999 -9999 -9999 -9999 -9999 -9999 -9999 -9999 -9999 -9999 -9999 -9999 -9999 -9999 -9999 -9999 -9999 -9999 -9999 -9999 571.607 571.655 571.8 571.967 572.042 571.98 571.985 572.027 572.112 572.212 572.337 572.437 572.47 572.54 572.715 572.81 573.047 573.31 573.412 573.492 573.62 573.635 573.637 573.742 573.71 573.745 573.76 573.857 573.825 573.927 574.09 574.312 574.582 574.77 574.932 575.045 575.075 574.985 574.905 575.035 575.227 575.355 575.367 575.345 575.31 576 575.685 575.515 575.57 575.712 575.867 575.85 575.887 576.045 576.142 576.135 576.015 576.095 576.257 576.347 576.335 576.375 576.435 576.62 576.982 577.46 577.475 577.36 577.147 577.137 577.29 577.41 577.62 577.99 578.142 578.12 578.255 578.37 578.385 578.335 578.277 578.33 578.332 578.64 578.957 579.13 579.2 579.257 579.3 579.362 579.432 579.44 579.38 579.362 579.45 579.442 579.44 579.46 579.422 579.535 579.605 579.657 579.725 579.687 579.76 579.822 579.815 579.867 579.862 579.89 579.907 579.835 579.615 579.224 578.985 579.146 579.174 579.165 579.222 579.247 579.25 579.174 579.224 579.435 579.6 579.657 579.626 579.504 579.359 579.227 579.246 579.313 579.28 579.282 579.313 579.424 579.487 579.485 579.4 579.323 579.418 579.408 579.355 579.25 579.03 578.873 578.648 578.375 578.268 578.14 578.053 577.925 577.753 577.55 577.345 577.105 577.035 576.908 576.54 576.198 576.075 576.103 576.128 576.107 576.223 576.435 576.798 577.025 576.903 576.943 577.415 577.65 577.737 577.835 577.91 578.068 578.13 578.158 578.215 578.303 578.395 578.478 578.52 578.573 578.625 578.605 578.438 578.123 577.433 577.285 577.58 578.198 578.678 578.243 577.798 577.455 577.535 577.828 578.23 579.115 579.568 579.585 579.583 579.508 579.475 579.47 579.503 579.725 579.76 579.798 580.228 580.808 581.083 581.193 581.245 581.228 581.195 581.008 580.33 580 579.983 580.233 580.475 580.415 580.208 580.05 579.733 578.983 578.64 578.628 578.963 578.938 578.505 578.008 577.618 577.615 577.818 578.105 578.158 578.048 577.968 577.97 577.913 577.835 577.73
-9999 -9999 -9999 -9999 -9999 -9999 -9999 -9999 -9999 -9999 -9999 -9999 -9999 -9999 -9999 -9999 -9999 -9999 -9999 -9999 -9999 -9999 -9999 -9999 -9999 -9999 -9999 -9999 -9999 -9999 -9999 -9999 -9999 -9999 -9999 -9999 -9999 -9999 -9999 -9999 -9999 -9999 -9999 -9999 -9999 -9999 -9999 -9999 -9999 -9999 -9999 -9999 -9999 -9999 -9999 -9999 -9999 -9999 -9999 -9999 -9999 -9999 -9999 -9999 -9999 -9999 -9999 -9999 -9999 -9999 -9999 -9999 -9999 -9999 -9999 -9999 -9999 -9999 -9999 -9999 -9999 -9999 -9999 -9999 -9999 -9999 -9999 -9999 -9999 -9999 -9999 -9999 -9999 -9999 -9999 -9999 -9999 -9999 -9999 -9999 -9999 -9999 -9999 -9999 -9999 -9999 -9999 -9999 -9999 -9999 -9999 -9999 -9999 -9999 -9999 -9999 -9999 -9999 -9999 -9999 -9999 -9999 -9999 -9999 -9999 -9999 -9999 -9999 -9999 -9999 -9999 -9999 -9999 -9999 -9999 -9999 -9999 -9999 -9999 -9999 -9999 -9999 -9999 -9999 -9999 -9999 -9999 -9999 -9999 -9999 -9999 -9999 -9999 -9999 -9999 -9999 -9999 -9999 -9999 -9999 -9999 -9999 -9999 -9999 -9999 -9999 571.671 571.74 571.825 571.902 572.002 572.072 572.16 572.282 572.4 572.502 572.55 572.712 573.04 573.232 573.35 573.465 573.522 573.537 573.627 573.655 573.727 573.677 573.66 573.71 573.762 573.847 573.917 574.1 574.377 574.712 575.06 575.2 575.277 575.19 575.025 574.892 574.9 575.09 575.28 575.285 575.197 575.185 575.957 575.537 575.42 575.555 575.757 575.792 575.67 575.707 575.89 576.052 576.03 575.967 575.982 576.357 576.365 576.36 576.375 576.46 576.697 576.967 577.21 577.34 577.037 577.067 577.09 577.29 577.457 577.647 577.96 578.145 578.27 578.412 578.425 578.462 578.48 578.327 578.357 578.535 578.935 579.142 579.197 579.317 579.365 579.387 579.46 579.495 579.495 579.487 579.507 579.517 579.54 579.592 579.467 579.54 579.612 579.655 579.697 579.75 579.847 579.9 579.927 579.897 579.825 579.792 579.747 579.795 579.852 579.78 579.288 579.199 579.206 579.206 579.211 579.203 579.219 579.195 579.286 579.371 579.528 579.647 579.689 579.655 579.566 579.399 579.277 579.168 579.066 579.217 579.341 579.462 579.486 579.512 579.438 579.38 579.348 579.43 579.475 579.405 579.34 579.355 579.178 578.723 578.42 578.333 578.185 578.073 577.963 577.805 577.585 577.338 577.125 576.978 576.85 576.575 576.268 576.228 576.213 576.283 576.333 576.598 576.988 577.3 577.558 577.438 577.375 577.478 577.803 578.023 578.17 578.3 578.425 578.42 578.395 578.353 578.455 578.558 578.665 578.727 578.737 578.78 578.76 578.58 578.328 577.883 577.405 577.658 578.215 578.843 578.73 578.223 577.858 577.705 577.798 578.195 578.96 579.573 579.685 579.71 579.705 579.675 579.685 579.89 580.245 580.475 580.553 580.768 580.98 581.085 581.135 581.175 580.958 580.613 580.445 580.135 580.038 580.07 580.405 580.703 580.615 580.433 580.178 579.835 579.2 578.838 579.205 579.528 579.01 578.64 578.243 578.015 578.123 578.38 578.608 578.51 578.34 578.303 578.305 578.238 578.163 578.043
-9999 -9999 -9999 -9999 -9999 -9999 -9999 -9999 -9999 -9999 -9999 -9999 -9999 -9999 -9999 -9999 -9999 -9999 -9999 -9999 -9999 -9999 -9999 -9999 -9999 -9999 -9999 -9999 -9999 -9999 -9999 -9999 -9999 -9999 -9999 -9999 -9999 -9999 -9999 -9999 -9999 -9999 -9999 -9999 -9999 -9999 -9999 -9999 -9999 -9999 -9999 -9999 -9999 -9999 -9999 -9999 -9999 -9999 -9999 -9999 -9999 -9999 -9999 -9999 -9999 -9999 -9999 -9999 -9999 -9999 -9999 -9999 -9999 -9999 -9999 -9999 -9999 -9999 -9999 -9999 -9999 -9999 -9999 -9999 -9999 -9999 -9999 -9999 -9999 -9999 -9999 -9999 -9999 -9999 -9999 -9999 -9999 -9999 -9999 -9999 -9999 -9999 -9999 -9999 -9999 -9999 -9999 -9999 -9999 -9999 -9999 -9999 -9999 -9999 -9999 -9999 -9999 -9999 -9999 -9999 -9999 -9999 -9999 -9999 -9999 -9999 -9999 -9999 -9999 -9999 -9999 -9999 -9999 -9999 -9999 -9999 -9999 -9999 -9999 -9999 -9999 -9999 -9999 -9999 -9999 -9999 -9999 -9999 -9999 -9999 -9999 -9999 -9999 -9999 -9999 -9999 -9999 -9999 -9999 -9999 -9999 -9999 -9999 -9999 -9999 -9999 -9999 -9999 -9999 571.721 571.85 572.01 572.19 572.33 572.357 572.482 572.567 572.747 572.957 573.292 573.387 573.367 573.435 573.452 573.5 573.495 573.62 573.64 573.637 573.757 573.767 573.905 574.007 574.22 574.527 574.945 575.07 575.105 575.12 575.152 575.01 574.882 574.832 574.907 575.062 575.15 575.092 575.065 575.12 575.567 575.415 575.552 575.647 575.62 575.58 575.62 575.885 576.022 576.025 575.912 575.917 576.23 576.37 576.405 576.562 576.755 576.91 577.032 577.037 576.9 577.147 576.98 576.895 577.15 577.537 577.675 577.78 577.955 578.255 578.472 578.502 578.547 578.502 578.4 578.43 578.707 579.14 579.277 579.295 579.397 579.44 579.48 579.512 579.547 579.56 579.567 579.562 579.51 579.462 579.522 579.677 579.677 579.692 579.765 579.78 579.765 579.725 579.77 579.792 579.767 579.705 579.682 579.675 579.71 579.655 579.492 579.29 579.229 579.243 579.224 579.178 579.181 579.255 579.288 579.301 579.448 579.537 579.653 579.712 579.742 579.588 579.368 579.289 579.199 579.282 579.313 579.325 579.382 579.381 579.372 579.366 579.35 579.296 579.305 579.45 579.415 579.37 579.315 578.928 578.6 578.44 578.363 578.3 578.163 577.98 577.768 577.525 577.3 577.19 577.008 576.8 576.785 576.497 576.398 576.47 576.45 576.63 577.12 577.503 577.803 577.825 577.833 577.77 577.838 578.253 578.465 578.575 578.643 578.678 578.673 578.668 578.57 578.617 578.723 578.828 578.895 578.928 578.938 578.933 578.845 578.563 578.08 577.535 577.62 578.428 578.918 579.018 578.858 578.23 577.883 577.8 578.208 578.66 579.408 579.743 579.775 579.805 579.803 579.765 579.995 580.385 580.663 580.78 580.735 580.54 580.508 580.663 580.688 580.508 580.218 580.128 580.008 579.993 580.148 580.44 580.858 580.69 580.358 580.025 579.675 579.305 579.158 579.408 579.58 579.088 578.773 578.545 578.48 578.63 578.953 578.968 578.83 578.718 578.633 578.613 578.55 578.495 578.38
-9999 -9999 -9999 -9999 -9999 -9999 -9999 -9999 -9999 -9999 -9999 -9999 -9999 -9999 -9999 -9999 -9999 -9999 -9999 -9999 -9999 -9999 -9999 -9999 -9999 -9999 -9999 -9999 -9999 -9999 -9999 -9999 -9999 -9999 -9999 -9999 -9999 -9999 -9999 -9999 -9999 -9999 -9999 -9999 -9999 -9999 -9999 -9999 -9999 -9999 -9999 -9999 -9999 -9999 -9999 -9999 -9999 -9999 -9999 -9999 -9999 -9999 -9999 -9999 -9999 -9999 -9999 -9999 -9999 -9999 -9999 -9999 -9999 -9999 -9999 -9999 -9999 -9999 -9999 -9999 -9999 -9999 -9999 -9999 -9999 -9999 -9999 -9999 -9999 -9999 -9999 -9999 -9999 -9999 -9999 -9999 -9999 -9999 -9999 -9999 -9999 -9999 -9999 -9999 -9999 -9999 -9999 -9999 -9999 -9999 -9999 -9999 -9999 -9999 -9999 -9999 -9999 -9999 -9999 -9999 -9999 -9999 -9999 -9999 -9999 -9999 -9999 -9999 -9999 -9999 -9999 -9999 -9999 -9999 -9999 -9999 -9999 -9999 -9999 -9999 -9999 -9999 -9999 -9999 -9999 -9999 -9999 -9999 -9999 -9999 -9999 -9999 -9999 -9999 -9999 -9999 -9999 -9999 -9999 -9999 -9999 -9999 -9999 -9999 -9999 -9999 -9999 -9999 -9999 -9999 -9999 -9999 -9999 572.267 572.33 572.417 572.655 572.8 573 573.18 573.335 573.42 573.427 573.435 573.427 573.422 573.492 573.562 573.622 573.705 573.772 573.927 574.115 574.385 574.765 574.932 574.922 574.977 575.06 575.115 575.035 574.967 574.802 574.805 574.935 575.072 575.012 574.997 575.037 575.232 575.727 575.537 575.497 575.59 575.562 575.555 575.712 575.81 575.845 575.947 576.057 576.182 576.297 576.402 576.537 576.792 576.995 576.96 576.87 577.212 577.065 576.835 576.94 577.215 577.602 577.737 577.802 577.922 578.212 578.432 578.502 578.555 578.545 578.437 578.462 578.617 578.785 579.072 579.285 579.432 579.487 579.54 579.58 579.58 579.627 579.67 579.53 579.452 579.655 579.777 579.802 579.777 579.765 579.942 579.852 579.912 579.887 579.742 579.745 579.727 579.712 579.71 579.755 579.74 579.59 579.442 579.272 579.306 579.306 579.351 579.331 579.196 579.253 579.482 579.487 579.526 579.62 579.674 579.743 579.774 579.543 579.376 579.266 579.306 579.351 579.472 579.417 579.432 579.541 579.472 579.523 579.483 579.31 579.243 579.319 579.3 579.195 578.938 578.76 578.62 578.548 578.455 578.36 578.23 578.005 577.788 577.55 577.33 577.237 577.083 576.9 576.99 576.73 576.578 576.598 576.698 577.028 577.545 577.888 578.068 578.083 578.065 578.073 578.273 578.643 578.798 578.88 578.94 578.985 579.015 579.005 578.86 578.708 578.86 579.033 579.075 579.108 579.128 579.12 579.065 578.745 578.29 577.798 577.63 577.888 578.56 579.133 579.225 578.688 578.143 577.943 578.118 578.505 579.068 579.675 579.843 579.9 579.94 579.945 580.19 580.465 580.625 580.583 580.195 579.895 580.075 580.433 580.513 580.293 580.063 580.058 579.965 580.015 580.193 580.42 580.775 580.463 580.005 579.668 579.445 579.43 579.63 579.848 579.45 579.135 578.888 578.81 578.933 579.2 579.363 579.265 579.135 579.028 578.898 578.853 578.813 578.738 578.685
-9999 -9999 -9999 -9999 -9999 -9999 -9999 -9999 -9999 -9999 -9999 -9999 -9999 -9999 -9999 -9999 -9999 -9999 -9999 -9999 -9999 -9999 -9999 -9999 -9999 -9999 -9999 -9999 -9999 -9999 -9999 -9999 -9999 -9999 -9999 -9999 -9999 -9999 -9999 -9999 -9999 -9999 -9999 -9999 -9999 -9999 -9999 -9999 -9999 -9999 -9999 -9999 -9999 -9999 -9999 -9999 -9999 -9999 -9999 -9999 -9999 -9999 -9999 -9999 -9999 -9999 -9999 -9999 -9999 -9999 -9999 -9999 -9999 -9999 -9999 -9999 -9999 -9999 -9999 -9999 -9999 -9999 -9999 -9999 -9999 -9999 -9999 -9999 -9999 -9999 -9999 -9999 -9999 -9999 -9999 -9999 -9999 -9999 -9999 -9999 -9999 -9999 -9999 -9999 -9999 -9999 -9999 -9999 -9999 -9999 -9999 -9999 -9999 -9999 -9999 -9999 -9999 -9999 -9999 -9999 -9999 -9999 -9999 -9999 -9999 -9999 -9999 -9999 -9999 -9999 -9999 -9999 -9999 -9999 -9999 -9999 -9999 -9999 -9999 -9999 -9999 -9999 -9999 -9999 -9999 -9999 -9999 -9999 -9999 -9999 -9999 -9999 -9999 -9999 -9999 -9999 -9999 -9999 -9999 -9999 -9999 -9999 -9999 -9999 -9999 -9999 -9999 -9999 -9999 -9999 -9999 -9999 -9999 -9999 -9999 -9999 -9999 -9999 572.974 573.102 573.26 573.295 573.375 573.377 573.342 573.392 573.44 573.462 573.527 573.625 573.81 573.962 574.097 574.505 574.867 574.887 574.867 574.88 574.952 575.015 574.975 574.892 574.872 574.842 574.817 574.88 574.93 574.942 575.007 575.112 575.33 575.725 575.6 575.502 575.525 575.542 575.597 575.64 575.747 575.92 576.067 576.1 576.195 576.34 576.482 576.565 576.575 576.585 576.892 577.097 576.867 576.925 577.31 577.595 577.635 577.675 577.74 577.945 578.26 578.557 578.662 578.675 578.715 578.677 578.605 578.692 578.782 578.945 579.17 579.46 579.605 579.63 579.635 579.727 579.64 579.512 579.542 579.665 579.812 579.942 579.907 579.87 579.862 579.92 579.89 579.922 579.867 579.807 579.687 579.685 579.682 579.66 579.682 579.662 579.642 579.355 579.265 579.503 579.587 579.623 579.525 579.301 579.301 579.571 579.641 579.595 579.598 579.644 579.713 579.706 579.543 579.323 579.272 579.358 579.363 579.553 579.552 579.628 579.741 579.757 579.74 579.618 579.382 579.264 579.328 579.242 579.065 578.91 578.73 578.633 578.555 578.483 578.365 578.22 578.015 577.805 577.518 577.345 577.275 577.125 576.963 576.84 576.737 576.742 576.798 576.913 577.295 577.923 578.268 578.32 578.375 578.403 578.588 578.862 579.183 579.223 579.243 579.275 579.278 579.338 579.362 579.247 579.105 579.155 579.22 579.242 579.273 579.29 579.315 579.247 578.973 578.613 578.138 577.72 577.88 578.695 579.22 579.315 579.073 578.523 578.14 578.035 578.22 578.57 579.023 579.733 579.923 580.018 580.13 580.293 580.415 580.465 580.303 579.79 579.548 579.808 580.235 580.338 580.138 580.04 580.015 579.953 579.993 580.155 580.413 580.603 580.468 580.313 579.893 579.565 579.548 579.828 579.645 579.35 579.058 578.988 579.135 579.47 579.715 579.633 579.51 579.45 579.308 579.18 579.113 579.08 579.003 578.96
-9999 -9999 -9999 -9999 -9999 -9999 -9999 -9999 -9999 -9999 -9999 -9999 -9999 -9999 -9999 -9999 -9999 -9999 -9999 -9999 -9999 -9999 -9999 -9999 -9999 -9999 -9999 -9999 -9999 -9999 -9999 -9999 -9999 -9999 -9999 -9999 -9999 -9999 -9999 -9999 -9999 -9999 -9999 -9999 -9999 -9999 -9999 -9999 -9999 -9999 -9999 -9999 -9999 -9999 -9999 -9999 -9999 -9999 -9999 -9999 -9999 -9999 -9999 -9999 -9999 -9999 -9999 -9999 -9999 -9999 -9999 -9999 -9999 -9999 -9999 -9999 -9999 -9999 -9999 -9999 -9999 -9999 -9999 -9999 -9999 -9999 -9999 -9999 -9999 -9999 -9999 -9999 -9999 -9999 -9999 -9999 -9999 -9999 -9999 -9999 -9999 -9999 -9999 -9999 -9999 -9999 -9999 -9999 -9999 -9999 -9999 -9999 -9999 -9999 -9999 -9999 -9999 -9999 -9999 -9999 -9999 -9999 -9999 -9999 -9999 -9999 -9999 -9999 -9999 -9999 -9999 -9999 -9999 -9999 -9999 -9999 -9999 -9999 -9999 -9999 -9999 -9999 -9999 -9999 -9999 -9999 -9999 -9999 -9999 -9999 -9999 -9999 -9999 -9999 -9999 -9999 -9999 -9999 -9999 -9999 -9999 -9999 -9999 -9999 -9999 -9999 -9999 -9999 -9999 -9999 -9999 -9999 -9999 -9999 -9999 -9999 -9999 -9999 -9999 -9999 -9999 -9999 -9999 -9999 573.36 573.385 573.415 573.432 573.55 573.7 573.845 574.012 574.212 574.482 574.752 574.807 574.837 574.872 574.9 574.93 574.86 574.685 574.692 574.712 574.772 574.825 574.905 574.897 574.987 575.11 575.275 575.51 575.792 575.617 575.555 575.555 575.552 575.545 575.607 575.765 575.91 575.992 576.125 576.315 576.45 576.387 576.51 576.675 576.72 576.787 576.8 577.09 577.575 577.745 577.672 577.69 577.742 577.892 578.137 578.455 578.675 578.767 578.832 578.83 578.955 579.087 579.112 579.142 579.237 579.405 579.597 579.637 579.657 579.567 579.572 579.66 579.772 579.845 579.85 579.775 579.752 579.777 579.83 579.845 579.822 579.897 579.86 579.837 579.78 579.715 579.687 579.682 579.665 579.645 579.62 579.53 579.487 579.637 579.804 579.902 579.717 579.467 579.399 579.69 579.783 579.671 579.648 579.649 579.607 579.593 579.451 579.406 579.441 579.488 579.563 579.694 579.763 579.81 579.843 579.875 579.882 579.777 579.509 579.289 579.271 579.213 579.014 578.885 578.728 578.655 578.578 578.438 578.318 578.227 578.055 577.908 577.643 577.42 577.32 577.253 577.062 576.763 576.798 576.905 576.973 577.083 577.53 578.183 578.535 578.685 578.813 578.925 579.13 579.435 579.738 579.655 579.573 579.575 579.55 579.568 579.53 579.448 579.423 579.345 579.37 579.438 579.453 579.473 579.497 579.433 579.235 578.945 578.53 578.025 577.96 578.295 579.06 579.423 579.565 579.068 578.523 578.225 578.128 578.258 578.513 579.073 579.893 580.045 580.195 580.24 580.328 580.44 580.238 579.9 579.843 579.953 580.145 580.188 580.108 580.06 580.06 579.968 579.963 580.045 580.28 580.493 580.49 580.485 580.248 579.94 579.643 579.695 579.533 579.273 579.09 579.183 579.435 579.795 579.963 579.855 579.715 579.66 579.618 579.535 579.46 579.385 579.32 579.27
-9999 -9999 -9999 -9999 -9999 -9999 -9999 -9999 -9999 -9999 -9999 -9999 -9999 -9999 -9999 -9999 -9999 -9999 -9999 -9999 -9999 -9999 -9999 -9999 -9999 -9999 -9999 -9999 -9999 -9999 -9999 -9999 -9999 -9999 -9999 -9999 -9999 -9999 -9999 -9999 -9999 -9999 -9999 -9999 -9999 -9999 -9999 -9999 -9999 -9999 -9999 -9999 -9999 -9999 -9999 -9999 -9999 -9999 -9999 -9999 -9999 -9999 -9999 -9999 -9999 -9999 -9999 -9999 -9999 -9999 -9999 -9999 -9999 -9999 -9999 -9999 -9999 -9999 -9999 -9999 -9999 -9999 -9999 -9999 -9999 -9999 -9999 -9999 -9999 -9999 -9999 -9999 -9999 -9999 -9999 -9999 -9999 -9999 -9999 -9999 -9999 -9999 -9999 -9999 -9999 -9999 -9999 -9999 -9999 -9999 -9999 -9999 -9999 -9999 -9999 -9999 -9999 -9999 -9999 -9999 -9999 -9999 -9999 -9999 -9999 -9999 -9999 -9999 -9999 -9999 -9999 -9999 -9999 -9999 -9999 -9999 -9999 -9999 -9999 -9999 -9999 -9999 -9999 -9999 -9999 -9999 -9999 -9999 -9999 -9999 -9999 -9999 -9999 -9999 -9999 -9999 -9999 -9999 -9999 -9999 -9999 -9999 -9999 -9999 -9999 -9999 -9999 -9999 -9999 -9999 -9999 -9999 -9999 -9999 -9999 -9999 -9999 -9999 -9999 -9999 -9999 -9999 -9999 -9999 -9999 -9999 -9999 -9999 -9999 -9999 -9999 -9999 574.324 574.475 574.62 574.755 574.855 574.835 574.89 574.822 574.617 574.567 574.565 574.662 574.73 574.812 574.885 574.895 575.01 575.217 575.467 575.57 575.605 575.87 575.607 575.55 575.535 575.545 575.525 575.635 575.802 575.975 576.12 576.305 576.34 576.445 576.572 576.607 576.645 576.7 576.805 577.112 577.552 577.697 577.765 577.84 577.82 577.87 577.965 578.257 578.585 578.752 578.807 578.902 579.175 579.332 579.37 579.362 579.35 579.48 579.617 579.687 579.572 579.575 579.692 579.822 579.877 579.885 579.772 579.672 579.65 579.66 579.662 579.717 579.772 579.762 579.835 579.815 579.78 579.71 579.69 579.68 579.667 579.657 579.592 579.612 579.62 579.832 579.932 579.976 579.842 579.607 579.596 579.643 579.664 579.687 579.688 579.645 579.634 579.623 579.434 579.464 579.606 579.72 579.77 579.832 579.823 579.878 579.92 579.95 579.937 579.84 579.562 579.303 579.26 579.213 579.021 578.884 578.826 578.704 578.617 578.49 578.358 578.238 578.09 578.025 577.815 577.508 577.383 577.24 577.043 576.938 577 577.098 577.22 577.383 577.803 578.355 578.755 579.025 579.288 579.497 579.655 579.885 580.165 580.023 579.898 579.81 579.725 579.67 579.65 579.628 579.585 579.543 579.562 579.555 579.605 579.645 579.62 579.573 579.448 579.13 578.925 578.543 578.048 578.21 578.843 579.568 579.77 579.665 579.053 578.605 578.295 578.19 578.238 578.343 579.023 579.643 580.083 580.178 580.248 580.348 580.318 580.143 580.033 580.105 580.28 580.27 580.15 580.17 580.205 580.06 580.008 580.015 580.055 580.165 580.238 580.25 580.205 580.043 579.853 579.688 579.56 579.435 579.263 579.335 579.71 579.98 580.023 579.97 579.903 579.888 579.868 579.818 579.795 579.715 579.588 579.55
-9999 -9999 -9999 -9999 -9999 -9999 -9999 -9999 -9999 -9999 -9999 -9999 -9999 -9999 -9999 -9999 -9999 -9999 -9999 -9999 -9999 -9999 -9999 -9999 -9999 -9999 -9999 -9999 -9999 -9999 -9999 -9999 -9999 -9999 -9999 -9999 -9999 -9999 -9999 -9999 -9999 -9999 -9999 -9999 -9999 -9999 -9999 -9999 -9999 -9999 -9999 -9999 -9999 -9999 -9999 -9999 -9999 -9999 -9999 -9999 -9999 -9999 -9999 -9999 -9999 -9999 -9999 -9999 -9999 -9999 -9999 -9999 -9999 -9999 -9999 -9999 -9999 -9999 -9999 -9999 -9999 -9999 -9999 -9999 -9999 -9999 -9999 -9999 -9999 -9999 -9999 -9999 -9999 -9999 -9999 -9999 -9999 -9999 -9999 -9999 -9999 -9999 -9999 -9999 -9999 -9999 -9999 -9999 -9999 -9999 -9999 -9999 -9999 -9999 -9999 -9999 -9999 -9999 -9999 -9999 -9999 -9999 -9999 -9999 -9999 -9999 -9999 -9999 -9999 -9999 -9999 -9999 -9999 -9999 -9999 -9999 -9999 -9999 -9999 -9999 -9999 -9999 -9999 -9999 -9999 -9999 -9999 -9999 -9999 -9999 -9999 -9999 -9999 -9999 -9999 -9999 -9999 -9999 -9999 -9999 -9999 -9999 -9999 -9999 -9999 -9999 -9999 -9999 -9999 -9999 -9999 -9999 -9999 -9999 -9999 -9999 -9999 -9999 -9999 -9999 -9999 -9999 -9999 -9999 -9999 -9999 -9999 -9999 -9999 -9999 -9999 -9999 -9999 -9999 -9999 -9999 -9999 -9999 -9999 -9999 -9999 -9999 -9999 574.624 574.662 574.81 574.9 574.972 575.027 575.165 575.405 575.565 575.562 575.77 575.872 575.545 575.527 575.557 575.577 575.66 575.817 575.92 576.09 576.267 576.41 576.46 576.502 576.617 576.715 576.725 576.935 577.385 577.66 577.73 577.787 577.815 577.832 577.91 578.03 578.372 578.635 578.847 578.807 579.065 579.44 579.357 579.247 579.237 579.417 579.505 579.547 579.51 579.69 579.697 579.757 579.75 579.64 579.63 579.612 579.63 579.707 579.852 579.82 579.762 579.817 579.822 579.895 579.845 579.817 579.772 579.69 579.687 579.657 579.53 579.46 579.637 579.732 579.932 579.974 579.957 579.877 579.709 579.661 579.609 579.679 579.812 579.809 579.744 579.73 579.669 579.411 579.545 579.764 579.884 579.825 579.893 579.877 579.942 579.991 579.975 580.037 579.838 579.428 579.262 579.263 579.193 579.052 578.921 578.848 578.763 578.651 578.533 578.405 578.275 578.14 578.115 577.97 577.643 577.453 577.255 577.168 577.113 577.188 577.263 577.445 577.835 578.298 578.705 579.115 579.51 579.785 579.973 580.318 580.492 580.438 580.31 580.183 580.057 579.965 579.857 579.813 579.85 579.835 579.758 579.77 579.742 579.768 579.815 579.788 579.747 579.613 579.298 579.09 578.808 578.178 578.31 578.948 579.588 579.9 579.98 579.678 579.143 578.65 578.438 578.388 578.303 578.505 578.843 579.33 579.693 579.993 580.243 580.335 580.34 580.325 580.455 580.608 580.268 580.198 580.528 580.628 580.235 580.1 580.053 580.02 579.998 580.025 580.053 580.02 579.925 579.815 579.705 579.618 579.548 579.415 579.438 579.788 580.028 580.045 580.055 580.04 580.075 579.983 579.998 580.048 580.05 579.843 579.87
-9999 -9999 -9999 -9999 -9999 -9999 -9999 -9999 -9999 -9999 -9999 -9999 -9999 -9999 -9999 -9999 -9999 -9999 -9999 -9999 -9999 -9999 -9999 -9999 -9999 -9999 -9999 -9999 -9999 -9999 -9999 -9999 -9999 -9999 -9999 -9999 -9999 -9999 -9999 -9999 -9999 -9999 -9999 -9999 -9999 -9999 -9999 -9999 -9999 -9999 -9999 -9999 -9999 -9999 -9999 -9999 -9999 -9999 -9999 -9999 -9999 -9999 -9999 -9999 -9999 -9999 -9999 -9999 -9999 -9999 -9999 -9999 -9999 -9999 -9999 -9999 -9999 -9999 -9999 -9999 -9999 -9999 -9999 -9999 -9999 -9999 -9999 -9999 -9999 -9999 -9999 -9999 -9999 -9999 -9999 -9999 -9999 -9999 -9999 -9999 -9999 -9999 -9999 -9999 -9999 -9999 -9999 -9999 -9999 -9999 -9999 -9999 -9999 -9999 -9999 -9999 -9999 -9999 -9999 -9999 -9999 -9999 -9999 -9999 -9999 -9999 -9999 -9999 -9999 -9999 -9999 -9999 -9999 -9999 -9999 -9999 -9999 -9999 -9999 -9999 -9999 -9999 -9999 -9999 -9999 -9999 -9999 -9999 -9999 -9999 -9999 -9999 -9999 -9999 -9999 -9999 -9999 -9999 -9999 -9999 -9999 -9999 -9999 -9999 -9999 -9999 -9999 -9999 -9999 -9999 -9999 -9999 -9999 -9999 -9999 -9999 -9999 -9999 -9999 -9999 -9999 -9999 -9999 -9999 -9999 -9999 -9999 -9999 -9999 -9999 -9999 -9999 -9999 -9999 -9999 -9999 -9999 -9999 -9999 -9999 -9999 -9999 -9999 -9999 -9999 -9999 -9999 -9999 -9999 -9999 -9999 -9999 575.55 575.592 575.712 575.987 575.522 575.56 575.612 575.707 575.77 575.892 576.065 576.235 576.352 576.445 576.482 576.607 576.735 576.702 576.835 577.035 577.267 577.51 577.742 577.892 577.937 578.037 578.265 578.595 578.747 578.782 578.827 579.087 579.26 579.097 579.08 579.125 579.467 579.592 579.4 579.535 579.677 579.825 579.66 579.62 579.592 579.592 579.652 579.772 580.057 579.987 579.857 579.817 579.882 579.87 579.895 579.872 579.812 579.782 579.722 579.695 579.677 579.567 579.482 579.652 579.895 580.13 580.029 580 579.971 579.79 579.749 579.655 579.739 580.068 580.05 579.856 579.748 579.721 579.621 579.601 580.108 580.025 579.862 579.901 580.033 580.079 580.026 579.959 579.959 579.792 579.438 579.298 579.252 579.215 579.121 579.042 578.91 578.767 578.658 578.553 578.42 578.267 578.135 578.048 577.883 577.723 577.523 577.508 577.628 577.275 577.348 577.425 577.603 578.158 578.705 579.03 579.525 579.838 580.103 580.49 580.715 580.78 580.723 580.603 580.458 580.333 580.15 580 579.943 580.013 579.96 579.93 579.928 579.908 579.92 579.98 579.968 579.905 579.813 579.535 579.283 578.918 578.38 578.463 579.175 579.75 579.998 580.12 580.173 580.055 579.7 579.123 578.965 578.705 578.625 578.765 578.913 579.003 579.338 579.88 580.205 580.358 580.445 580.543 580.485 580.345 580.645 581.113 580.963 580.518 580.178 580.123 580.11 580.128 580.12 580.05 579.983 579.873 579.8 579.713 579.678 579.65 579.645 579.68 579.94 580.103 580.218 580.278 580.343 580.38 580.428 580.483 580.548 580.5 580.395 580.378
-9999 -9999 -9999 -9999 -9999 -9999 -9999 -9999 -9999 -9999 -9999 -9999 -9999 -9999 -9999 -9999 -9999 -9999 -9999 -9999 -9999 -9999 -9999 -9999 -9999 -9999 -9999 -9999 -9999 -9999 -9999 -9999 -9999 -9999 -9999 -9999 -9999 -9999 -9999 -9999 -9999 -9999 -9999 -9999 -9999 -9999 -9999 -9999 -9999 -9999 -9999 -9999 -9999 -9999 -9999 -9999 -9999 -9999 -9999 -9999 -9999 -9999 -9999 -9999 -9999 -9999 -9999 -9999 -9999 -9999 -9999 -9999 -9999 -9999 -9999 -9999 -9999 -9999 -9999 -9999 -9999 -9999 -9999 -9999 -9999 -9999 -9999 -9999 -9999 -9999 -9999 -9999 -9999 -9999 -9999 -9999 -9999 -9999 -9999 -9999 -9999 -9999 -9999 -9999 -9999 -9999 -9999 -9999 -9999 -9999 -9999 -9999 -9999 -9999 -9999 -9999 -9999 -9999 -9999 -9999 -9999 -9999 -9999 -9999 -9999 -9999 -9999 -9999 -9999 -9999 -9999 -9999 -9999 -9999 -9999 -9999 -9999 -9999 -9999 -9999 -9999 -9999 -9999 -9999 -9999 -9999 -9999 -9999 -9999 -9999 -9999 -9999 -9999 -9999 -9999 -9999 -9999 -9999 -9999 -9999 -9999 -9999 -9999 -9999 -9999 -9999 -9999 -9999 -9999 -9999 -9999 -9999 -9999 -9999 -9999 -9999 -9999 -9999 -9999 -9999 -9999 -9999 -9999 -9999 -9999 -9999 -9999 -9999 -9999 -9999 -9999 -9999 -9999 -9999 -9999 -9999 -9999 -9999 -9999 -9999 -9999 -9999 -9999 -9999 -9999 -9999 -9999 -9999 -9999 -9999 -9999 -9999 -9999 -9999 -9999 -9999 -9999 -9999 -9999 575.735 575.797 575.917 576.04 576.177 576.282 576.382 576.477 576.572 576.637 576.697 576.812 576.922 576.992 577.2 577.507 577.86 578.002 578.162 578.377 578.627 578.74 578.762 578.875 579.022 579.067 579.075 579.132 579.227 579.455 579.427 579.577 579.602 579.76 579.687 579.597 579.592 579.61 579.602 579.83 580.2 580.282 580.06 579.95 579.885 579.912 579.875 579.842 579.85 579.845 579.82 579.782 579.747 579.735 579.672 579.702 579.75 579.872 580.22 580.105 580.113 580.17 580.012 579.962 579.913 580.108 580.217 580.178 579.956 579.919 579.925 579.835 579.727 580.119 580.121 580.024 580.021 580.118 580.154 580.114 580.086 579.993 579.667 579.402 579.323 579.295 579.275 579.261 579.165 578.974 578.822 578.691 578.552 578.434 578.268 578.04 577.915 577.885 577.768 577.622 577.77 577.568 577.475 577.535 577.67 578.035 578.523 578.94 579.268 579.795 580.348 580.753 580.92 580.948 580.94 580.89 580.807 580.658 580.48 580.355 580.18 580.155 580.145 580.14 580.083 580.078 580.07 580.065 580.093 580.095 580.045 579.975 579.758 579.413 578.975 578.625 578.78 579.45 579.928 580.18 580.248 580.335 580.365 580.355 580.18 579.625 579.163 578.758 578.698 578.738 578.813 579.073 579.643 579.92 580.163 580.335 580.478 580.61 580.798 581.115 581.2 580.88 580.455 580.153 580.135 580.103 580.103 580.078 580.028 579.94 579.883 579.793 579.778 579.815 579.77 579.888 580.013 580.15 580.22 580.423 580.573 580.59 580.523 580.8 580.888 580.888 580.78 580.633 580.58
-9999 -9999 -9999 -9999 -9999 -9999 -9999 -9999 -9999 -9999 -9999 -9999 -9999 -9999 -9999 -9999 -9999 -9999 -9999 -9999 -9999 -9999 -9999 -9999 -9999 -9999 -9999 -9999 -9999 -9999 -9999 -9999 -9999 -9999 -9999 -9999 -9999 -9999 -9999 -9999 -9999 -9999 -9999 -9999 -9999 -9999 -9999 -9999 -9999 -9999 -9999 -9999 -9999 -9999 -9999 -9999 -9999 -9999 -9999 -9999 -9999 -9999 -9999 -9999 -9999 -9999 -9999 -9999 -9999 -9999 -9999 -9999 -9999 -9999 -9999 -9999 -9999 -9999 -9999 -9999 -9999 -9999 -9999 -9999 -9999 -9999 -9999 -9999 -9999 -9999 -9999 -9999 -9999 -9999 -9999 -9999 -9999 -9999 -9999 -9999 -9999 -9999 -9999 -9999 -9999 -9999 -9999 -9999 -9999 -9999 -9999 -9999 -9999 -9999 -9999 -9999 -9999 -9999 -9999 -9999 -9999 -9999 -9999 -9999 -9999 -9999 -9999 -9999 -9999 -9999 -9999 -9999 -9999 -9999 -9999 -9999 -9999 -9999 -9999 -9999 -9999 -9999 -9999 -9999 -9999 -9999 -9999 -9999 -9999 -9999 -9999 -9999 -9999 -9999 -9999 -9999 -9999 -9999 -9999 -9999 -9999 -9999 -9999 -9999 -9999 -9999 -9999 -9999 -9999 -9999 -9999 -9999 -9999 -9999 -9999 -9999 -9999 -9999 -9999 -9999 -9999 -9999 -9999 -9999 -9999 -9999 -9999 -9999 -9999 -9999 -9999 -9999 -9999 -9999 -9999 -9999 -9999 -9999 -9999 -9999 -9999 -9999 -9999 -9999 -9999 -9999 -9999 -9999 -9999 -9999 -9999 -9999 -9999 -9999 -9999 -9999 -9999 -9999 -9999 -9999 -9999 -9999 -9999 576.147 576.18 576.302 576.507 576.59 576.64 576.645 576.745 577.022 577.162 577.187 577.342 577.687 578.105 578.225 578.425 578.592 578.692 578.772 578.9 579.002 579.077 579.195 579.3 579.312 579.365 579.59 579.705 579.695 579.575 579.615 579.61 579.582 579.577 579.675 580.052 580.422 580.325 580.12 579.987 579.91 579.912 579.89 579.87 579.85 579.85 579.9 579.84 579.75 579.635 579.63 579.707 579.752 579.887 580.227 580.1 580.105 580.038 580.068 580.029 580.04 580.206 580.329 580.245 580.082 580.04 580.003 579.969 579.85 580.073 580.179 580.144 580.09 580.222 580.286 580.262 580.222 580.023 579.544 579.384 579.509 579.542 579.49 579.447 579.311 579.094 578.893 578.756 578.594 578.449 578.221 578.041 577.973 577.921 577.858 577.751 577.607 577.685 577.75 577.745 577.943 578.398 578.857 579.17 579.5 579.928 580.69 580.978 581.053 581.055 581.043 580.997 580.923 580.833 580.68 580.513 580.27 580.258 580.275 580.33 580.268 580.235 580.237 580.225 580.213 580.237 580.175 580.108 579.923 579.54 579.053 578.663 578.905 579.753 580.13 580.263 580.363 580.435 580.483 580.515 580.535 580.375 579.765 579.325 579.17 579.058 578.918 578.943 579.398 579.855 580.143 580.378 580.608 580.898 581.023 581.133 581.02 580.543 580.2 580.145 580.178 580.165 580.158 580.105 580.07 579.963 579.873 579.93 580.05 580.068 580.005 580.08 580.205 580.34 580.375 580.578 580.755 580.845 580.893 580.99 581.04 581.01 580.94 580.828 580.74
-9999 -9999 -9999 -9999 -9999 -9999 -9999 -9999 -9999 -9999 -9999 -9999 -9999 -9999 -9999 -9999 -9999 -9999 -9999 -9999 -9999 -9999 -9999 -9999 -9999 -9999 -9999 -9999 -9999 -9999 -9999 -9999 -9999 -9999 -9999 -9999 -9999 -9999 -9999 -9999 -9999 -9999 -9999 -9999 -9999 -9999 -9999 -9999 -9999 -9999 -9999 -9999 -9999 -9999 -9999 -9999 -9999 -9999 -9999 -9999 -9999 -9999 -9999 -9999 -9999 -9999 -9999 -9999 -9999 -9999 -9999 -9999 -9999 -9999 -9999 -9999 -9999 -9999 -9999 -9999 -9999 -9999 -9999 -9999 -9999 -9999 -9999 -9999 -9999 -9999 -9999 -9999 -9999 -9999 -9999 -9999 -9999 -9999 -9999 -9999 -9999 -9999 -9999 -9999 -9999 -9999 -9999 -9999 -9999 -9999 -9999 -9999 -9999 -9999 -9999 -9999 -9999 -9999 -9999 -9999 -9999 -9999 -9999 -9999 -9999 -9999 -9999 -9999 -9999 -9999 -9999 -9999 -9999 -9999 -9999 -9999 -9999 -9999 -9999 -9999 -9999 -9999 -9999 -9999 -9999 -9999 -9999 -9999 -9999 -9999 -9999 -9999 -9999 -9999 -9999 -9999 -9999 -9999 -9999 -9999 -9999 -9999 -9999 -9999 -9999 -9999 -9999 -9999 -9999 -9999 -9999 -9999 -9999 -9999 -9999 -9999 -9999 -9999 -9999 -9999 -9999 -9999 -9999 -9999 -9999 -9999 -9999 -9999 -9999 -9999 -9999 -9999 -9999 -9999 -9999 -9999 -9999 -9999 -9999 -9999 -9999 -9999 -9999 -9999 -9999 -9999 -9999 -9999 -9999 -9999 -9999 -9999 -9999 -9999 -9999 -9999 -9999 -9999 -9999 -9999 -9999 -9999 -9999 -9999 -9999 -9999 -9999 -9999 -9999 -9999 -9999 -9999 -9999 -9999 577.487 577.687 -9999 -9999 578.46 578.64 578.68 578.775 578.857 578.932 579.01 579.137 579.122 579.192 579.442 579.545 579.532 579.552 579.562 579.58 579.655 579.655 579.63 579.977 580.487 580.565 580.482 580.2 580.077 579.997 579.897 579.862 579.847 579.875 579.89 579.865 579.802 579.755 579.56 579.68 579.8 579.84 579.947 580.27 580.337 580.067 580.059 580.062 580.114 580.136 580.267 580.408 580.305 580.135 580.177 580.169 580.172 580.084 579.817 580.192 580.177 580.304 580.431 580.394 580.427 580.342 580.245 579.783 579.657 579.945 579.702 579.612 579.59 579.458 579.221 579.031 578.883 578.688 578.477 578.246 578.137 578.125 578.067 577.896 577.828 577.842 577.946 577.963 577.99 578.207 578.678 579.045 579.283 579.525 579.883 580.68 581.088 581.183 581.178 581.155 581.12 581.053 580.993 580.835 580.635 580.443 580.503 580.49 580.453 580.443 580.398 580.388 580.375 580.39 580.358 580.295 580.188 579.933 579.61 579.148 578.828 578.845 579.385 580.13 580.443 580.515 580.57 580.645 580.65 580.65 580.64 580.56 580.268 580.095 579.57 578.988 578.933 579.333 579.888 580.365 580.643 580.793 580.935 581.005 580.95 580.618 580.283 580.153 580.153 580.163 580.23 580.248 580.155 580.125 580.065 580.065 580.21 580.395 580.468 580.355 580.37 580.558 580.593 580.638 580.868 581.11 581.265 581.413 581.32 581.385 581.275 581.208 581.183 581.108
