ncols 376
nrows 32
xllcorner    387086
yllcorner    479906
cellsize     2
NODATA_value -9999
347.828 348.025 347.85 348.078 348.605 348.665 350 351.833 350.15 349.958 351.595 352.715 361.95 363.508 363.895 362.555 359.315 358.415 360.555 356.168 359.958 361.715 363.383 363.293 356.653 349.735 350.718 356.175 361.46 361.475 361.74 362.598 362.91 363.128 362.665 358.128 362.24 357.08 353.04 358.675 361.848 360.268 356.758 363.575 359.938 359.753 358.528 361.218 360.08 361.108 355.56 344.385 344.1 344.853 346.72 352.955 357.635 359.198 358.425 361.643 363.055 360.843 358.785 362.138 360.518 357.85 359.28 362.003 365.688 364.31 364.275 361.113 363.833 363.07 360.688 360.88 361.29 363.55 359.435 357.028 363.278 363.5 363.31 362.868 359.76 363.975 353.958 359.205 359.66 354.975 361.238 362.673 357.88 356.138 362.76 360.375 362.03 363.988 364.65 364.105 362.743 362.195 363.858 362.453 364.085 363.965 360.47 356.945 363.395 362.043 356.348 354.8 361.825 362.453 359.145 360.513 359.808 353.008 356.42 352.393 346.958 346.705 346.553 346.383 346.295 346.085 345.943 345.573 345.338 345.17 344.945 344.79 344.72 344.428 344.218 344.08 343.715 343.47 343.595 343.973 344.17 344.325 344.403 344.563 344.743 344.828 344.785 344.5 344.543 344.728 344.83 344.765 344.755 344.765 344.73 344.65 344.645 344.74 344.77 344.773 344.753 344.673 344.605 344.605 344.718 344.725 344.668 344.698 344.663 344.543 344.413 344.125 343.898 343.705 343.353 343.155 343.185 343.223 343.285 343.335 343.175 342.68 341.99 340.908 339.658 340.138 341.003 341.318 341.518 341.663 341.7 341.625 341.61 341.828 342.085 342.29 342.443 342.485 342.43 342.42 342.338 342.273 342.233 342.1 341.96 341.87 341.843 341.528 341.35 341.223 341.055 340.918 340.803 340.758 340.73 340.733 340.783 340.788 340.76 340.72 340.738 340.785 340.72 340.8 340.938 341.098 341.178 341.245 341.345 341.283 341.385 341.403 341.455 341.705 341.933 341.885 341.823 341.968 342.175 342.285 342.38 342.348 342.228 342.263 342.365 342.378 342.218 342.258 342.265 342.035 342.17 342.08 342.125 342.175 341.97 341.865 341.795 341.62 341.625 341.808 342.043 342.195 342.348 342.148 342.1 342.033 341.948 341.813 341.693 341.533 341.375 341.275 341.308 341.12 341.053 341.01 341.033 340.955 340.838 340.79 340.84 340.768 340.743 340.715 340.728 341.073 341.215 341.193 341.043 340.785 341.083 341.213 341.29 341.263 341.178 341.433 341.265 341.295 341.298 341.368 341.415 341.303 341.118 340.975 340.923 340.753 340.558 340.305 340.085 339.76 339.415 339.068 338.73 338.228 337.648 336.975 336.16 335.413 334.42 333.765 333.058 332.58 332.628 331.58 331.12 331.03 331.015 331.083 331.22 331.105 330.605 331.088 330.57 330.855 331.368 332.165 332.688 332.965 333.008 333.06 332.983 332.853 332.81 332.633 332.508 332.45 332.345 332.245 332.065 331.91 331.793 331.72 331.71 331.623 331.57 331.61 331.555 331.375 331.148 331.088 331.188 331.073 331.138 331.085 331.12 331.13 331.23 331.135 331.13 331.16 331.14 331.18 331.238 331.31 331.265 331.223
348.543 348.32 348.418 349.17 350.183 350.5 350.84 351.043 350.245 350.098 350.493 351.598 357.16 360.745 361.09 361.758 358.473 358.563 360.238 359.863 358.018 361.52 363.5 363.345 359.088 354.773 353.18 351.665 354.54 355.923 361.61 362.71 361.685 359.498 358.385 359.988 361.08 361.86 359.155 362.138 362.895 363.588 361.913 363.103 357.313 359.79 361.755 360.003 351.888 360.555 355.285 344.718 343.953 344.755 346.235 348.685 351.288 348.535 353.535 362.215 362.373 358.143 360.488 363.753 363.483 363.453 363.693 358.095 360.96 362.565 362.32 361.803 364.595 363.96 361.353 362.665 365.333 364.393 363.443 362.733 363.465 364.643 363.408 364.123 364.015 358.868 360.795 363.685 357.665 360.41 363.2 363.793 362.535 362.798 363.715 361.338 363.353 361.465 360.073 363.243 363.103 362.155 362.26 360.67 364.225 364.633 362.055 361.69 360.648 361.863 356.935 352.243 359.213 362.043 362.528 362.003 357.465 358.308 360.993 356.31 349.858 347.458 346.868 346.758 346.608 346.445 346.115 345.855 345.593 345.373 345.335 345.295 345.158 344.883 344.705 344.608 344.37 344.25 344.428 344.663 344.765 344.868 344.92 345.06 345.235 345.295 345.273 344.99 344.743 345.003 345.04 345.118 345.123 345.093 345.06 345.018 345.003 345.085 345.128 345.098 345.115 345.048 344.975 344.99 345.178 345.148 345.138 345.143 345.098 345.05 344.89 344.7 344.535 344.29 343.91 343.77 343.723 343.738 343.73 343.74 343.553 343.003 342.27 341.17 339.998 340.703 341.428 341.728 341.893 342.033 342.14 342.125 342.163 342.328 342.603 342.8 343.005 343.023 343.015 342.955 342.948 342.925 342.85 342.75 342.633 342.358 342.278 342.228 342.12 341.905 341.698 341.578 341.465 341.445 341.388 341.348 341.293 341.303 341.363 341.365 341.323 341.303 341.215 341.14 341.223 341.36 341.533 341.55 341.495 341.61 341.865 341.905 341.948 342.05 342.303 342.333 342.313 342.37 342.643 342.75 342.763 342.798 342.718 342.715 342.798 342.8 342.723 342.663 342.725 342.613 342.76 342.658 342.633 342.75 342.643 342.503 342.528 342.318 342.213 342.148 342.218 342.23 342.413 342.818 342.925 343.005 342.76 342.508 342.36 342.278 342.018 341.928 341.873 341.448 341.293 341.483 341.51 341.485 341.298 341.163 341.258 341.31 341.298 341.395 341.448 341.613 341.703 341.705 341.69 341.638 341.755 341.84 341.833 341.848 341.808 341.973 342.138 341.765 341.718 341.76 341.855 341.828 341.628 341.533 341.468 341.275 341.153 340.925 340.695 340.375 340.03 339.678 339.373 338.983 338.408 337.755 337.005 336.113 335.14 334.243 333.718 332.888 332.598 331.78 331.573 331.453 331.42 331.598 331.768 331.593 331.31 331.453 331.305 330.473 331.368 332.605 332.988 333.288 333.365 333.433 333.46 333.225 333.16 333.083 332.988 332.853 332.728 332.62 332.503 332.385 332.243 332.133 331.968 331.99 331.95 331.958 331.945 331.88 331.705 331.628 331.623 331.55 331.415 331.683 331.738 331.725 331.72 331.595 331.608 331.62 331.628 331.65 331.758 331.723 331.773 331.735
348.523 348.183 348.475 348.808 350.255 350.418 350.98 351.73 359.683 352.573 357.048 361.94 361.073 362.715 360.205 357.21 361.695 357.903 357.695 360.653 361.588 356.505 361.485 359.985 356.83 362.26 358.07 350.348 350.85 356.883 354.698 355.2 355.333 351.198 353.375 359.638 361.848 362.7 362.988 363.093 361.095 361.195 361.41 359.228 357.895 359.868 360.16 360.683 363.28 361.375 352.028 343.843 343.808 345.8 353.138 352.56 359.803 356.413 356.145 360.36 356.343 358.555 363.43 362.91 363.865 363.203 364.56 360.88 362.893 361.54 354.41 362.68 364.91 365.32 362.438 354.578 363.023 362.675 364.123 364.98 363.913 361.525 363.725 360.943 362.985 356.783 360.04 359.688 363.768 363.65 363.09 364.51 363.65 363.918 360.73 358.325 363.723 363.913 363.57 363.098 362.41 363.333 363.493 360.788 363.373 363.338 361.348 359.82 363.953 363.863 363.408 357.968 354.798 362.163 363.155 361.263 359.51 358.798 358.555 354.938 352.73 351.93 347.21 347.085 346.983 346.643 346.478 346.29 346.2 346.003 345.833 345.668 345.528 345.323 345.135 345.35 344.98 345.043 345.083 345.195 345.268 345.318 345.458 345.6 345.695 345.758 345.73 345.438 345.05 345.178 345.265 345.385 345.415 345.443 345.415 345.405 345.368 345.398 345.418 345.46 345.448 345.32 345.33 345.465 345.59 345.623 345.608 345.633 345.56 345.538 345.425 345.273 345.113 344.918 344.653 344.42 344.235 344.255 344.233 344.258 343.9 343.36 342.553 341.1 340.348 341.218 341.878 342.07 342.05 342.315 342.558 342.648 342.73 342.918 343.155 343.405 343.543 343.61 343.568 343.548 343.53 343.49 343.358 343.258 343.115 342.935 342.698 342.39 342.47 342.518 342.34 342.235 342.13 341.98 341.983 341.953 341.928 341.883 341.928 341.913 341.855 341.913 341.838 341.668 341.685 341.8 342.043 342.148 342.075 342.025 342.128 342.44 342.59 342.668 342.763 342.933 342.838 342.893 343.083 343.205 343.183 343.215 343.095 343.11 343.205 343.27 343.158 343.05 343.14 343.113 343.235 343.158 343.23 343.413 343.263 343.185 343.22 343.165 342.96 342.98 342.9 342.815 342.805 342.703 342.765 342.923 343.13 343.415 343.428 343.143 342.778 342.595 342.365 341.92 341.7 342.003 342.04 341.973 341.875 341.75 341.843 341.875 341.91 341.935 342.02 342.103 342.15 342.188 342.233 342.275 342.32 342.39 342.398 342.39 342.395 342.403 342.588 342.265 342.175 342.135 342.22 342.323 342.26 342.083 341.98 341.835 341.703 341.505 341.275 340.98 340.643 340.288 339.995 339.633 339.058 338.468 337.84 336.988 336.01 335.123 334.385 333.608 332.558 332.158 331.968 331.935 332.045 332.155 332.305 332.235 331.973 331.798 331.265 331.098 332.478 333.16 333.71 333.813 333.825 333.815 333.98 333.698 333.625 333.518 333.44 333.28 333.143 333.018 332.843 332.803 332.735 332.595 332.388 332.293 332.235 332.255 332.355 332.325 332.248 332.17 332.173 332.055 331.938 331.965 331.97 332.073 332.12 332.07 332.063 332.168 332.143 332.148 332.215 332.22 332.233 332.268
348.843 348.76 348.948 349.483 350.128 351.058 355.138 352.753 355.99 354.265 363.265 363.193 360.498 363.965 361.708 358.405 362.91 361.815 356.975 360.885 364.945 363.143 363.115 361.913 359.795 362.885 359.353 351.888 358.535 362.43 359.84 352.325 350.148 350.905 355.975 361.838 363.455 358.143 357.518 364.475 361.783 349.953 358.26 356.23 359.705 363.103 360.1 361.758 360.515 358.488 346.438 344.38 349.533 347.935 353.39 353.325 361.26 361.603 361.595 359.718 361.425 363.923 364.843 363.825 363.238 364.425 365.39 365.23 365.793 364.725 359.883 364.783 366.175 365.593 364.02 364.383 359.07 363.58 363.873 364.933 358.765 355.448 360.02 364.083 363.438 354.608 351.028 357.455 357.958 355.508 354.633 363.658 366.305 364.013 361.073 354.24 362.975 363.82 364.605 364.323 365.258 364.923 362.808 357.185 362.765 360.895 352.443 357.15 364.778 359.745 361.448 360.043 362.87 360.165 356.318 356.298 361.378 361.868 357.773 356.09 357.755 354.273 347.643 347.453 347.2 347.015 346.835 346.688 346.61 346.458 346.278 346.055 345.945 345.763 345.775 345.643 345.483 345.533 345.615 345.66 345.745 345.755 345.908 346.048 346.175 346.223 346.215 346.048 345.528 345.395 345.615 345.59 345.64 345.698 345.635 345.605 345.62 345.628 345.72 345.81 345.713 345.598 345.695 345.91 346.058 346.058 346.075 346.125 346.06 346.018 345.998 345.828 345.698 345.54 345.348 345.013 344.705 344.76 344.785 344.705 344.338 343.863 343.043 341.735 340.85 341.71 342.293 342.49 342.58 342.69 342.945 343.135 343.315 343.5 343.775 344.015 344.143 344.163 344.145 344.125 344.055 343.873 343.685 343.593 343.375 343.14 342.888 342.74 342.663 342.815 342.9 342.945 342.793 342.68 342.58 342.53 342.57 342.543 342.428 342.428 342.438 342.453 342.4 342.255 342.165 342.238 342.408 342.558 342.433 342.345 342.593 342.69 342.775 343.063 343.158 343.073 343.168 343.41 343.545 343.62 343.598 343.653 343.45 343.475 343.643 343.705 343.643 343.56 343.72 343.568 343.755 343.745 343.778 343.895 343.835 343.725 343.843 343.793 343.605 343.753 343.508 343.57 343.595 343.395 343.335 343.318 343.25 343.333 343.345 343.575 343.673 343.488 343.288 342.878 342.608 342.623 342.583 342.483 342.415 342.413 342.47 342.503 342.473 342.488 342.473 342.518 342.588 342.68 342.75 342.8 342.838 342.905 342.898 342.925 342.903 342.958 343.335 342.863 342.73 342.7 342.668 342.7 342.705 342.608 342.513 342.38 342.303 342.13 341.873 341.623 341.3 340.938 340.633 340.278 339.715 339.025 338.528 337.868 336.903 335.953 335 334.343 333.363 332.89 332.505 332.388 332.478 332.67 332.8 332.708 332.253 331.633 331.48 332.343 333.088 333.783 334.205 334.33 334.338 334.188 334.115 334.183 334.08 333.948 333.86 333.675 333.613 333.42 333.263 333.215 333.31 333.048 332.803 332.755 332.688 332.548 332.638 332.733 332.725 332.67 332.673 332.663 332.723 332.48 332.513 332.488 332.43 332.423 332.525 332.61 332.66 332.7 332.783 332.79 332.825 332.843
348.863 348.845 349.083 349.25 349.35 351.013 353.148 357.078 362.658 362.708 364.068 361.538 360.988 363.313 357.67 353.883 359.523 358.325 358.628 363.143 362.44 357.068 360.553 362.268 363.033 364.628 357.26 351.363 358.445 365.83 362.38 353.948 350.43 350.263 356.453 361.818 364.378 363.42 361.81 364.208 359.525 362.848 363.255 363.498 354.143 360.16 364.14 362.243 361.028 351.29 346.93 344.768 349.733 346.938 347.783 356.023 361.988 363.048 364.795 357.528 359.128 364.323 365.02 364.548 364.443 362.643 364.563 360.953 366.035 361.498 364.215 366.045 360.818 364.815 363.705 365.43 365.743 363.13 364.28 360.955 361.158 365.403 365.105 366.533 366.095 359.318 358.833 364.425 358.788 356.74 357.773 362.865 363.255 361.308 356.21 359.555 366.628 364.95 364.555 358.085 358.48 365.553 363.32 356.735 360.55 362.043 357.733 363.535 364.708 358.763 359.89 361.055 363.733 358.065 354.145 355.898 360.493 361.343 358.483 357.123 358.128 352.45 348.575 347.918 347.543 347.453 347.263 347.015 346.923 346.78 346.673 346.54 346.388 346.215 346.385 345.913 345.915 345.97 346.068 346.16 346.17 346.25 346.398 346.54 346.668 346.695 346.738 346.59 346.033 345.758 345.933 345.813 345.83 345.973 345.84 345.883 345.905 346.045 346.083 346.078 345.985 345.988 346.095 346.343 346.458 346.468 346.55 346.618 346.593 346.495 346.453 346.378 346.295 346.145 345.923 345.49 345.145 345.198 345.22 345.12 344.815 344.31 343.268 341.683 341.235 342.17 342.705 342.988 343.18 343.38 343.54 343.71 343.848 344.098 344.385 344.618 344.653 344.66 344.63 344.483 344.4 344.19 343.918 343.76 343.518 343.373 343.365 343.273 342.93 343.043 343.563 343.635 343.488 343.373 343.163 343.105 343.118 342.833 342.69 342.928 343.018 343.005 342.958 342.868 342.748 342.693 342.723 342.818 342.728 342.728 342.988 343.213 343.318 343.4 343.45 343.578 343.59 343.77 344.025 344.045 344.04 344.02 343.903 343.89 344.058 344.138 344.055 344.095 344.185 344.1 344.21 344.34 344.32 344.468 344.428 344.32 344.403 344.368 344.203 344.293 343.998 344.143 344.22 344.095 344.085 344.063 343.898 343.86 343.838 343.735 343.668 343.72 343.65 343.685 343.933 343.563 343.213 343.028 342.958 342.96 343.053 343.108 343.023 342.973 343.13 343.05 342.938 343.123 343.203 343.278 343.338 343.365 343.455 343.498 343.453 343.463 343.908 343.448 343.32 343.155 343.053 343.053 343.053 343.08 343.028 342.93 342.808 342.665 342.45 342.213 341.97 341.555 341.27 340.93 340.363 339.715 339.178 338.593 337.85 336.81 335.808 334.838 334.198 333.43 333.043 332.85 332.94 333.213 333.215 332.575 332.025 331.858 332.355 333.215 333.688 334.24 334.658 334.823 334.81 334.74 334.725 334.658 334.553 334.398 334.303 334.145 334.088 333.89 333.715 333.588 333.6 333.373 333.205 333.163 333.005 332.98 333.005 333.078 333.123 333.148 333.113 333.035 332.958 333 333.07 332.978 332.815 332.725 332.98 333.113 333.193 333.233 333.278 333.413 333.44 333.425
351.603 349.29 349.603 350.168 352.36 353.98 351.96 362.52 363.52 363.258 363.133 362.385 362.188 362.405 358.758 351.958 355.49 357.37 360.583 360.535 354.153 357.258 363.31 362.365 364.165 363.888 361.518 354.815 354.925 361.523 358.988 351.8 353.838 351.733 352.268 356.328 364.618 365.68 363.78 364.97 363.51 361.878 362.873 364.293 362.985 362.773 363.583 360.43 353.625 345.128 345.405 347.003 346.283 349.673 352.588 359.238 360.7 358.08 360.443 362.605 364.05 363.618 364.555 364.585 363.88 365.883 359.29 364.238 365.343 365.31 366.063 365.165 365.02 362.32 366.255 365.23 366.465 367.173 368.388 365.815 366.46 366.833 367.213 366.66 363.053 365.94 357.71 363.328 363.713 365.528 364.665 364.61 365.833 364.235 361.803 358.583 365.63 364.95 362.598 360.123 364.223 365.625 363.483 357.453 364.103 365.295 365.703 365.598 364.873 363.67 365.503 362.063 359.055 352.288 361.17 362.243 359.788 357.543 352.585 353.495 354.408 351.248 348.583 348.118 347.948 347.785 347.573 347.373 347.273 347.178 347.088 346.99 346.865 346.645 346.803 346.388 346.39 346.49 346.558 346.583 346.653 346.788 346.905 347.04 347.13 347.213 347.235 347.028 346.563 346.25 346.308 346.298 346.338 346.29 346.238 346.385 346.525 346.6 346.555 346.485 346.365 346.355 346.515 346.823 346.923 346.985 347.065 347.073 347.065 346.983 346.978 346.915 346.875 346.788 346.538 346.16 345.853 345.725 345.683 345.513 345.198 344.625 343.788 342.48 341.735 342.348 343.135 343.405 343.64 343.958 344.118 344.325 344.468 344.723 344.96 345.14 345.22 345.183 344.958 344.753 344.773 344.775 344.47 344.18 343.743 343.65 343.898 343.913 343.143 343.108 343.938 344.15 343.998 343.965 343.838 343.775 343.668 343.403 343.343 343.648 343.763 343.698 343.518 343.398 343.385 343.313 343.24 343.188 343.173 343.193 343.473 343.725 343.843 343.97 344.003 343.993 344.09 344.165 344.278 344.433 344.435 344.335 344.285 344.31 344.485 344.568 344.473 344.553 344.61 344.573 344.718 344.86 344.873 344.965 344.955 344.905 344.885 344.923 344.83 344.818 344.688 344.723 344.85 344.703 344.835 344.743 344.658 344.58 344.448 343.613 343.54 344.105 343.953 343.865 343.81 343.858 344.218 343.773 343.498 343.498 343.675 343.69 343.448 343.205 343.363 343.53 343.5 343.538 343.643 343.743 343.825 343.838 343.895 343.918 343.953 343.958 344.38 343.933 343.865 343.683 343.588 343.515 343.44 343.443 343.495 343.468 343.308 343.153 342.983 342.803 342.495 342.123 341.835 341.483 341.028 340.493 339.943 339.373 338.58 337.608 336.768 335.683 335.453 334.553 334.445 334.17 335.043 334.123 333.405 332.25 332.525 332.7 333.23 333.858 334.33 334.848 335.133 335.313 335.24 335.218 335.228 335.148 335.085 334.888 334.793 334.625 334.443 334.373 334.225 334.038 333.903 333.748 333.735 333.705 333.513 333.463 333.478 333.53 333.518 333.495 333.548 333.595 333.513 333.533 333.525 333.458 333.358 333.318 333.383 333.47 333.635 333.738 333.828 333.928 334 334.035
354.31 355.935 355.743 351.558 353.048 350.41 351.7 355.283 352.965 361.21 364.24 363.975 364.503 363.4 364.01 359.463 358.753 362.003 365.043 364.968 363.13 362.4 363.655 363.248 364.123 364.523 362.878 355.755 351.873 360.155 361.358 358.408 361.85 359.223 356.125 353.663 358.14 361.848 359.48 364.823 363.263 362.533 364.483 364.19 360.748 360.803 363.553 356.463 347.185 345.695 346.285 346.83 347.53 348.253 356.605 360.86 364.025 364.068 362.48 365.055 365.603 366.043 362.858 363.223 365.005 365.865 361.97 363.75 362.823 356.275 364.73 366.693 366.848 365.618 366.928 368.265 366.9 367.495 367.693 364.675 364.923 362.943 366.14 367.37 366.275 366.705 364.428 363.048 365.353 363.108 358.798 359.075 366.243 364.183 363.025 365.885 365.68 365.943 363.79 358.47 366.403 367.16 363.033 364.688 365.723 364.213 362.34 362.613 364.54 362.93 363.775 361.193 353.668 351.473 360.748 363.943 360.083 356.13 351.165 349.355 349.015 348.798 348.723 348.428 348.315 348.063 347.893 347.773 347.705 347.56 347.508 347.425 347.258 347.005 347.205 346.845 346.888 346.963 347.003 347.043 347.155 347.358 347.455 347.53 347.588 347.638 347.678 347.673 347.328 346.875 346.903 346.905 346.835 346.75 346.79 346.955 347.093 347.165 347.105 346.998 346.803 346.868 347.128 347.363 347.48 347.563 347.615 347.588 347.56 347.47 347.468 347.455 347.44 347.373 347.185 346.853 346.525 346.185 346.103 345.923 345.503 344.833 344.14 343.52 342.353 342.555 343.705 343.975 344.133 344.463 344.813 344.995 345.175 345.348 345.548 345.72 345.788 345.718 345.58 345.475 345.588 345.61 345.105 344.703 344.323 344.215 344.493 344.42 343.995 344.21 344.558 344.61 344.485 344.535 344.45 344.348 343.975 344 344.045 344.09 344.175 344.118 344.028 343.958 344.043 343.988 343.875 343.768 343.725 343.703 343.983 344.228 344.38 344.503 344.713 344.495 344.455 344.535 344.748 344.81 344.763 344.718 344.73 344.773 344.935 344.908 344.83 345.065 345.13 345.12 345.31 345.413 345.43 345.488 345.49 345.595 345.678 345.435 345.423 345.395 345.278 345.245 345.353 345.288 345.405 345.32 345.238 345.238 344.993 344.215 343.903 344.425 344.623 344.448 344.163 344.13 344.205 344.17 344.348 344.123 344.053 344.158 343.92 343.928 343.985 344.043 344.048 344.085 344.113 344.193 344.275 344.345 344.423 344.43 344.458 344.483 344.89 344.453 344.375 344.268 344.148 343.96 343.868 343.84 343.898 343.988 343.87 343.7 343.543 343.32 343.015 342.728 342.41 342.1 341.663 341.26 340.74 340.17 339.46 338.443 337.575 337.255 335.775 335.258 335.143 335.245 335.433 335.405 334.11 333.16 333.448 333.503 333.828 334.273 334.945 335.403 335.563 335.643 335.673 335.665 335.56 335.555 335.443 335.445 335.26 335.185 334.975 334.895 334.773 334.585 334.42 334.263 334.198 334.105 334.145 334.048 333.93 333.925 333.988 333.963 333.975 333.993 333.988 333.975 334.08 334.068 334.088 333.993 333.975 334.02 334.12 334.21 334.285 334.4 334.485 334.578
354.928 351.865 350.81 350.435 350.725 357.953 363.045 352.29 353.273 362.193 360.948 366.458 363.498 359.425 364.373 361.843 363.57 363.44 365.12 364.908 363.573 361.018 357.345 361.9 360.73 364.475 359.953 354.075 353.88 363.355 365.855 362.583 362.64 359.88 360.328 362.568 363.13 362.268 362.34 364.935 364.095 364.875 363.945 365.18 362.685 365.195 361.208 349.485 345.778 346.235 346.98 347.65 352.335 349.76 357.878 364.225 365.188 363.398 356.655 359.008 356.743 354.938 350.948 354.673 363.055 359.793 362.108 366.465 366.195 364.868 364.97 362.8 361.788 364.393 367.415 366.275 364.82 367.448 368.933 368.175 362.2 366.608 367.693 365.75 359.53 357.86 361.875 358.37 355.378 360.908 357.108 360.375 363.24 361.455 366.95 363.583 361.905 367.595 365.905 366.735 365.953 363.975 365.263 367.385 360.103 365.363 360.29 366.23 364.435 364.155 365.178 363.028 357.673 354.71 362.268 361.475 358.428 360.94 352.983 349.593 349.39 349.23 349.11 348.973 348.758 348.628 348.34 348.218 348.25 348.06 347.87 347.768 347.608 347.518 347.663 347.37 347.34 347.428 347.513 347.588 347.705 347.815 347.945 348.008 348.005 348.075 348.133 348.19 348.023 347.62 347.335 347.433 347.485 347.455 347.473 347.56 347.623 347.703 347.623 347.483 347.333 347.403 347.663 347.913 348.018 348.093 348.108 348.13 348.07 347.983 347.983 347.98 347.993 347.92 347.785 347.473 347.108 346.698 346.513 346.228 345.765 345.043 344.415 343.93 342.835 342.79 344.05 344.498 344.713 345.063 345.39 345.58 345.88 346.045 346.168 346.275 346.345 346.333 346.278 346.32 346.31 346.235 345.788 345.363 345.065 344.988 345.068 344.99 344.885 345.075 345.41 345.513 345.25 345.158 345.063 344.908 344.548 344.698 344.63 344.36 344.43 344.45 344.643 344.638 344.688 344.598 344.488 344.378 344.338 344.338 344.485 344.76 344.868 344.978 345.138 345.043 345.2 345.308 345.183 345.118 345.195 345.21 345.275 345.198 345.233 345.255 345.328 345.505 345.653 345.763 345.895 345.943 345.973 346.01 346.033 346.025 346.035 345.928 345.92 345.94 345.833 345.808 345.853 345.833 345.905 345.845 345.808 345.798 345.608 345.175 344.933 344.925 345.208 345.118 344.885 344.728 344.543 344.423 344.38 344.465 344.463 344.74 344.453 344.52 344.515 344.538 344.51 344.548 344.583 344.6 344.708 344.82 344.9 344.905 344.94 344.928 345.328 344.885 344.833 344.788 344.708 344.48 344.293 344.275 344.338 344.303 344.288 344.188 344.01 343.818 343.548 343.273 343.01 342.74 342.358 341.998 341.55 341 340.285 339.418 338.578 337.713 336.738 336 335.723 335.625 335.763 335.853 335.33 333.753 334.388 334.275 334.398 334.85 335.548 336.105 336.238 336.118 336.165 336.148 336.038 335.835 335.673 335.68 335.628 335.525 335.42 335.415 335.323 335.168 335.123 334.833 334.67 334.61 334.558 334.51 334.418 334.375 334.39 334.48 334.41 334.37 334.358 334.345 334.41 334.535 334.563 334.565 334.565 334.633 334.595 334.703 334.86 334.888 334.945 335.045
353.225 351.133 355.245 355.313 363.47 365.79 365.638 362.573 360.628 366.73 366.053 365.263 363.483 364.743 363.708 363.29 363.53 360.553 361.825 359.555 362.628 364.96 363.348 367.17 364.048 360.478 362.22 361.98 357.328 362.035 364.94 362.178 361.22 358.943 359.64 363.47 365.458 366.815 362.263 362.68 364.47 360.225 359.9 365.055 365.94 365.853 360.525 347.99 345.978 350.62 356.243 349.018 349.095 352.68 358.853 362.543 363.585 358.313 361.055 364.51 363.198 362.743 359.73 366.278 366.45 365.593 365.105 363.688 363.483 355.208 361.418 361.808 362.225 361.85 367.39 367.553 368.34 366.63 359.938 364.36 362.69 364.16 367.338 365.715 355.55 362.94 365.443 365.888 368.018 367.145 367.073 362.303 362.053 363.183 366.345 360.068 365.33 365.06 362.225 367.895 365.64 367.118 365.8 362.188 363.305 366.625 365.69 365.203 364.388 358.373 361.883 361.49 356.488 362.535 362.175 360.02 360.135 360.963 353.78 349.95 349.853 349.703 349.458 349.413 349.175 348.938 348.813 348.648 348.578 348.473 348.303 348.19 348.025 348.07 347.885 347.813 347.813 347.898 348.008 348.12 348.208 348.313 348.368 348.398 348.443 348.513 348.615 348.543 348.483 348.293 348.035 347.9 347.935 348.118 348.26 348.278 348.213 348.178 348.08 347.975 347.935 348.078 348.295 348.54 348.675 348.705 348.63 348.643 348.618 348.573 348.54 348.468 348.48 348.45 348.318 348.048 347.718 347.288 346.873 346.448 346.028 345.345 344.79 344.048 342.93 343.103 344.355 344.925 345.323 345.75 346.07 346.215 346.453 346.68 346.77 346.853 346.915 346.953 346.995 347.02 346.993 346.908 346.55 346.218 345.96 345.948 345.878 345.743 345.695 345.783 346.093 346.18 346.08 345.768 345.783 345.555 345.36 345.335 345.338 345.158 345.113 345.095 345.253 345.358 345.405 345.258 345.148 345.035 345.015 344.938 345.078 345.425 345.438 345.56 345.558 345.63 345.785 345.878 345.815 345.643 345.555 345.708 345.755 345.655 345.645 345.76 345.898 345.995 346.128 346.258 346.373 346.578 346.603 346.6 346.548 346.333 346.303 346.35 346.375 346.405 346.343 346.293 346.308 346.37 346.465 346.413 346.385 346.358 346.178 345.923 345.71 345.773 345.848 345.835 345.578 345.343 345.03 344.72 344.615 344.58 344.59 344.848 345.23 345.22 345.158 345.025 345 345.01 344.948 344.938 345.068 345.183 345.305 345.305 345.37 345.365 345.768 345.383 345.265 345.258 345.188 345.003 344.785 344.745 344.863 344.835 344.74 344.59 344.495 344.32 344.09 343.89 343.643 343.315 343.038 342.668 342.288 341.808 341.153 340.383 339.59 338.61 337.75 336.893 336.278 336.04 336.105 336.165 336.125 335.65 335.678 335.7 335.585 335.718 336.065 336.515 336.753 336.75 336.728 336.588 336.478 336.29 336.14 336.11 336.073 335.998 335.92 335.953 335.9 335.79 335.743 335.425 335.253 335.11 335.198 334.988 335 334.865 334.78 334.908 334.813 334.79 334.773 334.735 334.77 334.82 335.003 335.09 335.108 335.075 335.085 335.123 335.383 335.398 335.468 335.53
357.768 356.12 355.023 361.865 364.088 361.293 361.86 362.255 364.223 365.578 364.318 360.123 363.313 364.473 364.02 363.573 358.173 363.315 365.46 363.33 361.058 357.595 363.438 366.35 365.72 364.188 364 361.95 355.28 359.288 364.44 363.215 355.315 358.548 364.188 363.108 364.838 366.14 362.04 354.808 366.68 365.16 360.84 364.628 364.778 363.585 360.63 350.805 346.32 347.4 349.76 351.223 357.125 359.868 363.368 365.3 359.345 360.135 363.855 363.378 363.96 363.808 363.85 362.99 361.228 366.278 366.773 365.325 363.655 366.678 367.58 367.708 365.68 366.923 368.153 369.033 367.798 364.695 365.283 367.588 367.785 368.415 367.965 362.558 362.685 367.81 366.93 367.038 368.773 367.525 366.23 366.595 360.535 364.07 366.463 361.243 368.31 365.873 364.358 366.683 366.97 368.158 365.528 362.903 366.808 367.983 364.91 362.108 364.975 361.768 361.213 355.578 357.945 362.445 358.393 353.46 353.478 353.483 351.323 350.338 350.273 350.115 349.943 349.738 349.523 349.525 349.388 349.148 348.965 348.875 348.738 348.695 348.428 348.45 348.328 348.243 348.295 348.423 348.45 348.608 348.685 348.735 348.713 348.865 348.813 348.835 348.878 348.953 349 348.928 348.7 348.39 348.268 348.435 348.633 348.67 348.568 348.475 348.378 348.428 348.608 348.82 348.995 349.193 349.283 349.315 349.188 349.118 349.193 349.193 349.133 349.073 349.033 348.983 348.785 348.583 348.213 347.718 347.19 346.675 346.22 345.61 345.088 344.12 343.133 343.718 344.755 345.333 345.903 346.4 346.665 346.823 347.1 347.17 347.27 347.293 347.308 347.498 347.575 347.613 347.588 347.458 347.198 346.995 346.883 346.8 346.66 346.643 346.56 346.61 346.74 346.818 346.708 346.558 346.32 346.2 346.08 346 346.048 345.978 345.94 345.85 345.983 346.1 346.115 345.953 345.805 345.763 345.685 345.628 345.685 345.893 345.98 346.123 346.098 346.183 346.318 346.39 346.34 346.138 346.073 346.11 346.123 346.228 346.218 346.338 346.375 346.51 346.655 346.793 346.963 347.108 347.135 347.215 347.11 346.878 346.935 346.888 346.875 346.943 346.908 346.788 346.788 346.888 347.008 346.98 347.01 346.915 346.773 346.57 346.473 346.43 346.453 346.48 346.138 345.658 345.308 345.155 345.113 345.083 345.118 345.183 345.11 345.323 345.773 345.795 345.93 345.69 345.393 345.32 345.21 345.333 345.6 345.708 345.753 345.818 346.223 345.793 345.703 345.7 345.608 345.485 345.258 345.203 345.265 345.278 345.17 344.97 344.86 344.803 344.638 344.413 344.21 343.938 343.653 343.325 342.99 342.535 342.005 341.31 340.52 339.468 338.685 337.718 336.873 336.435 336.375 336.41 336.315 335.935 336.335 336.373 336.508 337.068 336.615 336.933 337.143 337.208 337.12 336.978 336.918 336.658 336.635 336.618 336.53 336.495 336.425 336.418 336.393 336.308 336.173 336.048 335.883 335.718 335.623 335.515 335.548 335.42 335.3 335.265 335.223 335.22 335.265 335.243 335.24 335.26 335.325 335.335 335.425 335.48 335.568 335.638 335.753 335.785 335.86 336.01
353.43 356.703 356.043 354.218 363.6 362.148 355.13 356.703 363.76 365.94 365.53 365.708 366.41 364.958 362.54 364.45 357.938 364.065 365.308 365.993 364.535 363.453 359.158 361.908 360.7 365.515 365.353 364.3 356.348 361.02 367.13 365.445 360.065 358.695 362.55 363.64 363.868 362.98 365.155 363.318 360.348 363.488 356.735 364.78 364.353 362.24 353.038 348.238 346.788 346.985 347.965 350.538 358.555 366.275 365.72 364.215 362.738 363.545 364.943 362.683 363.418 363.148 365.615 361.885 359.29 367.035 367.16 368.875 363.793 362.363 365.44 364.965 364.958 368.028 360.728 368.748 368.145 368.365 366.693 368.405 369.45 368.678 368.95 368.858 365.728 357.32 362.19 364.058 365.76 366.45 364.173 364.79 360.858 367.508 365.203 366.018 367.008 358.123 366.288 368.055 368.255 366.808 368.173 368.238 366.653 364.86 363.933 367.19 365.895 365.723 360.258 364.475 363.695 362.075 359.435 354.983 353.633 351.64 350.883 350.818 350.713 350.503 350.363 350.098 349.998 349.868 349.718 349.593 349.403 349.28 349.143 349.008 348.845 348.878 348.703 348.79 348.715 348.843 348.93 349.035 349.11 349.083 349.025 349.083 349.173 349.313 349.338 349.383 349.43 349.515 349.35 349.033 348.835 348.738 348.913 348.95 348.843 348.828 348.878 349.09 349.36 349.6 349.723 349.835 349.873 349.888 349.768 349.68 349.665 349.713 349.7 349.68 349.588 349.493 349.255 349.058 348.663 348.123 347.465 346.928 346.39 345.838 345.313 344.218 343.745 344.428 345.275 345.888 346.503 347.078 347.328 347.443 347.578 347.43 347.565 346.89 347.065 347.533 347.945 348.073 348.078 347.99 347.778 347.693 347.665 347.533 347.41 347.375 347.31 347.41 347.428 347.413 347.39 347.093 346.795 346.713 346.918 346.71 346.68 346.683 346.655 346.635 346.678 346.795 346.705 346.59 346.478 346.395 346.31 346.25 346.303 346.295 346.52 346.67 346.68 346.693 346.83 346.888 346.84 346.678 346.678 346.635 346.605 346.635 346.7 346.855 346.98 347.013 347.188 347.448 347.563 347.683 347.74 347.8 347.655 347.338 347.443 347.393 347.418 347.545 347.49 347.328 347.268 347.423 347.543 347.518 347.52 347.438 347.308 347.193 347.168 347.023 346.993 346.97 346.753 346.213 345.76 345.635 345.72 345.723 345.743 345.78 345.7 345.66 345.648 345.728 345.943 346.228 346.24 346.25 345.78 345.443 345.838 346.07 346.135 346.165 346.61 346.26 346.133 346.088 346.02 345.925 345.75 345.688 345.653 345.65 345.565 345.418 345.293 345.228 345.108 344.915 344.753 344.528 344.258 343.983 343.648 343.288 342.833 342.098 341.263 340.32 339.343 338.465 337.49 336.925 336.683 336.613 336.398 336.138 336.513 336.693 336.973 337.753 337.243 337.475 337.66 337.635 337.563 337.403 337.34 337.93 337.15 337.028 337.065 337.015 337.015 336.968 336.91 336.845 336.86 336.755 336.525 336.353 336.11 336.01 335.93 335.853 335.79 335.86 335.815 335.753 335.748 335.735 335.74 335.743 335.765 335.733 335.703 335.708 335.88 336.003 336.108 336.24 336.225 336.413
353.793 354.023 353.528 356.798 363.443 365.583 362.543 363.308 365.74 366.423 366.105 365.558 366.34 363.45 363.138 365.013 359.313 364.143 365.768 361.975 361.555 364.615 360.158 366.075 364.078 364.288 366.255 360.575 356.533 357.86 363.275 367.828 362.593 354.778 358.843 362.745 365.318 366.535 367.29 362.91 358.695 357.025 363.193 365.798 365.543 360.265 355.94 350.223 347.515 347.26 348.3 351.393 360.093 363.203 359.968 360.993 353.74 365.143 365.903 364.425 364.863 366.368 366.84 366.325 365.198 366.373 360.175 365.323 361.785 361.793 368.198 365.188 366.348 368.393 369.015 369.635 366.048 368.783 370.22 369.69 367.92 369.863 367.488 368.92 367.27 362.438 367.688 368.593 368.563 360.26 357.683 360.875 368.285 367.968 364.983 362.018 367.578 366.38 367.08 368.413 369.49 362.47 366.923 367.915 359.188 354.403 365.945 367.755 361.763 365.45 365.958 364.66 365.313 360.683 360.22 364.433 358.295 353.063 351.333 351.3 351.095 350.945 350.745 350.48 350.318 350.333 350.15 350.015 349.903 349.78 349.575 349.46 349.258 349.205 349.113 349.233 349.275 349.305 349.465 349.49 349.56 349.403 349.378 349.505 349.608 349.628 349.728 349.758 349.825 349.893 349.913 349.758 349.495 349.313 349.333 349.37 349.228 349.273 349.493 349.85 350.173 350.293 350.353 350.373 350.448 350.378 350.28 350.233 350.188 350.25 350.248 350.188 350.085 349.988 349.763 349.533 349.073 348.405 347.743 347.135 346.59 346.038 345.068 344.225 344.143 345.085 345.735 346.42 347.083 347.693 347.925 348.11 348.205 348.058 348.073 347.63 347.5 348.068 348.383 348.5 348.46 348.388 348.295 348.263 348.258 348.118 348.025 347.978 347.98 347.945 347.905 347.863 347.85 347.61 347.193 347.248 347.17 347.07 346.785 347.01 347.195 347.325 347.455 347.473 347.423 347.298 347.18 347.118 346.97 346.903 346.878 346.785 346.958 347.258 347.278 347.328 347.358 347.37 347.258 347.228 347.263 347.245 347.135 347.193 347.253 347.27 347.458 347.628 347.745 347.975 348.178 348.323 348.42 348.435 348.12 347.683 347.82 347.803 347.95 348.04 348.033 347.948 347.913 348.03 348.093 348.095 348.07 348.005 347.89 347.803 347.715 347.635 347.48 347.418 347.215 346.915 346.58 346.34 346.4 346.31 346.235 346.228 346.133 346.085 346.003 345.96 346.093 346.148 346.23 346.283 346.308 346.393 346.363 346.378 346.503 346.573 346.843 346.668 346.533 346.528 346.583 346.328 346.25 346.123 346.038 346.015 345.958 345.855 345.773 345.675 345.61 345.473 345.288 345.075 344.833 344.563 344.263 344.008 343.55 342.853 341.985 341.048 340.02 339.068 338.125 337.423 337.063 336.86 336.655 336.285 336.47 337.103 337.38 337.743 337.925 338.188 338.238 338.215 338.148 337.913 337.88 337.94 337.735 337.663 337.525 337.515 337.555 337.528 337.445 337.363 337.343 337.243 337.145 336.98 336.8 336.598 336.37 336.308 336.295 336.213 336.32 336.348 336.318 336.225 336.243 336.238 336.22 336.208 336.175 336.18 336.178 336.23 336.328 336.575 336.743 336.915
362.298 357.03 352.568 357.663 364.64 366.133 362.083 366.605 367.115 365.65 366.468 363.045 363.04 364.413 361.125 361.32 362.335 364.543 365.733 365.388 366.993 367.29 363.713 367.23 366.675 366.11 367.763 364.858 365.33 359.038 363.323 367.275 363.608 359.81 363.31 364.55 364.583 366.648 367.8 365.875 365.673 363.65 362.135 365.248 360.99 367.78 363.275 355.32 348.623 348.263 351.435 349.988 353.268 356.31 362.94 366.773 362.36 365.363 364.905 365.068 366.89 362.63 364.583 366.893 368.138 367.873 362.55 366.293 364.248 364.415 368.718 369.65 364.945 366.798 367.165 369.11 367.375 366.655 369.525 366.65 368.543 361.233 366.193 370.41 368.553 363.968 367.008 368.318 369.185 360.003 368.528 368.16 361.905 365.893 369.175 369.513 369.183 367.998 364.715 366.278 368.475 368.42 368.038 368.948 364.813 363.91 367.725 366.79 364.545 368.04 366.168 357.923 364.363 366.405 365.785 365.525 358.38 352.513 351.738 351.648 351.41 351.138 351.108 350.84 350.63 350.628 350.488 350.423 350.375 350.21 350.073 349.91 349.78 349.985 349.648 349.708 349.773 349.808 349.898 349.878 349.895 349.885 349.815 349.888 349.955 349.965 350.048 350.145 350.2 350.255 350.325 350.343 350.2 349.92 349.785 349.855 349.873 350.043 350.32 350.59 350.74 350.813 350.755 350.808 350.85 350.858 350.803 350.75 350.723 350.795 350.785 350.713 350.593 350.405 350.14 349.973 349.563 348.693 348.015 347.353 346.693 345.718 344.865 344.638 345.038 345.455 346.12 346.933 347.678 348.278 348.53 348.778 348.853 348.865 348.783 348.613 348.61 348.778 348.94 348.99 348.91 348.838 348.8 348.82 348.773 348.613 348.593 348.53 348.493 348.465 348.413 348.373 348.365 348.298 348.028 347.88 347.83 347.66 347.56 347.543 347.258 347.798 348.053 348.138 348.095 348.013 347.933 347.815 347.7 347.608 347.63 347.72 347.67 347.885 347.893 347.95 347.933 347.848 347.808 347.768 347.755 347.738 347.73 347.765 347.855 347.89 348.018 348.163 348.378 348.553 348.733 348.92 349.008 348.945 348.493 348.193 348.28 348.275 348.453 348.528 348.565 348.508 348.458 348.538 348.61 348.66 348.65 348.615 348.56 348.52 348.398 348.223 348.098 347.958 347.788 347.563 347.313 347.208 347.075 346.855 346.715 346.68 346.253 346.538 346.515 346.463 346.528 346.605 346.665 346.573 346.48 346.595 346.765 347.08 346.993 346.923 347.233 347 346.91 347.013 347.083 346.82 346.738 346.565 346.43 346.365 346.345 346.298 346.245 346.135 346.093 345.983 345.825 345.65 345.398 345.153 344.928 344.63 344.185 343.508 342.705 341.755 340.755 339.595 338.59 337.855 337.4 337.118 336.89 336.538 336.675 337.585 337.863 338.175 338.578 338.76 338.808 338.753 338.723 338.568 338.443 338.498 338.413 338.298 338.043 338.045 338.025 338.083 337.995 337.918 337.955 337.785 337.728 337.533 337.32 337.165 336.965 336.798 336.745 336.753 336.775 336.798 336.823 336.795 336.825 336.81 336.688 336.66 336.668 336.675 336.64 336.708 336.735 336.803 336.923 337.165
364.565 360.753 351.575 355.35 362.335 367.31 365.803 367.928 365.505 366.12 367.003 366.303 366.09 364.465 364.828 363.493 364.82 364.745 361.333 356.858 361.9 368.563 366.348 366.968 366.48 368.55 364.035 359.268 364.418 357.373 362.558 366.275 363.713 362.42 365.81 362.325 362.378 362.895 360.505 361.075 363.518 367.21 363.02 364.795 366.163 368.213 363.405 352.44 350.59 351.428 358.25 353.453 353.31 362.24 363.038 362.758 362.918 362.498 364.168 364.47 361.735 367.498 365.958 364.28 369.11 368.38 367.553 368.048 367.963 368.978 364.645 368.018 365.708 369.195 368.28 364.723 368.903 370.3 367.225 360.375 368.185 370.413 366.378 367.405 368.053 361.358 368.575 370.883 368.44 358.523 366.735 369.985 366.458 367.023 369.583 366.223 368.818 369.835 367.78 369.473 367.618 362.2 366.023 367.835 367.178 366.463 367.765 367.47 369.063 365.558 359.735 359.72 367.15 367.318 366.818 366.015 361.645 353.293 352.17 351.933 351.703 351.638 352.788 351.258 351.04 351.083 350.868 350.848 350.798 350.703 350.558 350.39 350.385 350.253 350.183 350.148 350.14 350.178 350.28 350.323 350.308 350.278 350.223 350.23 350.288 350.298 350.393 350.583 350.65 350.655 350.735 350.818 350.828 350.798 350.665 350.535 350.683 350.915 351.053 351.18 351.293 351.318 351.293 351.268 351.378 351.365 351.305 351.298 351.293 351.325 351.285 351.218 351.065 350.803 350.6 350.248 349.715 348.92 348.27 347.513 346.358 345.12 344.963 345.435 345.87 346.108 346.668 347.468 348.168 348.87 349.163 349.313 349.453 349.603 349.53 349.465 349.41 349.53 349.565 349.535 349.44 349.36 349.395 349.365 349.27 349.11 349.073 349.058 349.028 348.948 348.873 348.853 348.828 348.805 348.398 347.81 348.415 348.41 348.448 348.195 347.62 348.23 348.678 348.74 348.708 348.628 348.608 348.518 348.395 348.295 348.198 348.218 348.165 348.378 348.495 348.51 348.49 348.473 348.505 348.403 348.385 348.355 348.375 348.423 348.43 348.533 348.75 348.86 349.098 349.215 349.24 349.448 349.57 349.448 349.118 348.78 348.943 349.008 349.028 349.1 349.098 348.98 348.958 349.073 349.16 349.19 349.25 349.235 349.215 349.165 349.058 348.893 348.708 348.53 348.33 348.143 347.968 347.785 347.668 347.53 347.32 347.23 347.02 347.04 346.995 346.838 346.833 346.963 347.158 347.035 346.93 346.825 346.825 347.018 347.458 347.628 347.823 347.228 347.193 347.405 347.445 347.163 347.103 347.015 346.95 346.805 346.768 346.755 346.72 346.618 346.54 346.48 346.37 346.173 345.943 345.673 345.435 345.14 344.673 344.123 343.41 342.443 341.44 340.258 339.098 338.215 337.7 337.443 337.058 336.66 337.358 337.915 338.303 338.66 339.125 339.365 339.383 339.328 339.293 339.24 339.198 339.138 339.083 338.86 338.633 338.55 338.525 338.56 338.538 338.525 338.535 338.348 338.288 338.14 337.898 337.7 337.488 337.418 337.39 337.393 337.353 337.403 337.46 337.39 337.368 337.35 337.29 337.283 337.233 337.165 337.183 337.29 337.328 337.353 337.345 337.473
366.655 364.373 363.143 362.75 362.603 366.375 366.483 367.815 365.945 364.49 366.54 366.115 365.985 361.523 357.483 360.07 365.55 366.173 361.918 361.47 359.708 364.613 362.815 362.338 367.64 365.215 359.883 364.893 363.148 357.065 357.538 361.62 360.488 363.398 366.855 365.918 368.55 364.088 362.313 368.26 365.365 367.813 365.905 365.9 369.418 367.068 358.645 350.848 351.393 350.285 349.333 350.105 354.038 362.918 365.935 363.098 355.69 355.295 364.878 364.943 363.118 364.78 364.845 364.468 365.098 364.403 366.05 368.41 358.08 363.06 367.025 362.595 365.808 368.96 367.373 370 370.563 370.765 369.438 369.765 369.978 368.43 365.59 366.313 371.828 370.678 369.675 371.27 367.018 357.753 368.975 369.628 368.22 362.125 368.09 369.755 371.053 369.548 370.305 370.728 368.338 368.19 369.838 370.623 367.355 364.893 367.323 368.333 368.133 359.805 365.613 368.418 366.443 368.373 364.683 363.74 358.633 353.728 352.655 352.303 352.13 354.13 354.163 351.62 351.57 351.468 351.265 351.218 351.165 351.138 351.108 350.87 350.985 350.763 350.7 350.64 350.63 350.73 350.788 350.753 350.723 350.658 350.588 350.61 350.663 350.7 350.773 350.773 350.873 351.05 351.078 351.175 351.238 351.343 351.398 351.45 351.525 351.58 351.635 351.738 351.808 351.84 351.843 351.883 351.923 351.87 351.863 351.848 351.863 351.865 351.77 351.703 351.573 351.255 351.08 350.463 349.765 349.06 348.38 347.345 345.718 345.398 345.703 346.21 346.295 346.723 347.32 348.113 348.81 349.4 349.623 349.898 350.08 350.17 350.213 350.243 350.21 350.263 350.233 350.175 349.98 349.915 349.975 349.918 349.745 349.555 349.633 349.593 349.543 349.408 349.345 349.318 349.303 349.288 349.07 348.768 349.03 349.083 349.003 348.903 348.97 349.148 349.225 349.368 349.408 349.435 349.368 349.203 349.07 349.008 348.955 348.738 348.678 348.948 349.013 349.053 348.948 349.093 349.113 349.035 349.013 349.033 349.043 349.088 349.098 349.238 349.435 349.498 349.658 349.835 349.938 350.053 350.025 350.005 349.883 349.708 349.668 349.673 349.633 349.675 349.648 349.508 349.51 349.66 349.688 349.73 349.8 349.84 349.8 349.763 349.683 349.535 349.33 349.143 348.928 348.66 348.318 348.425 348.273 348.11 347.91 347.778 347.688 347.613 347.405 347.118 347.093 347.385 347.665 347.6 347.575 347.343 347.17 347.118 347.285 347.258 347.44 347.798 347.77 347.738 347.613 347.54 347.498 347.438 347.433 347.348 347.208 347.163 347.123 347.055 347.043 346.933 346.825 346.698 346.513 346.21 345.92 345.62 345.2 344.628 343.908 342.998 341.923 340.758 339.618 338.595 337.998 337.68 337.035 337.023 337.833 338.365 338.763 339.25 339.64 339.853 339.898 339.903 339.883 339.833 339.825 339.748 339.635 339.488 339.318 339.235 339.19 339.123 339.118 339.09 339.248 338.958 338.978 338.905 338.658 338.423 338.198 338.128 338.103 338.055 338.555 338.018 338.065 337.983 337.945 337.963 337.905 337.845 337.835 337.79 337.89 337.89 337.878 337.92 338.015 338.075
364.465 364.563 365.995 366.318 363.905 361.17 363.103 366.945 366.638 362.395 364.98 365.73 366.46 362.963 358.18 362.898 367.22 367.758 363.53 367.255 365.945 367.833 361.37 360.77 367.405 362.883 361.97 364.933 366.935 364.885 359.46 368.463 366.843 366.343 368.375 359.463 366.753 367.14 365.133 368.13 366.07 366.135 365.853 364.07 368.403 364.665 360.613 360.895 358.33 348.698 349.333 351.36 352.76 363.485 367.528 366.103 363.073 360.645 367.245 365.27 364.678 364.095 365.045 367.743 366.788 367.113 368.133 368.558 362.468 363.325 370.08 368.765 368.588 369.215 368.043 368.533 361.995 366.573 370.53 368.743 366.735 359.17 362.118 370.55 370.32 361.975 366.543 365.44 366.025 363.423 367.673 367.518 360.285 368.3 369.61 369.128 367.743 363.905 365.045 369.733 369.495 370.548 371.413 370.463 368.885 367.55 369.845 369.72 362.693 364.888 365.483 367.795 365.96 366.903 363.74 357.793 354.325 356.38 354.915 353.665 352.628 352.6 352.238 351.955 351.888 351.758 351.633 351.625 351.63 351.563 351.468 351.378 351.42 351.298 351.173 351.13 351.18 351.265 351.268 351.178 351.148 351.08 351.01 350.993 351.068 351.043 351.06 351.105 351.188 351.298 351.4 351.53 351.553 351.675 351.783 351.863 351.96 352.063 352.123 352.2 352.278 352.313 352.353 352.378 352.433 352.385 352.418 352.41 352.458 352.438 352.333 352.185 352 351.615 351.295 350.548 349.79 349.185 348.303 346.688 345.63 346.31 346.8 346.598 346.73 347.265 347.693 348.663 349.405 349.898 350.155 350.44 350.635 350.855 350.903 350.905 350.915 350.898 350.818 350.738 350.58 350.533 350.55 350.443 350.213 350.08 350.095 350.088 350.05 349.988 349.913 349.818 349.758 349.735 349.688 349.62 349.728 349.735 349.705 349.608 349.523 349.745 350.033 350.15 350.13 350.165 350.063 349.908 349.775 349.718 349.633 349.428 349.4 349.613 349.58 349.595 349.648 349.715 349.67 349.65 349.6 349.615 349.69 349.745 349.823 349.83 349.988 350.1 350.188 350.36 350.515 350.578 350.543 350.43 350.313 350.295 350.365 350.31 350.265 350.265 350.258 350.145 350.1 350.233 350.258 350.295 350.35 350.41 350.395 350.35 350.293 350.275 350.083 349.858 349.563 349.113 348.723 349.14 348.975 348.715 348.365 348.083 348.138 348.145 347.858 347.535 347.61 347.878 348.148 348.113 348.063 347.853 347.708 347.72 347.698 347.455 347.488 347.57 347.835 348.31 347.978 347.945 347.873 347.81 347.843 347.78 347.688 347.57 347.51 347.478 347.493 347.465 347.298 347.145 346.963 346.728 346.43 346.143 345.71 345.073 344.273 343.348 342.243 341.11 339.958 338.868 338.275 338.168 337.35 337.265 338.483 338.95 339.555 339.985 340.248 340.49 340.513 340.463 340.485 340.455 340.375 340.255 340.258 340.093 339.98 339.97 339.893 339.798 339.64 339.733 339.728 339.58 339.62 339.498 339.413 339.32 339.015 338.96 338.858 338.808 338.748 338.773 338.69 338.6 338.565 338.618 338.64 338.563 338.478 338.483 338.523 338.535 338.508 338.568 338.565 338.733
353.52 362.375 365.77 367.318 366.65 358.665 354.32 361.648 366.035 366.628 363.435 366.528 366.078 365.79 366.01 366.083 367.115 364.47 366.378 367.973 368.04 368.795 367.18 367.53 369.085 367.513 369.133 364.978 365.258 361.96 357.293 365.283 366.663 365.018 367.873 366.53 368.348 369.15 370.253 367.753 365.35 369.09 368.195 367.063 369.208 367.878 362.433 351.793 355.153 355.34 354.605 358.088 351.66 362.355 367.045 367.115 366.048 367.623 366.013 361.275 361.283 365.61 368.198 367.705 368.67 368.088 363.605 365.72 368.463 368.143 369.52 369.668 362.813 359.935 361.21 367.658 366.888 361.748 369.945 368.45 371.143 372.355 368.118 364.908 370.85 366.573 370.95 368.493 371.015 372.435 370.178 369.62 371.395 369.815 367.758 364.77 370.13 369.423 370.505 368.66 368.6 369.583 365.518 366.478 370.158 371.225 367.345 365.838 366.42 364.993 359.948 361.428 358.685 359.333 358.078 354.285 358.033 363.008 364.57 359.84 353.148 352.923 352.785 352.573 352.383 352.218 352.08 352.115 352.06 351.978 351.87 351.735 351.895 351.645 351.635 351.643 351.703 351.703 351.678 351.655 351.578 351.55 351.438 351.398 351.42 351.413 351.448 351.51 351.588 351.713 351.785 351.93 351.95 352.098 352.21 352.255 352.363 352.525 352.583 352.653 352.725 352.778 352.848 352.935 352.975 352.975 353.05 353.16 353.045 352.94 352.708 352.608 352.335 351.9 351.255 350.528 349.75 348.98 348.128 346.69 346.065 347.133 347.318 347.243 347.535 348.273 348.395 348.78 349.953 350.62 350.815 351.073 351.158 351.415 351.488 351.485 351.453 351.433 351.34 351.273 351.183 351.088 351.108 350.908 350.795 350.695 350.653 350.62 350.573 350.47 350.4 350.278 350.245 350.268 350.32 350.328 350.35 350.425 350.425 350.4 350.388 350.458 350.518 350.648 350.895 350.95 350.778 350.645 350.443 350.343 350.195 350.08 350.103 350.105 350.04 350.253 350.338 350.29 350.298 350.318 350.265 350.22 350.368 350.395 350.44 350.545 350.558 350.69 350.78 350.92 351.015 351.015 350.998 350.94 350.83 350.68 350.728 350.81 350.878 350.815 350.838 350.75 350.71 350.843 350.863 350.89 350.953 350.99 350.985 350.94 350.873 350.8 350.673 350.43 350.235 349.923 349.843 349.728 349.565 349.233 348.858 348.535 348.585 348.64 348.393 348.155 348.233 348.458 348.553 348.558 348.51 348.41 348.313 348.42 348.17 347.918 347.843 348.073 347.96 347.68 348.048 348.515 348.553 348.443 348.298 348.238 348.125 347.998 347.91 347.855 347.858 347.86 347.77 347.633 347.4 347.203 346.955 346.615 346.07 345.413 344.495 343.405 342.215 341.215 340.085 339.065 338.575 338.655 337.533 338.8 339.218 339.773 340.455 340.813 341.07 341.07 341.063 341.088 341.043 341.003 340.993 340.845 340.845 340.625 340.62 340.55 340.533 340.33 340.208 340.215 340.158 340.13 340.07 340.015 340.013 339.835 339.67 339.665 339.67 339.558 339.518 339.435 339.363 339.323 339.278 339.303 339.305 339.205 339.138 339.085 339.145 339.188 339.223 339.3 339.313 339.318
349.98 359.043 356.19 361.513 365.528 361.29 358.003 361.32 365.363 366.348 362.878 367.51 366.235 366.27 368.128 365.353 367.343 366.593 367.96 368.565 362.605 369.233 367.323 368.363 368.398 366.985 366.343 364.365 366.798 367.385 359.798 366.603 369.253 367.763 369.59 368.273 367.95 364.698 365.55 366.4 363.14 365.433 365.775 359.89 369.198 369.018 366.268 356.38 357.918 363.65 352.493 355.828 351.925 360.945 365.003 366.405 368.655 367.84 365.023 357.523 359.108 363.083 367.2 367.305 367.213 369.253 365.983 363.64 366.665 371.02 368.825 367.268 364.28 370.705 370.575 367.07 370.868 370.248 371.175 365.21 371.388 370.78 368.553 370.555 369.045 369.9 372.473 371.068 362.733 366.993 371.378 366.925 368.693 369.525 367.868 364.13 371.415 365.665 368.123 360.758 365.768 370.653 370.598 369.718 369.41 370.345 368.005 368.63 369.795 364.828 362.968 367.82 365.953 361.378 355.605 355.005 360.333 364.848 369.21 364.495 355.52 353.333 354.885 353.575 352.81 352.668 352.605 352.493 352.44 352.34 352.235 352.158 352.165 352.143 352.148 352.12 352.175 352.223 352.135 352.078 352.005 351.933 351.85 351.858 351.885 351.903 351.968 351.98 352.058 352.163 352.293 352.303 352.405 352.533 352.62 352.673 352.82 352.943 353.025 353.123 353.18 353.265 353.393 353.56 353.508 353.538 353.493 353.395 353.435 353.403 353.233 353.05 352.71 352.148 351.338 350.483 349.783 349.145 347.958 346.835 346.905 347.578 347.615 348.078 348.503 348.978 349.665 349.735 350.528 351.35 351.548 351.685 351.725 351.998 352.08 352.075 352.03 351.963 351.903 351.833 351.73 351.668 351.595 351.433 351.39 351.3 351.198 351.085 351.008 350.973 350.93 350.868 350.86 350.768 350.848 350.918 350.945 351 351.053 351.13 351.093 351.108 351.213 351.315 351.4 351.368 351.47 351.393 351.195 350.993 350.845 350.778 350.753 350.873 350.878 350.955 351.02 350.97 350.955 350.925 350.905 350.893 350.94 351.013 351.028 351.165 351.193 351.248 351.38 351.435 351.458 351.495 351.498 351.45 351.23 350.955 351.09 351.245 351.308 351.343 351.533 351.413 351.34 351.353 351.468 351.525 351.56 351.57 351.558 351.583 351.49 351.405 351.243 351.045 350.885 350.73 350.44 350.285 350.125 349.908 349.578 349.34 349.34 349.25 348.973 348.97 348.94 349.003 349.02 349.02 349.038 348.978 348.823 348.863 348.73 348.568 348.513 348.705 348.39 348.1 348.178 348.228 348.32 348.663 348.988 349.02 348.555 348.425 348.305 348.263 348.26 348.243 348.255 348.11 347.918 347.688 347.383 346.97 346.42 345.618 344.785 343.535 342.31 341.02 340.033 339.155 338.655 338.168 337.593 338.448 339.685 340.41 341.025 341.45 341.643 341.743 341.658 341.65 341.658 341.625 341.6 341.43 341.313 341.16 341.153 340.968 340.948 340.935 340.763 340.603 340.643 340.53 340.5 340.478 340.568 340.45 340.353 340.35 340.355 340.295 340.198 340.125 340.068 340.005 339.943 339.895 339.95 339.975 339.943 339.87 339.933 339.948 339.91 339.988 340.025 339.97
350.003 350.778 352.143 354.888 365.808 366.388 365.638 364.93 365.775 365.06 366.23 366.148 365.97 363.615 362.708 357.44 363.098 368.608 368.36 366.103 367.355 367.735 363.985 361.413 366.663 363.205 364.56 362.323 365.398 368.578 365.263 362.76 368.69 367.658 367.118 362.738 366.31 357.773 365.758 369.14 367.71 362.853 361.448 361.978 369.705 369.945 369.08 365.79 356.963 355.663 349.898 349.57 351.425 352.62 364.338 367.72 367.76 364.725 362.63 360.835 365.128 356.503 365.433 368.763 365.938 367.883 366.008 366.735 369.995 369.693 367.448 371.435 369.915 370.673 369.04 368.713 371.083 371.153 367.945 367.735 372.588 368.755 369.623 372.655 371.748 372.375 369.31 371.72 366.585 366.985 370.793 363.633 361.158 369.07 371.868 370.343 372.183 371.33 371.485 368.838 371.323 371.813 371.163 368.708 370.53 368.81 371.795 370.388 366.385 364.065 370.508 368.998 369.675 365.015 357.88 359.44 363.953 363.16 365.47 361.673 360.24 356.428 355.898 354.473 353.325 353.168 353.055 352.953 352.92 352.848 352.658 352.678 352.65 352.63 352.648 352.63 352.683 352.72 352.7 352.55 352.458 352.383 352.265 352.298 352.353 352.358 352.345 352.455 352.565 352.67 352.77 352.818 352.858 352.968 353.073 353.215 353.32 353.408 353.533 353.653 353.708 353.81 353.933 353.97 354 353.97 354.055 354.048 353.998 353.825 353.593 353.395 353.038 352.27 351.35 350.578 349.598 348.87 347.703 346.925 347.548 348.15 348.29 348.81 349.378 350.013 350.435 350.793 350.98 351.815 352.288 352.325 352.355 352.645 352.66 352.62 352.59 352.525 352.455 352.388 352.313 352.193 352.118 352.005 351.973 351.895 351.818 351.628 351.488 351.423 351.45 351.355 351.365 351.345 351.4 351.38 351.423 351.525 351.655 351.703 351.783 351.83 351.895 351.945 352.018 351.883 351.958 351.808 351.835 351.783 351.645 351.35 351.32 351.435 351.365 351.403 351.528 351.615 351.528 351.46 351.445 351.485 351.475 351.525 351.61 351.795 351.858 351.9 351.968 351.993 351.905 351.81 351.775 351.793 351.693 351.618 351.655 351.765 351.81 351.845 351.958 351.973 351.975 351.993 352.108 352.17 352.15 352.128 352.165 352.115 352.025 352.013 351.963 351.715 351.555 351.35 351.148 350.948 350.763 350.58 350.368 350.188 350.055 349.705 348.693 348.955 349.518 349.488 349.465 349.453 349.515 349.468 349.413 349.338 349.173 349.343 349.288 349.18 348.893 348.71 348.59 348.203 348.218 348.675 348.873 348.96 349.205 349.305 348.698 348.648 348.648 348.683 348.658 348.523 348.345 348.098 347.73 347.193 346.65 345.998 345.018 343.918 342.355 341.515 340.12 339.305 338.56 338.025 338.05 339.37 340.368 341.175 341.818 342.043 342.245 342.368 342.358 342.27 342.225 342.178 342.143 342.02 341.868 341.68 341.588 341.578 341.533 341.498 341.3 341.195 341.113 341.073 341.12 341.048 341.03 341.073 341.145 341.035 341.05 340.953 340.91 340.905 340.748 340.663 340.68 340.715 340.735 340.788 340.7 340.658 340.623 340.66 340.688 340.698 340.673 340.645
350.365 350.86 352.48 358.845 366.718 366.473 366.123 363.435 356.873 360.855 366.683 366.355 365.89 365.6 362.96 359.775 362.493 368.15 368.64 367.465 367.448 364.35 363.225 365.398 367.215 364.428 361.783 360.413 366.63 370.64 366.483 365.91 369.545 370.51 368.575 369.515 369.448 367.61 369.42 369.598 369.188 359.438 366.82 370.733 370.005 370.583 370.55 366.545 360.185 351.153 350.265 349.85 350.023 350.875 356.588 363.083 363.24 359.605 352.023 362.938 366.348 362.57 364.728 365.228 360.89 363.99 366.75 369.893 370.313 370.783 371.003 371.493 370.29 369.385 367.6 366.61 367.853 371.953 368.168 369.495 370.95 369.238 371.335 371.033 371.65 367.733 368.77 372.02 371.305 370.32 371.75 365.61 370.11 372.52 371.74 371.91 373.09 372.403 371.915 373.505 372.23 372.555 371.763 367.14 361.24 367.748 371.113 371.023 368.983 369.36 370.633 366.89 364.493 363.245 360.658 366.115 368.635 364.665 361.065 361.533 367.853 364.213 361.795 354.06 353.755 353.568 353.545 353.415 353.393 353.303 353.14 353.095 353.168 353.16 353.158 353.178 353.243 353.233 353.165 353.033 352.958 352.838 352.728 352.743 352.82 352.843 352.823 352.94 353.055 353.173 353.28 353.378 353.428 353.483 353.663 353.74 353.795 353.908 354.085 354.145 354.273 354.268 354.343 354.468 354.565 354.585 354.623 354.605 354.52 354.285 353.98 353.708 353.28 352.338 351.408 350.45 348.965 347.925 347.358 347.36 348.288 348.663 349.073 349.77 350.393 350.93 351.403 351.773 352.148 352.295 352.75 352.943 352.87 353.165 353.205 353.153 353.088 353.01 353 352.918 352.878 352.75 352.65 352.52 352.498 352.43 352.335 352.233 352.095 352.003 351.91 351.848 351.763 351.795 351.895 351.923 352.01 352.078 352.25 352.305 352.353 352.425 352.53 352.563 352.47 352.43 352.458 352.403 352.343 352.265 352.265 352.06 352.118 352.003 351.968 351.915 352.008 352.058 352.043 352.025 352.008 352.065 352.103 352.108 352.213 352.325 352.385 352.398 352.333 352.328 352.25 352.06 351.93 351.935 351.965 352.103 352.288 352.343 352.423 352.473 352.568 352.578 352.51 352.638 352.77 352.758 352.765 352.76 352.793 352.73 352.67 352.6 352.603 352.373 352.123 352.065 351.875 351.663 351.48 351.265 351.11 350.918 350.648 350.015 349.223 349.425 350.158 350.068 350.023 350.015 349.938 349.903 349.943 349.75 349.59 349.753 349.723 349.59 349.338 349.253 348.788 348.108 348.028 348.698 349.07 349.093 349.045 349.038 349.298 349.44 349 349.053 349.03 349.03 348.725 348.438 348.068 347.57 346.975 346.485 345.703 344.195 343.133 341.373 340.373 339.373 338.403 338.038 338.86 339.87 341.023 341.94 342.523 342.75 342.88 342.92 342.973 342.91 342.788 342.713 342.693 342.633 342.5 342.338 342.253 342.16 342.135 341.983 341.863 341.773 341.718 341.805 341.803 341.713 341.768 341.833 341.803 341.78 341.828 341.81 341.74 341.64 341.645 341.485 341.388 341.345 341.423 341.485 341.47 341.43 341.393 341.438 341.5 341.428 341.38 341.373
354.565 351.425 351.268 357.973 361.595 365.963 366.865 368.475 361.783 361.985 367.685 366.675 364.58 361.958 367.07 367.418 367.055 366.69 366.6 364.913 360.773 364.448 368.173 367.41 367.933 368.803 367.218 363.273 363.865 364.325 362.065 360.555 366.27 368.328 366.988 365.023 369.418 370.845 368.97 369.338 370.14 368.465 368.558 369.41 370.018 369.005 367.685 368.14 364.65 358.018 353.643 353.3 352.793 352.55 352.378 356.848 355.333 353.453 351.988 355.508 358.933 364.505 370.42 368.93 365.715 370.498 366.9 366.185 368.62 370.165 367.843 366.655 368.455 369.005 371.073 371.84 373.045 372.755 369.43 370.145 368.458 368.35 372.225 370.298 371.04 369.773 369.905 373.105 371.92 371.86 370.8 373.18 372.915 372.043 367.523 365.358 373.268 364.308 363.645 370.46 372.688 372.91 370.61 366.545 363.55 372.338 373.29 371.705 370.228 371.855 368.335 362.573 359.695 358.925 359.25 366.645 370.283 368.46 366.028 365.888 362.475 361.94 356.755 354.548 354.198 354.063 353.865 353.763 353.683 353.66 353.54 353.653 353.64 353.675 353.653 353.718 353.815 353.765 353.625 353.525 353.443 353.283 353.24 353.245 353.328 353.325 353.388 353.533 353.658 353.748 353.815 353.893 353.945 353.998 354.165 354.293 354.395 354.438 354.558 354.62 354.768 354.848 355.01 355.078 355.15 355.125 355.133 355.105 355.015 354.755 354.455 354.085 353.455 352.405 351.388 350.125 348.425 347.673 348.098 348.57 349.103 349.56 350.29 350.84 351.473 352.035 352.318 352.113 352.825 353.26 353.3 353.513 353.543 353.69 353.698 353.733 353.62 353.543 353.555 353.46 353.393 353.31 353.19 353.14 353.015 352.908 352.838 352.745 352.7 352.413 352.225 352.188 352.243 352.24 352.31 352.518 352.515 352.56 352.61 352.668 352.72 352.808 352.965 353.093 352.973 352.97 352.998 353.05 353.01 352.868 352.765 352.698 352.653 352.65 352.628 352.525 352.45 352.545 352.518 352.468 352.46 352.553 352.605 352.66 352.713 352.76 352.818 352.775 352.708 352.615 352.558 352.373 352.07 352.055 352.273 352.558 352.745 352.898 353.033 353.1 353.173 353.16 353.178 353.295 353.37 353.403 353.43 353.38 353.38 353.333 353.188 353.178 353.085 352.938 352.693 352.62 352.47 352.353 352.198 351.99 351.808 351.593 351.298 350.78 350.37 350.41 350.758 350.743 350.673 350.585 350.438 350.425 350.418 350.28 350.028 349.99 350.045 349.978 349.825 349.553 349.215 348.778 348.585 349.008 349.215 349.173 349.265 349.358 349.31 349.555 349.735 349.593 349.345 349.278 349.05 348.788 348.445 348.04 347.418 346.968 345.733 344.423 342.98 341.805 340.98 339.308 338.16 338.478 339.368 340.668 341.735 342.715 343.258 343.463 343.535 343.588 343.568 343.518 343.375 343.358 343.275 343.215 343.085 343.02 342.965 342.87 342.718 342.58 342.5 342.513 342.468 342.31 342.39 342.363 342.463 342.553 342.68 342.665 342.688 342.643 342.598 342.463 342.37 342.3 342.178 342.18 342.15 342.213 342.213 342.245 342.213 342.218 342.208 342.145 342.11 342.088
363.083 353.465 351.268 351.565 352.358 361.87 366.595 366.53 368.208 363.24 358.235 366.64 366.833 363.493 366.613 368.4 366.298 368.548 366.11 363.873 366.465 358.363 361.243 360.805 367.513 366.753 366.213 361.27 364.79 366.78 357.473 357.955 365.963 369.738 368.783 363.548 367.738 368.858 368.928 369.558 369.788 369.205 369.408 363.64 361.423 358.43 365.595 370.195 367.078 356.168 358.818 362.45 356.288 352.218 351.528 355.598 353.448 353.365 358.855 360.828 358.743 364.558 369.588 370.903 369.993 364.92 369.523 371.75 370.773 372.32 371.775 371.86 369.89 372.123 370.143 373.215 372.238 365.66 371.043 371.13 372.35 372.733 370.76 365.378 367.135 369.973 367.765 366.823 371.288 369.095 373.145 369.1 370.375 373.55 367.603 370.445 372.34 369.013 373.668 373.165 368.455 373.285 368.485 371.8 371.475 373.46 371.538 361.995 362.663 369.075 366.753 358.158 357.383 357.143 357.425 361.248 357.688 368.82 368.985 364.968 362.403 355.425 355.39 355.03 354.7 354.488 354.368 354.185 354.17 354.055 353.953 354.218 354.1 354.198 354.16 354.208 354.3 354.273 354.153 354.023 353.885 353.798 353.738 353.74 353.85 353.903 353.933 354.073 354.17 354.265 354.373 354.41 354.5 354.658 354.718 354.758 354.838 354.93 355.065 355.2 355.323 355.405 355.575 355.643 355.738 355.768 355.718 355.593 355.418 355.195 354.89 354.388 353.56 352.398 351.18 349.555 348.153 348.358 348.955 349.408 349.933 350.623 351.333 351.873 352.418 352.873 353.073 353.163 353.56 353.865 353.933 354.04 354.15 354.293 354.26 354.165 354.243 354.143 354.103 353.965 353.99 353.875 353.788 353.715 353.58 353.438 353.293 353.178 352.683 351.655 351.648 352.043 352.323 352.308 352.238 352.413 352.37 352.39 352.465 352.45 352.558 352.778 353.2 353.488 353.438 353.585 353.67 353.678 353.668 353.568 353.49 353.525 353.405 353.365 353.288 353.195 353.17 353.198 353.01 352.583 352.21 352.488 352.945 353.028 353.08 353.115 353.178 353.163 353.068 352.993 352.96 352.868 352.58 352.585 352.913 353.078 353.238 353.415 353.575 353.69 353.76 353.838 353.863 353.898 353.975 353.98 353.993 354.005 353.925 353.938 353.805 353.748 353.595 353.518 353.318 353.27 353.165 353.028 352.915 352.74 352.53 352.31 352.01 351.635 351.355 351.403 351.503 351.413 351.32 351.183 351.018 350.883 350.81 350.733 350.508 350.38 350.428 350.355 350.153 349.863 349.575 349.403 349.308 349.5 349.413 349.398 349.46 349.505 349.59 349.695 349.665 350.058 349.668 349.58 349.308 349.08 348.728 348.29 347.933 347.335 346.018 344.738 343.25 342.31 340.43 339.493 338.678 339.393 340.203 341.243 342.28 343.28 343.86 344.058 344.185 344.198 344.138 344.143 344.078 344.015 343.993 344.003 343.858 343.695 343.653 343.608 343.428 343.363 343.21 343.233 343.175 343.138 343.123 343.253 343.395 343.48 343.43 343.483 343.49 343.433 343.43 343.35 343.258 343.098 343 343.015 343.008 343.025 342.968 343.013 343 343 342.918 342.883 342.868 342.803
364.548 359.015 358.328 351.655 353.89 357.088 360.58 365.075 366.663 360.88 358.765 368.373 367.308 367.873 368.065 367.1 366.08 369.213 367.255 368.195 367.758 367.558 367.63 365.173 367.918 368.475 367.333 361.705 364.158 367.843 361.628 359.423 366.615 369.948 369.24 367.755 370.065 368.3 367.265 367.67 369.365 371.268 369.828 369.445 370.895 364.015 363.35 370.123 365.36 353.458 353.423 357.52 350.823 350.633 351.433 353.44 359.365 364.08 366.135 364.963 364.553 365.215 366.22 368.458 368.678 369.943 370.978 372.565 364.843 372.578 371.45 373.103 368.95 370.235 373.803 374.053 369.828 372.178 371.275 368.553 374.53 371.403 369.133 373.525 374.43 370.865 373.2 374.75 371.95 373.37 373.628 368.835 366.478 373.2 370.753 373.955 371.538 369.65 368.103 370.738 370.828 370.19 373.105 373.943 372.373 372.72 371.87 370.378 370.393 372.548 368.67 360.55 357.86 357.695 357.628 358.158 363.71 369.463 368.343 367.888 367.333 358.425 355.518 355.413 355.15 354.978 354.86 354.758 354.575 354.463 354.338 354.698 354.545 354.64 354.608 354.663 354.715 354.753 354.703 354.565 354.408 354.355 354.305 354.295 354.403 354.44 354.485 354.598 354.728 354.845 355.068 354.933 354.94 355.06 355.183 355.313 355.433 355.505 355.66 355.76 355.855 355.963 356.145 356.225 356.33 356.3 356.25 356.115 355.88 355.648 355.298 354.715 353.508 352.003 350.588 349.078 348.468 349.115 349.588 350.108 350.7 351.478 352.203 352.818 353.28 353.655 353.978 354.26 354.495 354.455 354.515 354.64 354.803 354.868 354.858 354.758 354.695 354.72 354.703 354.54 354.48 354.43 354.363 354.28 354.158 354.018 353.855 353.43 352.43 351.05 351.293 351.873 352.053 351.643 351.62 352.165 352.373 352.315 351.993 351.82 352.17 352.775 353.278 353.86 354.033 354.17 354.375 354.35 354.373 354.333 354.21 354.035 354.155 354.098 354.153 353.975 353.958 353.843 353.268 352.39 351.313 351.808 352.963 353.203 353.463 353.525 353.578 353.565 353.498 353.45 353.395 353.345 353.3 353.348 353.52 353.665 353.82 354.008 354.163 354.263 354.393 354.49 354.463 354.558 354.633 354.658 354.66 354.62 354.558 354.51 354.413 354.34 354.27 354.133 353.978 353.973 353.848 353.69 353.628 353.45 353.27 353.035 352.835 352.568 352.373 352.308 352.263 352.148 351.975 351.813 351.6 351.405 351.29 351.15 350.9 350.748 350.83 350.673 350.488 350.243 350.023 349.838 349.67 349.625 349.563 349.41 349.438 349.545 349.655 349.848 349.908 349.76 349.498 350.118 349.735 349.398 348.935 348.503 348.06 347.175 346.258 344.808 343.58 342.038 340.505 339.205 339.045 340.028 340.843 341.818 342.805 343.893 344.385 344.628 344.755 344.76 344.78 344.738 344.763 344.703 344.71 344.668 344.678 344.53 344.44 344.27 344.138 344.143 344.108 344.095 344.06 344.178 344.208 344.22 344.27 344.253 344.285 344.288 344.348 344.308 344.19 344.118 344.018 343.955 343.975 343.958 343.825 343.853 343.823 343.79 343.783 343.778 343.668 343.628 343.588 343.575
368.985 369.14 364.385 357.74 352.758 363.403 368.35 367.51 365.505 366.683 365.79 366.768 367.318 366.398 366.325 366.388 367.69 369.09 366.255 368.325 369.1 366.29 365.528 359.753 368.09 365.583 363.598 367.523 365.29 369.493 369.933 362.38 368.225 369.02 370.168 370.125 370.863 369.585 367.633 365.67 362.24 365.905 364.28 364.078 369.94 367.405 370.79 371.41 367.405 355.953 352.323 350.95 350.54 355.445 355.218 353.095 364.023 362.25 370.47 368.343 363.063 362.333 365.51 361.338 361.14 367.358 370.955 370.895 369.233 374.08 371.205 372.825 372.34 373.343 374.605 372.49 372.068 372.58 363.975 366.493 373.433 372.565 375.19 373.685 367.268 372.688 373.78 370.835 364.713 365.213 368.158 373.048 373.038 373.305 365.543 372.663 372.625 373.28 371.385 374.328 373.565 373.095 373.45 374.063 370.403 372.135 370.06 372.445 371.893 368.86 366.278 360.415 358.383 358.25 358.033 358.108 365.373 369.558 369.228 365.683 370.855 362.08 355.993 355.82 355.59 355.418 355.258 355.08 355.008 354.865 354.795 355.128 354.925 355.028 355.065 355.155 355.198 355.245 355.265 355.148 355.033 354.953 354.86 354.848 354.96 355.008 355.045 355.268 355.36 355.395 355.365 355.378 355.62 355.69 355.82 355.928 356.015 356.08 356.213 356.338 356.43 356.56 356.733 356.82 356.895 356.875 356.778 356.603 356.373 356.08 355.693 354.835 353.618 352.105 350.57 349.2 348.93 349.663 350.263 350.858 351.498 352.215 352.98 353.65 354.065 354.503 354.853 355.068 355.233 355.243 355.085 355.253 355.41 355.435 355.345 355.235 355.148 355.108 355.043 355.178 355.12 354.953 354.873 354.845 354.748 354.59 354.38 353.648 352.423 351.445 351.67 352.04 352.138 351.968 351.758 352.193 352.478 352.578 351.983 351.36 351.953 352.94 353.765 354.293 354.56 354.698 354.935 355.018 355.105 355.098 355.025 354.73 354.768 354.81 354.803 354.675 354.695 354.378 353.635 352.758 351.97 352.073 353.018 353.268 353.673 353.943 353.983 353.973 353.985 353.94 353.883 353.895 353.913 354.083 354.185 354.293 354.413 354.595 354.773 354.833 354.945 355.153 355.113 355.165 355.3 355.283 355.268 355.21 355.195 355.118 355.028 354.9 354.803 354.78 354.745 354.65 354.54 354.373 354.333 354.195 353.995 353.75 353.535 353.313 353.223 353.193 353.01 352.823 352.688 352.458 352.243 352.005 351.84 351.688 351.468 351.163 351.123 351.045 350.84 350.633 350.465 350.188 349.945 349.713 349.125 348.653 349.185 349.59 349.835 349.89 350.008 349.935 349.523 349.543 349.828 350.068 349.485 348.835 348.173 347.43 346.378 345.103 343.553 342.278 340.715 339.333 339.248 340.565 341.425 342.358 343.575 344.558 344.973 345.275 345.32 345.398 345.383 345.423 345.405 345.45 345.368 345.373 345.395 345.433 345.353 345.228 344.933 344.708 344.795 344.853 345.048 345.093 345.195 345.215 345.178 345.168 345.088 345.075 345.168 345.153 345.04 344.855 344.75 344.958 344.87 344.825 344.765 344.698 344.763 344.668 344.538 344.458 344.455 344.423 344.418 344.28
365.263 367.455 366.703 366.628 363.78 362.105 366.453 370.278 368.935 368.483 368.315 367.623 363.368 368.405 366.02 360.615 364.49 368.57 369.268 369.478 367.333 366.975 365.513 365.993 367.32 370.943 368.11 366.905 367.598 367.915 369.91 366.01 365.428 367.213 371.113 369.973 366.638 368.06 369.188 367.813 361.56 364.798 368.548 362.91 368.438 366.525 370.58 366.225 367.48 356.863 352.465 351.015 356.383 362.868 354.398 352.47 357.113 362.19 368.6 368.753 364.628 369.993 369.245 362.978 360.46 367.59 369.543 360.07 362.13 369.858 367.225 369.36 367.77 366.81 369.46 370.403 372.58 372.995 368.595 370.133 371.068 368.088 373.43 373.92 373.275 368.34 373.833 374.683 372.6 364.34 370.978 370.98 371.45 367.53 365.128 373.99 373.948 371.75 365.31 374.253 374.403 375.528 375.65 375.583 375.593 374.448 370.758 373.403 372.593 370.125 363.395 359.24 359.245 358.828 358.685 361.425 365.048 369.44 363.203 362.668 370.875 365.865 357.41 356.193 356.043 355.878 355.708 355.508 355.438 355.303 355.193 355.545 355.433 355.49 355.538 355.68 355.798 355.793 355.773 355.69 355.605 355.65 355.553 355.528 355.603 355.565 355.59 355.64 355.748 355.868 355.958 356.023 356.11 356.265 356.368 356.443 356.58 356.63 356.8 356.893 357.063 357.2 357.308 357.368 357.433 357.388 357.308 357.138 356.975 356.565 356.048 355.068 353.948 352.833 351.675 350.258 349.535 350.023 350.97 351.59 352.2 352.903 353.653 354.27 354.73 355.24 355.655 355.838 355.973 356.015 355.785 355.838 355.993 356.053 355.905 355.8 355.703 355.725 355.67 355.52 355.56 355.523 355.393 355.368 355.278 355.138 354.868 353.875 352.845 352.098 352.4 352.353 352.003 352.003 352.098 352.43 352.803 353.308 353.29 352.865 353.145 353.745 354.44 354.798 355.06 355.168 355.485 355.623 355.763 355.873 355.785 355.615 355.505 355.56 355.488 355.363 355.365 355.038 354.408 353.745 353.26 353.225 353.715 353.985 354.27 354.428 354.278 354.258 354.455 354.468 354.403 354.503 354.555 354.748 354.838 354.965 355.09 355.238 355.37 355.44 355.523 355.69 355.723 355.783 355.915 355.905 355.928 355.918 355.815 355.685 355.625 355.573 355.513 355.325 355.368 355.323 355.288 355.148 355.025 354.898 354.743 354.545 354.363 354.168 354.06 353.9 353.743 353.535 353.355 353.143 352.908 352.718 352.485 352.27 352.013 351.715 351.593 351.45 351.253 351.003 350.82 350.455 350.215 349.95 349.37 348.6 348.945 349.42 349.843 349.98 350.125 350.168 349.968 349.885 350.003 349.885 349.785 349.39 348.41 347.713 346.723 345.353 344.035 343.735 341.148 340.233 340.428 341.358 342.118 342.963 344.42 345.248 345.733 345.945 346.065 346.053 346.105 346.078 346.148 346.1 346.053 346.11 346.17 346.21 346.188 346.178 345.758 345.535 345.568 345.865 345.93 345.915 345.97 346.048 346.025 346.02 346.033 346.035 346.02 346 345.908 345.73 345.658 345.808 345.823 345.65 345.603 345.53 345.47 345.363 345.338 345.298 345.205 345.213 345.148 345.005
365.558 363.54 364.245 370.708 366.223 357.465 362.138 368.585 368.293 369.01 369.113 366.528 366.07 368.135 365.33 357.678 361.9 369.495 372.125 365.508 360.935 368.135 369.435 368.433 365.94 370.26 369.455 365.015 370.488 370.283 370.428 368.49 360.845 359.305 369.928 370.498 360.618 370.478 368.945 372.088 368.188 363.658 369.91 370.213 370.358 368.943 370.613 372.235 369.523 359.005 352.828 351.395 351.195 359.89 359.763 352.628 353.37 357.528 365.233 368.163 370.23 371.183 372.303 367.988 367.603 372.355 373.095 368.76 366.133 366.698 366.52 366.245 360.213 359.345 361.49 366.688 373.415 374.148 374.038 375.505 370.998 368.075 374.023 373.605 367.15 371.518 372.493 367.553 373.92 374.855 371.575 373.01 371.605 368.633 372.168 374.98 375.17 374.213 367.653 366.848 373.853 370.385 370.665 374.48 374.42 374.8 374.093 374.925 373.638 372.465 366.4 359.705 362.333 362.888 360.998 364.613 371.29 373.26 368.453 359.89 360.878 368.088 362.888 356.848 356.398 356.265 356.173 355.935 355.7 355.485 355.565 355.938 356.005 356.063 356.033 356.1 356.283 356.315 356.265 356.168 356.143 356.188 356.113 356.06 355.963 355.975 356.05 356.1 356.22 356.398 356.528 356.645 356.688 356.793 356.923 357.03 357.193 357.218 357.413 357.52 357.668 357.815 357.835 357.88 357.92 357.855 357.768 357.583 357.345 356.928 356.253 355.335 354.398 353.425 352.203 350.713 349.743 350.193 351.145 352.193 352.853 353.61 354.365 354.953 355.455 355.978 356.345 356.56 356.67 356.645 356.465 356.315 356.543 356.65 356.513 355.623 355.448 356.155 356.233 356.163 356.023 355.903 356.018 355.893 355.815 355.708 355.343 354.438 353.73 353.39 353.308 353.145 352.538 352.075 352.193 352.718 353.225 353.743 354.295 354.185 354.238 354.59 354.995 355.338 355.523 355.708 356.078 356.25 356.405 356.508 356.475 356.233 356.145 356.08 356.08 356.09 355.995 355.665 355.233 354.723 354.403 354.308 354.575 354.87 354.985 355.025 354.933 354.913 354.995 354.983 355.083 355.238 355.24 355.36 355.523 355.61 355.763 355.953 356.03 356.065 356.168 356.28 356.303 356.355 356.463 356.57 356.613 356.53 356.448 356.335 356.24 356.195 356.193 356.075 356.04 355.97 355.87 355.878 355.818 355.63 355.508 355.29 355.15 354.993 354.853 354.685 354.515 354.283 354.093 353.87 353.69 353.49 353.22 352.925 352.643 352.288 352.058 351.983 351.723 351.46 351.168 350.805 350.52 350.303 349.985 349.305 349.218 349.458 349.808 350.12 350.21 350.178 350.035 350.068 350.143 350.11 349.828 349.623 349.41 348.168 347.183 345.683 344.268 343.458 341.69 341.163 341.345 342.08 343.423 344.188 345.24 346.038 346.378 346.733 346.885 346.82 346.805 346.848 346.838 346.825 346.903 346.88 346.975 346.955 347.088 346.97 346.41 346.565 346.62 346.843 346.795 346.778 346.785 346.733 346.765 346.83 346.805 346.788 346.805 346.728 346.735 346.613 346.53 346.58 346.545 346.463 346.413 346.2 346.12 346.08 346.07 346.053 345.99 345.9 345.793 345.77
369.858 361.643 357.585 365.083 367.275 367.25 363.373 363.575 368.14 371.923 369.73 362.973 369.928 369.67 365.15 357.463 363.605 370.43 368.843 367.455 367.758 367.558 362.75 367.405 367.783 371.283 363.013 370.38 371.133 371.485 371.12 369.083 360.568 364.388 369.768 368.575 362.528 367.795 372.425 371.485 370.728 368.193 371.928 370.658 368.468 366.71 372.588 371.028 369.84 363.945 353.875 352.233 361.025 356.688 354.665 352.708 353.42 354.87 363.693 370.155 372.278 370.215 368.17 369.183 369.418 370.87 370.645 372.598 372.513 370.745 373.478 372.808 367.955 363.035 361.71 367.655 371.908 372.673 373.54 374.748 375.278 371.59 375.02 373.425 374.145 373.84 371.318 374.478 367.263 369.803 367.903 370.965 370.368 373.718 372.423 373.433 374.898 374.808 373.22 375.19 374.858 373.435 373.56 374.643 373.238 374.158 373.273 375.353 376.318 372.778 364.64 363.465 368.79 371.375 367.245 372.215 372.368 371.795 369.085 362.628 359.89 366.273 362.31 358.938 357.043 356.708 356.59 356.325 356.018 355.49 355.953 356.553 356.598 356.688 356.65 356.61 356.783 356.81 356.678 356.178 356.023 356.505 356.705 356.673 356.593 356.55 356.52 356.558 356.72 356.888 357.07 357.195 357.233 357.35 357.458 357.64 357.815 357.85 357.978 358.12 358.225 358.355 358.36 358.408 358.453 358.338 358.238 358.053 357.73 357.26 356.468 355.68 354.85 353.805 352.73 351.51 350.398 350.588 351.298 352.66 353.445 354.203 354.953 355.648 356.168 356.638 356.998 357.205 357.315 357.293 357.19 356.923 357.1 357.205 356.838 355.568 355.44 356.423 356.775 356.79 356.728 356.633 356.498 356.553 356.36 356.255 355.9 355.24 354.665 354.173 354.155 353.955 353.028 352.638 352.733 353.453 354.105 354.638 355.135 355.235 355.113 355.21 355.555 355.915 356.203 356.383 356.623 356.813 357.023 357.118 357.058 356.86 356.773 356.895 356.67 356.65 356.573 356.36 356.035 355.65 355.395 355.478 355.545 355.68 355.685 355.648 355.603 355.605 355.718 355.783 355.848 355.933 355.97 356.015 356.123 356.248 356.393 356.605 356.773 356.783 356.795 356.868 356.895 356.908 357.048 357.2 357.248 357.205 357.078 357.005 356.905 356.793 356.683 356.71 356.693 356.668 356.663 356.47 356.448 356.438 356.285 356.148 355.948 355.723 355.545 355.425 355.243 355.003 354.853 354.6 354.383 354.193 353.95 353.665 353.358 352.945 352.66 352.498 352.305 352.008 351.693 351.26 350.875 350.66 350.138 349.69 349.66 349.743 349.915 350.285 350.483 350.383 350.268 350.32 350.498 350.413 350.075 349.678 349.353 348.585 347.683 346.555 344.698 343.153 342.225 341.553 342.05 343.18 344.35 345.078 345.938 346.695 347.045 347.395 347.543 347.633 347.533 347.518 347.548 347.578 347.74 347.76 347.758 347.725 347.795 347.418 347.26 347.558 347.485 347.523 347.62 347.655 347.595 347.57 347.453 347.395 347.49 347.545 347.488 347.445 347.405 347.368 347.378 347.335 347.248 347.098 346.998 346.96 346.91 346.833 346.755 346.77 346.67 346.675 346.523 346.508
366.918 367.413 366.623 366.51 369.063 369.753 364.32 358.888 367.313 370.058 371.53 367.585 367.31 371.718 369.835 361.45 359.733 365.328 360.84 364.998 372.765 368.55 359.81 364.343 372.468 370.785 369.29 372.338 363.958 371.353 371.623 368.108 362.435 370.168 370.548 371.46 369.485 369.108 370.64 371.12 372.02 369.695 372.993 366.128 359.503 364.298 368.215 372.188 371.59 366.145 357.218 362.388 358.778 356.01 351.893 352.808 353.398 354.123 357.925 368.768 373.578 372.468 368.273 371.748 373.858 368.943 367.818 372.6 372.88 369.13 368.473 372.465 368.463 367.033 370.045 371.88 370.61 368.898 364.133 371.818 374.533 375.85 374.04 375.728 374.015 375.568 374.665 373.213 370.635 370.913 374.255 367.713 362.903 369.085 366.47 372.728 374.638 376.87 376.025 376.21 373.148 377.063 374.943 376.43 377.028 373.263 375.928 376.823 374.928 369.695 364.233 370.315 372.55 374.81 371.17 364.288 376.11 374.188 373.313 367.643 359.658 366.435 369.283 366.08 358.38 357.08 357.005 356.85 356.688 356.47 356.61 357.113 357.153 357.21 357.203 357.138 357.315 357.28 356.945 356.015 355.323 356.433 357.215 357.198 356.903 356.695 356.82 357.028 357.193 357.358 357.573 357.69 357.808 357.94 358.055 358.23 358.308 358.41 358.568 358.695 358.838 358.94 358.938 358.995 359.003 358.895 358.665 358.49 358.185 357.645 356.773 355.913 355.168 354.073 353.095 352.213 351.515 351.183 351.593 352.89 353.903 354.815 355.635 356.353 356.838 357.153 357.66 357.863 357.94 357.935 357.858 357.563 357.545 357.738 357.31 356.683 356.478 356.99 357.303 357.368 357.385 357.303 357.155 357.025 357.058 356.91 356.57 356.035 355.443 354.87 354.783 354.723 354.28 353.948 354.065 354.738 355.048 355.465 355.948 356.063 356.188 356.165 356.405 356.585 356.953 357.323 357.378 357.39 357.6 357.62 357.648 357.608 357.5 357.603 357.47 357.22 357.153 357.048 356.813 356.48 356.27 356.483 356.403 356.45 356.348 356.215 356.09 356.398 356.443 356.415 356.53 356.688 356.69 356.725 356.768 356.855 357.06 357.23 357.368 357.395 357.395 357.44 357.503 357.49 357.608 357.76 357.808 357.838 357.718 357.635 357.573 357.508 357.31 357.27 357.303 357.295 357.273 357.143 357.09 356.92 356.885 356.918 356.88 356.715 356.325 356.173 355.953 355.713 355.593 355.363 355.11 354.898 354.683 354.413 354.095 353.69 353.375 353.06 352.853 352.545 352.225 351.79 351.455 351.168 350.655 350.495 350.363 350.315 350.315 350.58 350.76 350.675 350.585 350.648 350.655 350.688 350.483 349.788 349.52 349.218 348.228 347.31 345.015 343.398 342.818 341.873 342.715 343.738 344.935 345.925 346.878 347.415 347.84 347.998 348.238 348.353 348.303 348.275 348.408 348.42 348.448 348.53 348.535 348.503 348.438 347.953 348.31 348.5 348.378 348.443 348.465 348.503 348.445 348.323 348.055 347.925 348.195 348.188 348.113 348.07 348.098 348.098 348.015 347.973 347.903 347.838 347.683 347.705 347.715 347.595 347.483 347.463 347.438 347.393 347.248 347.168
369.613 369.95 362.273 370.078 369.345 369.198 370.358 365.958 355.738 363.67 365.66 367.585 370.815 371.213 371.945 370.203 366.03 360.203 357.818 362.463 369.415 367.87 364.81 365.695 370.098 365.225 368.038 373.085 368.013 364.88 370.83 365.475 359.345 367.583 372.185 373.43 371.535 370 369.328 370.96 371.345 368.238 372.563 370.69 366.225 372.585 371.123 371.968 371.603 372.4 363.185 356.725 353.393 361.108 356.513 364.188 359.215 353.853 356.073 365.513 370.43 373.808 369.72 372.65 372.453 374.225 371.408 370.935 374.088 373.535 372.865 374.513 369.598 372.365 370.68 373.375 376.518 371.65 366.443 367.775 372.27 371.08 373.543 376.638 374.09 374.805 374.965 370.243 375.935 375.348 375.78 374.245 373.05 370.733 367.69 373.753 374.558 371.755 376.32 377.05 376.473 376.945 374.41 372.695 376 375.748 376.393 376.65 376.355 371.86 366.96 373.708 375.938 373.11 365.348 362.193 369.813 373.223 365.728 367.828 361.478 358.933 371 368.28 359.895 357.498 357.403 357.163 357.033 356.653 357.118 357.548 357.455 357.483 357.7 357.79 357.848 357.77 357.273 356.665 356.463 356.87 357.578 357.4 356.655 355.918 356.44 357.34 357.708 357.935 358.125 358.3 358.498 358.673 358.788 358.853 358.92 359.035 359.165 359.22 359.34 359.453 359.523 359.56 359.53 359.405 359.208 358.943 358.533 357.91 357.045 356.198 355.338 354.248 353.458 352.63 352.148 351.588 351.69 353.088 354.288 355.37 356.285 356.99 357.468 357.838 358.325 358.54 358.643 358.61 358.515 358.415 358.053 358.213 358.093 357.753 357.573 357.763 357.915 357.9 357.885 357.81 357.748 357.658 357.585 357.528 357.238 356.855 356.255 355.595 355.378 355.26 355.055 355.123 355.393 355.675 355.945 356.395 356.743 356.98 357.078 357.133 357.358 357.57 357.758 357.993 358.025 358.11 358.238 358.238 358.14 358.16 358.158 358.283 358.12 357.863 357.735 357.715 357.56 357.325 357.138 357.235 357.32 357.223 356.79 355.985 355.803 356.825 357.105 357.208 357.268 357.338 357.403 357.395 357.45 357.46 357.645 357.803 357.87 357.935 357.975 358.04 358.123 358.095 358.208 358.34 358.323 358.398 358.345 358.31 358.16 358.063 357.965 357.933 357.955 357.883 357.883 357.775 357.67 357.628 357.535 357.41 357.365 357.27 357.145 357.035 356.77 356.525 356.378 356.173 355.85 355.61 355.35 355.085 354.868 354.505 354.185 353.788 353.445 353.23 352.875 352.395 351.998 351.575 351.243 351.19 351.143 350.985 350.778 351.165 351.15 351.005 350.975 351.048 351.015 351.06 350.743 350.155 349.62 349.433 348.8 347.818 346.315 343.443 342.59 342.498 343.033 345.005 346.295 347.245 347.75 348.3 348.528 348.773 348.95 349.025 349.04 349.078 349.23 349.333 349.413 349.348 349.315 349.263 349.115 348.633 349.03 349.375 349.148 349.053 349.205 349.245 349.195 349.068 348.86 348.788 348.94 348.853 348.735 348.738 348.753 348.705 348.678 348.725 348.733 348.61 348.46 348.473 348.393 348.375 348.298 348.148 348.135 348.113 348.013 347.905
366.568 369.485 363.658 369.055 370.305 369.055 365.123 367.808 364.075 355.93 355.138 361.413 362.258 367.485 372.115 372.983 372.443 367.663 360.305 358.18 368.6 371.328 370.868 370.168 370.185 363.435 370.008 368.388 368.44 366.833 372.48 371.23 363.48 369.143 372.948 371.783 369.605 370.295 373.208 371.2 369.385 369.023 368.648 371.603 372.983 373.898 373.29 372.638 373.353 369.225 361.28 355.203 354.32 358.813 356.595 356.015 355.635 353.48 357.523 357.045 364.65 370.4 372.695 369.968 368.185 371.108 371.963 371.923 368.693 374.765 375.875 375.76 374.743 375.995 377.138 371.335 375.493 375.125 374.163 369.98 363.22 362.123 369.33 375.568 372.673 375.31 373.898 372.663 375.595 372.473 375.098 374.908 376.59 371.508 369.995 377.168 377.233 375.44 373.255 375.903 375.013 377.608 376.083 370.45 367.875 371.19 376.858 376.323 372.683 368.298 367.833 372.573 373.658 364.953 365.805 374.698 370.34 366.96 363.603 360.208 362.905 368.473 370.14 365.85 359.875 358.173 357.983 357.723 357.213 356.645 357.673 357.715 357.445 357.613 358.083 358.418 358.433 358.283 357.85 357.465 357.433 357.755 358.115 357.865 356.975 355.83 356.49 357.23 357.495 358.265 358.738 359.005 359.18 359.34 359.388 359.55 359.683 359.753 359.863 359.915 359.958 359.985 360.005 360.06 359.975 359.9 359.683 359.393 358.985 358.363 357.508 356.683 355.835 354.798 354.465 354.205 354.308 353.705 353.893 354.085 354.68 355.903 356.925 357.595 358.123 358.628 358.99 359.228 359.298 359.17 359.263 359.098 358.988 358.643 358.843 358.643 358.57 358.525 358.463 358.438 358.438 358.418 358.355 358.225 358.183 358.148 357.948 357.63 357.133 356.543 356.248 356.193 355.97 356.228 356.455 356.855 356.955 357.368 357.718 357.85 357.973 358.005 358.168 358.415 358.523 358.59 358.695 358.8 358.86 358.905 358.755 358.645 358.743 358.858 358.748 358.665 358.64 358.365 358.235 357.98 357.833 357.97 358.013 357.905 357.473 356.773 356.665 357.278 357.608 357.74 357.968 358.04 358.065 358.1 358.17 358.12 358.198 358.333 358.42 358.578 358.545 358.643 358.725 358.678 358.72 358.868 358.918 358.948 358.898 358.89 358.828 358.658 358.598 358.573 358.565 358.605 358.48 358.44 358.368 358.325 358.198 358.098 358.028 357.89 357.67 357.715 357.58 357.3 357.098 356.888 356.608 356.368 356.088 355.803 355.533 355.29 354.925 354.578 354.153 353.87 353.533 353.12 352.723 352.268 351.865 351.778 351.783 351.64 351.538 351.69 351.535 351.405 351.448 351.453 351.408 351.288 351.025 350.47 349.655 349.318 349.173 348.1 346.888 344.008 342.938 343.143 344.138 346.533 347.7 348.113 348.543 349.035 349.318 349.555 349.67 349.813 349.838 349.833 349.925 350.253 350.255 350.183 350.055 349.99 349.808 349.398 349.74 350.17 349.885 349.818 350.01 350.013 349.945 349.875 349.805 349.748 349.708 349.625 349.473 349.5 349.565 349.368 349.365 349.445 349.393 349.35 349.225 349.24 349.118 349.04 349.033 348.868 348.735 348.838 348.768 348.595
362.748 368.355 370.038 367.333 366.765 371.643 369.05 369.095 367.215 356.685 355.103 358.27 358.913 365.605 372.22 370.765 371.57 371.805 369.198 361.478 365.885 370.798 370.543 370.003 370.078 368.21 368.648 361.815 360.138 366.303 370.5 369.15 367.993 370.553 373.875 372.343 363.15 365.37 370.89 372.035 371.458 371.37 374.753 372.04 373.093 369.058 374.733 369.735 366.543 369.818 369.948 360.045 361.813 358.433 353.763 354.573 353.263 353.46 353.775 354.683 357.045 365.19 372.18 371.243 373.63 374.185 373.738 373.545 369.325 370.73 370.89 369.16 371.093 376.068 374.205 373.303 375.138 372.265 375.82 371.935 364.48 363.545 364.08 366.313 370.848 375.748 374.435 371.305 376.528 376.465 367.423 373.073 376.418 376.538 377.215 378.495 376.033 373.913 377.235 377.295 372.125 374.315 376.958 375.008 377.503 375.473 377.118 377.363 370.875 363.703 363.925 364.803 365.905 366.248 362.153 371.565 372.61 373.795 365.773 364.573 371.173 366.76 371.625 371.035 363.443 358.748 358.635 358.44 358.16 357.768 358.363 358.183 357.953 358.133 358.643 358.915 358.968 358.958 358.635 358.325 358.353 358.61 358.788 358.51 357.53 356.775 357.395 357.315 357.41 358.468 359.233 359.578 359.77 359.958 360.045 360.288 360.375 360.443 360.49 360.56 360.535 360.478 360.48 360.473 360.415 360.378 360.183 359.898 359.335 358.84 358.065 357.183 356.385 355.733 355.248 355.018 354.833 354.465 354.818 355.235 355.743 356.738 357.665 358.33 358.945 359.378 359.665 359.878 359.93 359.83 359.88 359.808 359.788 359.435 359.37 359.475 359.435 359.275 359.16 359.1 358.998 358.96 358.95 358.873 358.768 358.705 358.583 358.353 357.993 357.49 357.22 357.02 357.078 357.53 357.768 357.873 358.108 358.365 358.573 358.693 358.908 358.965 359.075 359.23 359.168 359.213 359.385 359.428 359.45 359.478 359.363 359.263 359.333 359.42 359.358 359.415 359.33 359.035 358.908 358.593 358.513 358.6 358.72 358.638 358.273 357.855 357.958 358.115 357.435 357.308 358.393 358.628 358.665 358.673 358.73 358.745 358.798 358.803 358.76 358.97 359.083 359.183 359.303 359.268 359.31 359.468 359.45 359.475 359.47 359.475 359.413 359.305 359.215 359.21 359.128 359.143 359.093 359.005 358.96 359.003 358.898 358.785 358.668 358.488 358.39 358.285 358.115 358.05 357.895 357.64 357.343 357.063 356.815 356.545 356.23 355.968 355.648 355.303 354.953 354.588 354.2 353.885 353.468 353.085 352.788 352.623 352.485 352.253 352.23 352.203 352.005 351.873 351.995 352.023 351.88 351.685 351.37 350.678 349.858 349.248 349.495 347.678 346.155 344.17 343.49 343.938 345.05 347.86 348.598 348.935 349.395 349.748 350.12 350.283 350.528 350.598 350.713 350.653 350.768 350.945 351.108 350.918 350.76 350.73 350.453 350.165 350.28 350.84 350.75 350.673 350.713 350.688 350.715 350.58 350.535 350.53 350.485 350.353 350.208 350.123 350.095 350.078 350.113 350.148 350.248 350.075 350.083 349.98 349.858 349.745 349.655 349.655 349.543 349.425 349.49 349.535
367.57 371.183 370.22 370.018 370.863 366.95 369.04 371.073 367.715 364.03 362.228 358 359.698 365.235 361.958 362.855 367.088 371.218 371.06 367.308 361.15 368.053 371.48 370.75 369.863 370.418 372.248 368.27 360.645 367.39 372.113 370.888 367.3 366.743 374.96 375.335 371.77 367.748 361 367.405 373.623 372.61 375.243 368.508 373.003 368.868 374.11 372.55 370.843 371.925 373.165 369.71 363.28 357.31 355.243 355.848 353.988 353.935 354.025 356.795 355.733 362.185 370.27 372.56 372.788 374.27 372.56 374.14 371.108 374.355 373.128 375.04 375.703 371.76 367.27 376.27 374.518 373.028 375.098 373.63 369.933 372.748 368.843 363.558 364.838 368.978 369.1 375.103 376 376.563 377.523 377.455 377.365 372.173 376.66 378.183 374.25 375.088 374.66 378.198 376.933 377.465 377.685 378.663 378.103 377.153 375.408 375.963 370.565 363.398 363.075 363.218 363.78 366.385 368.528 372.763 374.833 374.91 373.375 366.005 368.125 364.883 374.378 371.293 362.79 358.953 358.893 358.883 358.803 358.705 358.97 358.89 359.01 359.043 359.235 359.483 359.575 359.635 359.563 359.393 359.408 359.508 359.473 359.093 358.475 358.04 358.253 358.045 358.24 359.07 359.725 360.163 360.403 360.56 360.793 360.98 361.078 361.118 361.098 361.083 361.073 360.955 361.045 360.975 360.94 360.858 360.683 360.385 359.83 359.385 358.525 357.523 356.853 356.378 355.88 355.495 355.273 354.765 355.295 355.973 356.805 357.685 358.408 359.068 359.623 360.085 360.345 360.503 360.55 360.508 360.503 360.44 360.443 360.29 359.993 359.883 360.068 359.985 359.875 359.755 359.583 359.498 359.465 359.458 359.353 359.235 359.173 359.03 358.823 358.54 358.453 358.408 358.378 358.595 358.813 358.973 358.968 359.11 359.283 359.478 359.613 359.733 359.74 359.713 359.758 359.803 359.918 359.983 359.998 360.015 360.013 359.973 359.993 359.968 359.91 359.943 360.03 359.805 359.63 359.398 359.21 359.215 359.308 359.31 359.13 359.018 358.945 358.378 357.208 357.375 358.355 358.668 358.998 359.143 359.248 359.243 359.27 359.2 359.103 359.343 359.578 359.71 359.815 359.838 359.855 359.908 359.963 360.043 360.003 359.978 359.93 359.903 359.855 359.833 359.715 359.695 359.643 359.63 359.613 359.618 359.565 359.45 359.343 359.155 358.953 358.893 358.835 358.625 358.48 358.438 358.138 357.85 357.51 357.205 356.938 356.68 356.383 356.073 355.715 355.383 354.993 354.548 354.273 353.955 353.693 353.58 353.388 353.04 352.835 352.698 352.525 352.43 352.538 352.545 352.275 352.115 351.79 350.9 350.235 349.378 349.005 347.755 346.65 345.678 344.87 345.47 346.425 348.61 349.203 349.653 350.145 350.595 350.835 351.11 351.32 351.485 351.563 351.525 351.613 351.665 351.738 351.68 351.538 351.433 351.143 350.818 350.943 351.44 351.378 351.33 351.483 351.408 351.348 351.295 351.255 351.225 351.115 350.893 350.798 350.77 350.825 350.855 350.815 350.765 350.74 350.745 350.633 350.623 350.608 350.508 350.478 350.318 350.245 350.175 349.985 350.005
