ncols 388
nrows 31
xllcorner    387004
yllcorner    475904
cellsize     2
NODATA_value -9999
423.868 423.853 423.755 423.588 423.535 423.535 423.548 423.478 423.27 423.06 422.878 422.66 422.518 422.285 422.083 421.97 421.74 421.475 421.168 420.58 420.688 421 421.023 420.943 420.88 420.75 420.58 420.565 420.525 420.44 420.263 420.085 419.95 419.908 419.803 419.635 419.298 419.085 418.845 418.598 418.385 418.2 418.025 417.945 417.845 417.778 417.645 417.535 417.423 417.255 417.058 416.885 416.655 416.425 416.178 415.78 415.348 415.15 415.108 415.285 415.453 415.395 415.27 415.115 414.823 414.53 414.34 414.233 414.198 414.163 414.173 414.143 414.14 414.18 414.15 414.09 414.05 413.915 413.773 413.603 413.398 413.123 412.793 412.493 412.42 411.965 412.003 412.263 412.34 412.248 412.163 411.938 411.71 411.385 411.123 410.843 410.58 410.248 409.938 409.585 409.268 408.955 408.688 408.44 408.28 408.125 407.973 407.905 407.823 407.723 407.723 407.76 407.75 407.683 407.538 407.405 407.438 407.428 407.338 407.328 407.248 407.195 407.123 407.05 406.988 406.92 406.848 406.675 406.535 406.503 406.415 406.31 406.243 406.165 406.105 405.99 405.868 405.71 405.535 405.308 405.118 404.98 404.95 404.865 404.748 404.64 404.518 404.41 404.353 404.27 404.215 404.113 404.048 404.008 403.965 403.96 403.91 403.93 403.828 403.733 403.645 403.48 403.258 403.058 402.848 402.59 402.253 402.003 401.765 401.503 401.205 400.848 400.503 400.273 400.025 399.77 399.463 399.083 398.763 398.403 398.085 397.813 397.575 397.288 396.953 396.51 396.233 396.15 395.81 395.635 395.423 395.085 394.9 394.695 394.388 394.06 393.775 393.708 393.545 393.165 392.855 392.613 392.288 391.998 391.75 391.615 391.385 391.118 390.868 390.688 390.518 390.45 390.235 389.885 389.58 389.278 389.065 388.843 388.693 388.578 388.398 388.16 387.96 387.778 387.555 387.295 387.01 386.798 386.55 386.325 385.913 385.795 385.738 385.668 385.508 385.288 385.115 384.973 384.753 384.598 384.325 384.055 383.825 383.645 383.508 383.383 383.213 382.928 382.7 382.45 382.13 381.825 381.548 381.203 380.88 380.605 380.448 380.303 380.138 380.028 379.943 379.898 379.833 379.705 379.548 379.333 379.093 378.91 378.608 378.255 377.943 377.638 377.343 377.038 376.668 376.175 375.753 375.39 375.078 374.863 374.613 374.365 374.113 373.808 373.508 373.24 373.023 372.763 372.545 372.323 372.003 371.688 371.363 371.088 370.748 370.553 370.55 370.03 369.823 369.475 369.26 369.19 368.995 368.718 368.468 368.283 368.143 368.038 367.973 367.915 367.813 367.748 367.445 367.233 367.088 366.868 366.61 366.505 366.428 366.193 366.003 365.488 365.043 364.685 364.385 364.068 363.763 363.463 363.153 362.783 362.415 362.023 361.685 361.395 361.02 360.808 360.64 360.395 360.073 359.695 359.268 358.973 358.718 358.365 357.818 357.35 356.953 356.565 356.145 355.69 355.178 354.393 353.448 353.118 352.648 352.053 351.655 351.36 351.09 350.908 351.495 350.728 350 349.465 348.57 348.05 347.5 347.055 346.623 346.138 345.6 345.088 344.638 344.41 344.093 343.788 343.635 343.488 343.075 342.778 342.29 341.91 341.83 341.848 341.543 340.948 340.68 340.463
424.043 424.055 423.95 423.79 423.738 423.748 423.72 423.658 423.518 423.258 423.105 422.878 422.67 422.52 422.275 422.173 421.93 421.69 421.258 420.933 421.133 421.358 421.27 421.22 421.115 420.968 420.87 420.863 420.82 420.693 420.5 420.435 420.36 420.335 420.23 420.083 419.855 419.525 419.303 419.02 418.803 418.558 418.395 418.253 418.165 418.048 417.89 417.79 417.675 417.485 417.285 417.083 416.825 416.58 416.31 416.013 415.565 415.43 415.393 415.605 415.658 415.63 415.458 415.263 414.985 414.775 414.715 414.635 414.633 414.573 414.513 414.493 414.448 414.428 414.365 414.333 414.335 414.115 413.97 413.803 413.64 413.293 412.985 412.688 413.028 412.338 412.575 412.693 412.493 412.37 412.338 412.138 411.835 411.608 411.4 411.17 410.935 410.633 410.353 409.988 409.628 409.26 408.975 408.713 408.448 408.258 408.143 408.025 407.943 407.853 407.838 407.808 407.785 407.665 407.555 407.528 407.57 407.54 407.453 407.358 407.273 407.173 407.08 407.035 406.925 406.898 406.815 406.753 406.623 406.518 406.413 406.27 406.295 406.268 406.125 405.953 405.875 405.763 405.608 405.36 405.213 405.17 405.22 405.095 404.913 404.803 404.728 404.61 404.52 404.47 404.385 404.29 404.283 404.203 404.17 404.178 404.1 404.08 404.02 403.91 403.843 403.733 403.568 403.325 403.103 402.85 402.545 402.265 402.003 401.718 401.378 401.035 400.76 400.54 400.318 400.045 399.72 399.363 399.018 398.67 398.403 398.135 397.88 397.57 397.163 396.763 396.458 396.19 395.96 395.868 395.67 395.433 395.205 394.965 394.728 394.403 393.983 393.803 393.623 393.368 393.075 392.785 392.535 392.22 391.95 391.75 391.49 391.255 391.033 390.838 390.65 390.478 390.323 390.005 389.688 389.403 389.215 389.02 388.828 388.665 388.508 388.338 388.155 387.938 387.79 387.555 387.263 386.955 386.673 386.378 386.143 385.94 385.898 385.81 385.643 385.525 385.435 385.263 385.058 384.878 384.635 384.383 384.103 383.9 383.775 383.625 383.438 383.2 382.948 382.703 382.425 382.09 381.795 381.423 381.098 380.785 380.633 380.44 380.265 380.148 380.04 379.975 379.905 379.895 379.675 379.433 379.233 378.985 378.78 378.468 378.118 377.76 377.45 377.125 376.63 376.228 375.863 375.54 375.293 375.038 374.87 374.67 374.335 373.968 373.6 373.29 373.03 372.833 372.635 372.425 372.16 371.835 371.48 371.255 370.988 370.795 370.77 370.578 370.103 369.668 369.433 369.313 369.208 369.008 368.663 368.398 368.308 368.188 368.075 368.043 367.993 367.888 367.733 367.56 367.41 367.2 367.02 366.753 366.593 366.483 366.213 365.9 365.46 365.073 364.723 364.418 364.135 363.778 363.415 363.05 362.718 362.28 361.928 361.64 361.238 360.96 360.763 360.595 360.358 359.98 359.595 359.245 359.003 358.733 358.253 357.713 357.26 356.933 356.598 356.138 355.668 355.023 354.198 353.708 353.165 352.505 352 351.64 351.38 351.11 350.953 351.59 350.648 350.225 349.408 348.575 347.885 347.323 346.883 346.418 345.988 345.52 344.99 344.75 344.603 344.343 344.198 343.988 343.638 343.23 343.118 342.885 342.183 341.683 341.455 341.228 340.963 340.765
424.233 424.228 424.165 424.06 423.943 423.998 423.945 423.835 423.723 423.485 423.328 423.163 422.875 422.638 422.455 422.313 422.123 421.778 421.525 421.453 421.69 421.655 421.543 421.453 421.36 421.22 421.143 421.148 421.07 420.885 420.833 420.748 420.763 420.713 420.625 420.478 420.363 420.13 419.783 419.428 419.243 419.013 418.818 418.633 418.508 418.335 418.175 418.06 417.948 417.72 417.463 417.235 416.998 416.768 416.503 416.15 415.848 415.738 415.8 415.923 415.958 415.853 415.685 415.483 415.203 415.035 415.008 414.973 414.913 414.913 414.828 414.793 414.71 414.675 414.615 414.53 414.443 414.278 414.13 413.955 413.833 413.5 413.18 412.863 413.2 412.828 413.013 413.003 412.768 412.553 412.388 412.23 412.003 411.768 411.568 411.388 411.238 411.02 410.733 410.44 410.098 409.695 409.378 409.093 408.748 408.478 408.305 408.19 408.048 407.993 407.943 407.823 407.728 407.695 407.655 407.673 407.655 407.64 407.58 407.455 407.338 407.253 407.18 407.083 406.92 406.815 406.83 406.768 406.628 406.453 406.37 406.323 406.295 406.233 406.078 405.89 405.818 405.723 405.58 405.448 405.403 405.325 405.3 405.238 405.1 405.01 404.915 404.818 404.69 404.63 404.588 404.488 404.45 404.408 404.395 404.328 404.293 404.295 404.183 404.073 403.945 403.873 403.763 403.588 403.353 403.103 402.808 402.555 402.26 401.943 401.615 401.308 401.035 400.788 400.575 400.303 399.995 399.628 399.343 398.918 398.683 398.443 398.075 397.655 397.385 397.098 396.763 396.478 396.205 396.098 395.918 395.678 395.45 395.235 394.97 394.675 394.338 393.97 393.753 393.57 393.288 392.965 392.675 392.395 392.11 391.903 391.675 391.44 391.203 390.995 390.838 390.643 390.433 390.145 389.855 389.595 389.33 389.135 388.99 388.805 388.615 388.418 388.283 388.12 387.965 387.728 387.45 387.08 386.758 386.485 386.233 386.133 386.065 386.023 385.84 385.685 385.58 385.488 385.345 385.123 384.91 384.665 384.375 384.153 384.02 383.848 383.65 383.428 383.2 382.963 382.68 382.32 381.98 381.66 381.29 380.965 380.765 380.588 380.418 380.3 380.168 380.078 379.993 379.88 379.75 379.578 379.39 379.203 378.95 378.663 378.275 377.833 377.47 377.148 376.695 376.39 376.138 375.825 375.573 375.425 375.26 375.005 374.588 374.183 373.77 373.438 373.143 372.923 372.728 372.52 372.313 372.113 371.73 371.445 371.188 370.915 370.893 370.67 370.638 369.825 369.673 369.458 369.305 369.203 368.92 368.615 368.48 368.365 368.255 368.158 368.068 368.05 367.913 367.803 367.655 367.535 367.358 367.038 366.818 366.705 366.535 366.223 365.848 365.48 365.103 364.755 364.465 364.11 363.703 363.393 363.04 362.628 362.265 361.898 361.5 361.158 360.918 360.748 360.54 360.23 359.873 359.495 359.218 358.963 358.625 358.128 357.61 357.23 356.9 356.55 356.113 355.483 354.85 354.23 353.603 352.97 352.418 352.02 351.673 351.425 351.153 351.005 351.46 350.61 349.76 348.84 348.165 347.675 347.2 346.71 346.208 345.753 345.305 345.043 345.078 344.938 344.733 344.673 344.49 343.858 343.08 342.655 342.335 342.04 341.768 341.55 341.308 341.048
424.445 424.428 424.408 424.31 424.203 424.208 424.15 424.063 423.87 423.625 423.465 423.335 423.105 422.843 422.625 422.518 422.275 422.023 421.99 421.858 421.935 421.908 421.813 421.725 421.62 421.468 421.385 421.405 421.31 421.145 421.08 421.038 421.035 421.003 420.908 420.808 420.698 420.54 420.24 419.87 419.613 419.408 419.173 418.938 418.838 418.695 418.553 418.385 418.188 417.915 417.66 417.423 417.188 417.003 416.753 416.403 416.145 416.02 416.148 416.21 416.143 416.053 415.888 415.683 415.455 415.345 415.338 415.308 415.3 415.223 415.13 415.06 415 414.938 414.808 414.718 414.605 414.463 414.318 414.11 413.95 413.633 413.27 413.055 413.005 413.113 413.29 413.223 412.988 412.77 412.563 412.34 412.135 411.92 411.755 411.613 411.505 411.315 411.088 410.763 410.433 410.013 409.648 409.425 409.078 408.758 408.483 408.283 408.175 408.115 408.01 407.82 407.753 407.78 407.84 407.81 407.733 407.678 407.62 407.565 407.493 407.38 407.235 407.118 407.018 406.88 406.773 406.713 406.545 406.105 406.138 406.32 406.265 406.148 406.01 405.89 405.803 405.72 405.605 405.548 405.45 405.4 405.395 405.373 405.315 405.188 405.115 404.98 404.905 404.845 404.778 404.713 404.625 404.558 404.585 404.493 404.435 404.425 404.35 404.255 404.14 403.995 403.915 403.725 403.548 403.373 403.08 402.778 402.483 402.205 401.895 401.62 401.335 401.028 400.85 400.568 400.238 399.943 399.663 399.323 399.013 398.77 398.388 398.053 397.735 397.403 397.073 396.758 396.473 396.3 396.135 395.873 395.655 395.393 395.088 394.848 394.6 394.263 394.013 393.753 393.485 393.223 392.89 392.595 392.288 392.028 391.855 391.635 391.42 391.18 390.94 390.763 390.533 390.193 389.893 389.645 389.45 389.285 389.12 388.953 388.733 388.533 388.365 388.208 388.04 387.87 387.523 387.173 386.773 386.495 386.38 386.32 386.318 386.165 385.978 385.808 385.665 385.603 385.508 385.35 385.17 384.923 384.673 384.458 384.248 384.033 383.835 383.625 383.398 383.168 382.845 382.513 382.198 381.885 381.538 381.233 380.945 380.743 380.565 380.405 380.283 380.205 380.098 379.968 379.838 379.68 379.52 379.338 379.038 378.655 378.29 377.81 377.463 377.235 376.905 376.62 376.395 376.173 375.95 375.79 375.53 375.175 374.81 374.368 373.935 373.59 373.333 373.045 372.845 372.675 372.485 372.318 372.063 371.795 371.323 371.09 370.993 370.923 370.825 370.505 369.893 369.7 369.445 369.24 369.008 368.815 368.673 368.553 368.515 368.395 368.31 368.215 368.113 367.973 367.983 367.85 367.585 367.318 367.073 366.943 366.82 366.583 366.255 365.878 365.518 365.148 364.83 364.398 364.065 363.638 363.335 362.978 362.58 362.233 361.83 361.42 361.103 360.9 360.695 360.483 360.175 359.725 359.443 359.168 358.878 358.498 358.018 357.568 357.235 356.898 356.493 355.948 355.27 354.635 354.045 353.448 352.893 352.445 352.085 351.758 351.413 351.138 351.043 350.958 350.103 349.16 348.498 347.973 347.543 347.058 346.593 346.035 345.683 345.578 345.833 345.923 345.598 344.875 344.263 343.763 343.383 343.098 342.733 342.383 342.108 341.83 341.573 341.323
424.635 424.618 424.585 424.498 424.415 424.4 424.41 424.208 424.045 423.848 423.648 423.473 423.268 423.025 422.735 422.598 422.41 422.458 422.45 422.253 422.128 422.125 422.068 421.99 421.86 421.7 421.613 421.635 421.515 421.368 421.323 421.298 421.33 421.31 421.235 421.123 420.945 420.79 420.568 420.303 420.07 419.863 419.61 419.333 419.16 419.063 418.84 418.695 418.48 418.183 417.918 417.68 417.463 417.26 416.98 416.65 416.378 416.333 416.43 416.42 416.34 416.198 415.94 415.78 415.65 415.575 415.605 415.575 415.588 415.478 415.388 415.308 415.243 415.168 415.06 414.908 414.795 414.623 414.488 414.265 414.055 413.745 413.458 413.24 413.365 413.52 413.458 413.403 413.195 412.96 412.708 412.443 412.19 412 411.863 411.728 411.65 411.475 411.253 410.955 410.608 410.118 409.728 409.44 409.148 408.905 408.643 408.41 408.29 408.253 408.093 407.883 407.79 407.858 407.943 407.953 407.878 407.75 407.68 407.653 407.55 407.46 407.318 407.168 407.105 406.97 406.8 406.678 406.588 406.335 406.295 406.31 406.288 406.148 406.038 405.97 405.893 405.795 405.708 405.648 405.585 405.44 405.47 405.505 405.4 405.34 405.248 405.14 405.08 405.038 404.983 404.95 404.823 404.78 404.753 404.678 404.608 404.578 404.515 404.41 404.295 404.13 403.995 403.85 403.718 403.528 403.298 402.968 402.683 402.395 402.1 401.83 401.533 401.285 401.055 400.768 400.453 400.193 399.95 399.685 399.45 399.133 398.823 398.433 398.025 397.665 397.39 397.063 396.785 396.505 396.295 396.068 395.843 395.623 395.305 394.983 394.728 394.523 394.298 394.028 393.743 393.405 393.098 392.735 392.535 392.2 392.02 391.81 391.585 391.348 391.078 390.858 390.595 390.263 389.95 389.745 389.558 389.403 389.255 389.008 388.82 388.625 388.475 388.295 388.093 387.925 387.588 387.143 386.853 386.71 386.598 386.473 386.493 386.37 386.13 385.94 385.78 385.673 385.585 385.488 385.375 385.173 384.963 384.753 384.528 384.225 383.98 383.788 383.585 383.388 383.058 382.705 382.418 382.06 381.73 381.433 381.15 380.875 380.668 380.523 380.363 380.3 380.168 380.033 379.925 379.77 379.553 379.35 378.948 378.535 378.185 377.86 377.625 377.365 377.203 376.96 376.758 376.53 376.3 376.073 375.765 375.395 374.998 374.598 374.165 373.778 373.498 373.2 372.998 372.805 372.625 372.468 372.375 371.99 371.768 371.315 371.093 370.978 370.793 370.59 370.48 370.065 369.743 369.445 369.218 369.065 368.918 368.888 368.765 368.65 368.645 368.528 368.388 368.275 368.145 367.988 367.775 367.598 367.375 367.138 366.96 366.7 366.455 366.13 365.853 365.503 365.083 364.698 364.333 363.858 363.563 363.255 362.948 362.53 362.12 361.715 361.345 361.078 360.945 360.745 360.54 360.12 359.633 359.338 359.055 358.778 358.363 357.888 357.535 357.183 356.78 356.27 355.7 355.085 354.443 353.89 353.408 352.908 352.463 352.068 351.698 351.363 351.138 350.92 350.578 349.46 348.853 348.35 347.76 347.188 346.943 346.748 347.05 347.015 346.515 345.708 345.455 345.083 344.57 344.143 343.798 343.45 343.088 342.755 342.448 342.08 341.823 341.555
424.78 424.775 424.73 424.648 424.57 424.57 424.548 424.418 424.265 424.06 423.778 423.655 423.365 423.16 423.023 422.855 422.843 422.81 422.663 422.418 422.428 422.38 422.303 422.243 422.103 421.918 421.843 421.81 421.743 421.665 421.645 421.558 421.59 421.57 421.49 421.373 421.225 421.043 420.89 420.76 420.62 420.463 420.085 419.763 419.57 419.38 419.155 418.993 418.815 418.52 418.248 417.998 417.77 417.538 417.198 416.88 416.658 416.663 416.695 416.635 416.535 416.353 416.163 415.995 415.898 415.843 415.88 415.843 415.75 415.71 415.585 415.465 415.4 415.305 415.195 415.043 414.968 414.84 414.663 414.413 414.108 413.875 413.59 413.435 413.65 413.743 413.6 413.563 413.378 413.073 412.75 412.338 412.055 411.953 411.875 411.773 411.653 411.465 411.285 411.028 410.623 410.125 409.73 409.485 409.248 408.993 408.78 408.573 408.443 408.31 408.193 408.015 407.898 407.895 407.958 408.013 408 407.925 407.785 407.7 407.578 407.385 407.308 407.16 407.075 406.968 406.85 406.708 406.648 406.625 406.45 406.268 406.243 406.193 406.13 406.14 406.038 405.945 405.93 405.863 405.813 405.673 405.593 405.513 405.425 405.4 405.39 405.35 405.305 405.255 405.215 405.135 405.008 404.97 404.905 404.863 404.795 404.7 404.643 404.568 404.425 404.278 404.138 403.95 403.825 403.635 403.4 403.165 402.868 402.538 402.265 401.968 401.713 401.455 401.223 400.985 400.72 400.47 400.245 400 399.765 399.458 399.13 398.793 398.368 397.97 397.663 397.353 397.095 396.8 396.54 396.305 396.053 395.833 395.568 395.283 394.998 394.76 394.538 394.25 393.975 393.648 393.27 392.875 392.605 392.353 392.213 392.05 391.773 391.503 391.218 390.943 390.695 390.385 390.1 389.908 389.75 389.58 389.363 389.088 388.89 388.703 388.573 388.37 388.178 387.965 387.708 387.395 387.275 387.093 386.868 386.685 386.56 386.468 386.325 386.11 385.913 385.743 385.65 385.565 385.485 385.318 385.155 384.963 384.74 384.418 384.13 384.003 383.838 383.63 383.308 382.9 382.58 382.238 381.928 381.62 381.34 381.048 380.795 380.618 380.478 380.378 380.29 380.185 380.04 379.848 379.548 379.238 378.828 378.575 378.313 378.088 377.918 377.655 377.443 377.203 377.025 376.788 376.515 376.225 375.96 375.628 375.25 374.815 374.405 373.983 373.668 373.315 373.123 372.923 372.745 372.593 372.423 372.2 371.938 371.58 371.243 371.075 370.923 370.868 370.743 370.418 370.04 369.728 369.425 369.253 369.188 369.183 369.165 368.983 368.848 368.79 368.633 368.528 368.4 368.208 368.025 367.91 367.643 367.395 367.128 366.893 366.678 366.385 365.988 365.668 365.343 364.955 364.483 364.163 363.775 363.475 363.175 362.863 362.458 362.028 361.66 361.31 361.138 360.965 360.755 360.473 359.973 359.558 359.285 358.983 358.573 358.185 357.79 357.403 357.03 356.573 356.09 355.485 354.878 354.308 353.845 353.33 352.838 352.385 351.993 351.64 351.32 351.008 350.87 350.31 349.04 348.685 348.195 347.84 347.98 347.555 347.178 346.795 346.5 346.035 345.755 345.403 344.958 344.568 344.2 343.783 343.413 343.073 342.755 342.385 342.045 341.72
424.943 424.893 424.865 424.803 424.728 424.683 424.663 424.563 424.453 424.178 423.93 423.743 423.56 423.403 423.293 423.15 423.048 422.945 422.74 422.62 422.68 422.585 422.548 422.408 422.283 422.143 422.075 422.015 421.978 421.928 421.873 421.9 421.863 421.853 421.77 421.633 421.483 421.333 421.225 421.153 421.1 420.933 420.533 420.173 419.905 419.73 419.463 419.448 419.203 418.923 418.655 418.365 418.103 417.858 417.485 417.135 416.978 416.993 416.95 416.88 416.743 416.545 416.4 416.293 416.188 416.105 416.113 416.098 416.053 415.935 415.795 415.663 415.6 415.485 415.335 415.22 415.153 414.935 414.83 414.61 414.223 413.99 413.753 413.623 413.683 414.21 413.828 413.728 413.528 413.208 412.833 412.343 412.103 411.965 411.88 411.763 411.63 411.445 411.265 411.035 410.608 410.135 409.808 409.553 409.3 409.09 408.883 408.708 408.555 408.403 408.275 408.123 407.985 407.968 408.025 408.15 408.113 408.078 407.97 407.865 407.675 407.405 407.298 407.163 407.068 407.023 406.988 406.865 406.773 406.625 406.47 406.31 406.283 406.235 406.223 406.203 406.15 406.115 406.098 406.015 405.933 405.88 405.828 405.608 405.43 405.448 405.535 405.523 405.478 405.465 405.435 405.35 405.238 405.193 405.11 405.07 404.98 404.858 404.768 404.7 404.568 404.403 404.285 404.105 403.883 403.75 403.533 403.265 403.008 402.743 402.455 402.175 401.915 401.68 401.438 401.205 400.978 400.733 400.475 400.223 400.01 399.793 399.543 399.14 398.743 398.318 397.975 397.695 397.423 397.093 396.803 396.558 396.303 396.063 395.81 395.545 395.23 394.975 394.703 394.398 394.09 393.803 393.49 393.075 392.79 392.52 392.295 392.173 391.993 391.73 391.41 391.055 390.773 390.525 390.265 390.083 389.938 389.73 389.46 389.208 388.953 388.72 388.63 388.48 388.263 388.088 387.91 387.745 387.61 387.435 387.12 386.855 386.685 386.558 386.405 386.265 386.05 385.908 385.758 385.66 385.595 385.46 385.273 385.128 384.905 384.603 384.355 384.24 384.073 383.835 383.563 383.143 382.713 382.373 382.055 381.723 381.473 381.213 380.94 380.733 380.605 380.543 380.368 380.235 380.018 379.798 379.525 379.235 378.94 378.753 378.64 378.438 378.178 377.883 377.663 377.433 377.208 376.998 376.738 376.43 376.14 375.863 375.51 375.11 374.703 374.3 373.893 373.54 373.245 373.065 372.875 372.703 372.553 372.355 372.133 371.845 371.505 371.318 371.103 370.925 370.783 370.725 370.433 369.993 369.675 369.49 369.435 369.453 369.398 369.24 369.14 369.043 368.925 368.755 368.563 368.463 368.32 368.163 367.998 367.745 367.46 367.135 366.865 366.573 366.218 365.898 365.593 365.198 364.785 364.365 363.975 363.625 363.388 363.138 362.738 362.318 362.01 361.66 361.323 361.14 360.97 360.773 360.453 359.903 359.49 359.168 358.82 358.463 358.093 357.68 357.233 356.84 356.443 355.928 355.335 354.745 354.24 353.708 353.228 352.723 352.295 351.92 351.513 351.113 350.753 350.428 349.718 349.233 349.178 348.645 347.95 347.76 347.423 347.078 346.798 346.493 346.153 345.763 345.415 345.003 344.585 344.103 343.71 343.32 343.038 342.633 342.288 341.913
425.14 425.06 424.983 424.925 424.855 424.853 424.8 424.68 424.553 424.298 424.115 423.9 423.72 423.603 423.503 423.358 423.215 423.098 422.818 422.828 422.84 422.8 422.71 422.603 422.428 422.34 422.27 422.215 422.168 422.13 422.09 422.118 422.12 422.155 422.063 421.858 421.743 421.623 421.538 421.455 421.383 421.245 420.918 420.543 420.29 420.078 419.783 419.785 419.625 419.338 419.09 418.82 418.468 418.163 417.75 417.438 417.295 417.298 417.248 417.123 416.993 416.795 416.65 416.538 416.475 416.35 416.34 416.318 416.285 416.185 416.053 415.93 415.82 415.688 415.543 415.413 415.3 415.148 414.97 414.735 414.405 414.14 413.885 413.773 413.893 414.338 414.02 413.888 413.693 413.405 413.033 412.66 412.528 412.283 412.093 411.8 411.638 411.47 411.288 411.078 410.675 410.253 409.91 409.658 409.415 409.225 408.998 408.825 408.663 408.5 408.36 408.255 408.158 408.133 408.113 408.178 408.2 408.14 408.028 407.928 407.73 407.54 407.375 407.265 407.123 407.068 407.073 407.07 406.838 406.61 406.493 406.438 406.375 406.34 406.318 406.28 406.235 406.233 406.19 406.073 406.05 406.088 405.998 405.89 405.828 405.79 405.805 405.783 405.725 405.635 405.608 405.573 405.5 405.403 405.313 405.203 405.058 404.938 404.87 404.765 404.638 404.473 404.313 404.245 403.993 403.795 403.655 403.435 403.173 402.958 402.693 402.39 402.143 401.893 401.605 401.393 401.173 400.968 400.738 400.49 400.223 399.993 399.765 399.458 399.058 398.658 398.355 398.025 397.72 397.4 397.15 396.86 396.565 396.283 396.013 395.733 395.433 395.133 394.885 394.603 394.293 393.93 393.595 393.203 392.97 392.675 392.378 392.265 392.068 391.92 391.598 391.24 390.873 390.555 390.345 390.183 390.03 389.768 389.518 389.288 389.05 388.835 388.688 388.52 388.328 388.18 388.063 387.93 387.785 387.593 387.345 387.035 386.823 386.688 386.568 386.413 386.23 386.038 385.883 385.753 385.648 385.615 385.413 385.208 385.025 384.848 384.645 384.453 384.225 383.995 383.715 383.33 382.9 382.538 382.21 381.898 381.62 381.365 381.095 380.843 380.598 380.465 380.32 380.185 379.955 379.818 379.56 379.358 379.208 379.075 378.913 378.608 378.31 378.055 377.85 377.63 377.388 377.163 376.913 376.625 376.293 376.02 375.738 375.433 375.033 374.658 374.21 373.783 373.433 373.225 373.053 372.868 372.705 372.598 372.36 372.19 371.823 371.505 371.253 371.023 370.945 370.968 370.738 370.303 369.995 369.78 369.683 369.703 369.638 369.495 369.413 369.308 369.148 369.023 368.818 368.698 368.533 368.333 368.255 368.015 367.728 367.365 367.055 366.818 366.443 366.07 365.8 365.475 365.055 364.615 364.208 363.793 363.543 363.31 362.985 362.67 362.313 361.988 361.653 361.34 361.153 360.95 360.71 360.32 359.785 359.413 359.065 358.74 358.398 358.018 357.5 357.085 356.71 356.268 355.728 355.108 354.49 354.09 353.553 353.055 352.555 352.118 351.66 351.278 350.868 350.325 350.828 349.48 348.973 348.655 348.44 348.183 347.728 347.4 347.083 346.77 346.483 346.16 345.823 345.378 344.918 344.47 344.035 343.598 343.265 342.883 342.515 342.143
425.31 425.253 425.168 425.065 425.01 425.003 424.913 424.838 424.673 424.47 424.24 424.07 423.923 423.795 423.65 423.478 423.378 423.243 423.043 422.973 423.005 422.978 422.893 422.805 422.688 422.545 422.45 422.393 422.323 422.285 422.268 422.273 422.335 422.38 422.318 422.125 421.985 421.895 421.823 421.76 421.643 421.478 421.228 421.058 420.698 420.335 420.235 420.19 420.033 419.768 419.48 419.17 418.803 418.395 418.115 417.86 417.673 417.533 417.408 417.328 417.208 417.05 416.968 416.805 416.73 416.573 416.593 416.548 416.515 416.45 416.323 416.198 416.038 415.905 415.75 415.658 415.495 415.355 415.203 414.925 414.638 414.373 414.115 414 414.025 414.625 414.2 414.038 413.783 413.52 413.24 412.905 412.585 412.123 412.14 412.07 411.865 411.633 411.388 411.125 410.798 410.45 410.083 409.753 409.515 409.345 409.128 408.955 408.778 408.608 408.48 408.363 408.308 408.32 408.305 408.26 408.265 408.218 408.05 407.948 407.848 407.668 407.503 407.37 407.248 407.148 407.09 406.965 406.683 406.705 406.748 406.628 406.538 406.458 406.425 406.375 406.325 406.348 406.295 406.23 406.22 406.225 406.125 406.14 406.145 406.05 405.998 406 405.873 405.62 405.753 405.73 405.655 405.578 405.475 405.355 405.138 405.008 404.913 404.843 404.678 404.528 404.41 404.308 404.158 403.985 403.768 403.565 403.308 403.075 402.835 402.578 402.293 402.068 401.798 401.57 401.34 401.133 400.933 400.72 400.46 400.228 399.998 399.74 399.39 399.013 398.655 398.325 397.99 397.678 397.375 397.093 396.803 396.495 396.228 395.93 395.623 395.315 395.03 394.745 394.433 394.053 393.675 393.318 393.05 392.795 392.54 392.328 392.11 391.98 391.708 391.355 390.918 390.643 390.455 390.255 390.053 389.833 389.595 389.43 389.2 388.975 388.763 388.56 388.373 388.298 388.22 388.108 387.885 387.718 387.52 387.275 387.003 386.848 386.7 386.553 386.408 386.193 386.033 385.863 385.725 385.648 385.525 385.338 385.158 385.033 384.858 384.638 384.368 384.083 383.78 383.433 383.018 382.67 382.375 382.085 381.758 381.483 381.178 380.87 380.54 380.395 380.263 380.125 380.098 379.99 379.798 379.615 379.433 379.258 379.063 378.778 378.48 378.213 378.02 377.753 377.515 377.255 377.025 376.715 376.463 376.16 375.913 375.588 375.323 374.958 374.493 374.11 373.698 373.383 373.228 373.025 372.843 372.748 372.588 372.303 372.075 371.77 371.475 371.163 371.04 370.98 370.785 370.67 370.288 369.988 369.878 369.873 369.838 369.8 369.675 369.558 369.455 369.358 369.105 368.983 368.803 368.635 368.435 368.255 367.973 367.648 367.325 367.055 366.688 366.275 366.013 365.713 365.328 364.893 364.493 364.09 363.793 363.568 363.333 362.965 362.625 362.328 361.98 361.628 361.353 361.125 360.908 360.603 360.188 359.713 359.343 358.995 358.695 358.305 357.793 357.325 356.963 356.555 356.058 355.405 354.768 354.385 353.89 353.363 352.87 352.44 352.04 351.56 351.058 350.58 350.633 350.018 349.22 349.083 348.898 348.535 348.135 347.723 347.425 347.11 346.8 346.553 346.153 345.715 345.31 344.87 344.385 343.938 343.495 343.085 342.715 342.335
425.498 425.413 425.378 425.22 425.173 425.15 425.048 424.943 424.808 424.603 424.405 424.245 424.045 423.908 423.73 423.565 423.583 423.463 423.35 423.253 423.188 423.138 423.055 422.998 422.875 422.768 422.665 422.573 422.48 422.455 422.435 422.448 422.503 422.558 422.513 422.363 422.235 422.155 422.108 422.03 421.868 421.663 421.558 421.41 421.12 420.688 420.77 420.573 420.37 420.123 419.833 419.495 419.113 418.813 418.58 418.365 418.113 417.88 417.718 417.628 417.505 417.33 417.243 417.078 416.938 416.878 416.815 416.78 416.713 416.675 416.57 416.435 416.28 416.133 415.983 415.83 415.733 415.605 415.388 415.13 414.793 414.563 414.31 414.198 414.263 414.71 414.545 414.21 413.933 413.665 413.428 413.115 412.688 412.128 412.22 412.37 412.185 411.778 411.52 411.225 410.89 410.533 410.203 409.868 409.605 409.403 409.19 409.02 408.888 408.73 408.603 408.46 408.41 408.46 408.478 408.405 408.373 408.288 408.21 408.105 407.955 407.888 407.708 407.525 407.39 407.265 407.168 406.928 406.943 407.055 406.963 406.838 406.778 406.643 406.508 406.473 406.36 406.373 406.415 406.36 406.338 406.315 406.248 406.29 406.308 406.245 406.173 406.163 406.11 405.97 406.028 405.945 405.87 405.798 405.69 405.545 405.285 405.143 405.088 404.96 404.758 404.645 404.548 404.425 404.303 404.155 403.878 403.678 403.455 403.213 403.073 402.828 402.463 402.235 402 401.743 401.56 401.348 401.123 400.92 400.67 400.428 400.19 400.013 399.72 399.343 398.958 398.608 398.248 397.943 397.618 397.343 397.015 396.718 396.433 396.133 395.775 395.458 395.185 394.895 394.623 394.318 393.88 393.463 393.108 392.848 392.655 392.34 392.123 391.913 391.72 391.355 391.028 390.838 390.625 390.34 390.145 389.933 389.698 389.515 389.313 389.033 388.825 388.635 388.505 388.428 388.338 388.228 388.035 387.903 387.758 387.558 387.225 387.03 386.843 386.725 386.555 386.353 386.21 385.995 385.843 385.735 385.613 385.503 385.353 385.193 385.023 384.85 384.593 384.225 383.855 383.53 383.13 382.803 382.513 382.178 381.838 381.563 381.263 380.88 380.585 380.403 380.325 380.283 380.24 380.168 380.035 379.825 379.61 379.38 379.16 378.893 378.7 378.438 378.115 377.868 377.62 377.358 377.14 376.865 376.575 376.31 376.073 375.79 375.493 375.188 374.795 374.338 373.965 373.588 373.388 373.178 372.995 372.838 372.695 372.558 372.378 372.193 371.803 371.42 371.13 371.005 370.94 370.755 370.543 370.218 370.115 370.045 370.058 370.09 370.16 369.823 369.665 369.528 369.41 369.23 369.013 368.963 368.668 368.445 368.215 367.953 367.643 367.345 366.995 366.543 366.275 365.985 365.6 365.21 364.8 364.385 364.003 363.713 363.563 363.258 362.923 362.633 362.345 361.988 361.633 361.378 361.118 360.878 360.6 360.17 359.678 359.338 359.045 358.635 358.115 357.623 357.215 356.82 356.355 355.748 355.163 354.685 354.188 353.718 353.275 352.905 352.553 351.995 351.405 350.98 350.74 351.048 350.103 349.55 349.255 348.888 348.543 348.078 347.823 347.453 347.098 346.855 346.478 346.06 345.71 345.31 344.728 344.19 343.69 343.343 342.935 342.533
425.7 425.613 425.51 425.455 425.35 425.325 425.225 425.053 424.898 424.735 424.54 424.425 424.188 423.975 423.713 423.765 423.828 423.753 423.625 423.543 423.413 423.335 423.193 423.14 423.04 422.958 422.86 422.81 422.685 422.62 422.605 422.613 422.67 422.715 422.698 422.55 422.47 422.443 422.368 422.25 421.995 421.855 421.853 421.595 421.288 421.075 421.078 420.88 420.658 420.46 420.16 419.793 419.508 419.233 418.995 418.778 418.52 418.298 418.088 418.035 417.915 417.708 417.508 417.388 417.248 417.148 417.045 416.968 416.9 416.853 416.758 416.613 416.465 416.303 416.15 416.035 415.928 415.76 415.56 415.32 414.995 414.725 414.538 414.383 414.493 414.77 415.015 414.313 414.063 413.79 413.588 413.36 413.083 412.79 412.6 412.51 412.245 411.753 411.323 411.25 410.98 410.648 410.28 409.945 409.68 409.465 409.305 409.105 408.97 408.868 408.725 408.633 408.573 408.635 408.585 408.568 408.515 408.435 408.35 408.27 408.09 408.02 407.928 407.738 407.578 407.423 407.213 407.07 407.225 407.28 407.18 407.003 406.965 406.783 406.605 406.595 406.563 406.585 406.595 406.57 406.535 406.495 406.525 406.428 406.445 406.443 406.395 406.373 406.335 406.283 406.215 406.188 406.095 406.005 405.883 405.748 405.588 405.445 405.358 405.238 405.015 404.73 404.633 404.54 404.41 404.288 404.063 403.81 403.595 403.4 403.275 403.108 402.768 402.46 402.23 401.925 401.78 401.588 401.32 401.133 400.913 400.665 400.41 400.228 399.933 399.635 399.255 398.905 398.528 398.168 397.88 397.57 397.258 396.938 396.595 396.293 395.965 395.643 395.385 395.105 394.858 394.455 394.068 393.678 393.255 392.933 392.715 392.37 392.05 391.8 391.658 391.503 391.263 390.983 390.763 390.56 390.38 390.088 389.825 389.588 389.353 389.14 388.943 388.78 388.648 388.55 388.408 388.3 388.128 388 387.903 387.723 387.43 387.198 387.023 386.86 386.69 386.533 386.348 386.14 385.963 385.845 385.723 385.64 385.533 385.36 385.208 384.98 384.71 384.373 383.998 383.595 383.208 382.918 382.595 382.268 381.915 381.6 381.295 380.908 380.668 380.518 380.41 380.345 380.34 380.328 380.165 379.963 379.768 379.528 379.295 379.05 378.755 378.43 378.168 377.943 377.683 377.453 377.29 377.043 376.715 376.493 376.255 376 375.683 375.393 375.078 374.665 374.29 373.855 373.533 373.3 373.078 372.973 372.788 372.643 372.488 372.32 372.21 371.78 371.365 371.155 371.073 370.878 370.618 370.485 370.408 370.33 370.253 370.225 370.175 370.01 369.858 369.803 369.88 369.55 369.3 369.103 368.86 368.628 368.46 368.183 367.878 367.57 367.21 366.823 366.473 366.19 365.893 365.453 365.05 364.648 364.248 363.985 363.753 363.55 363.31 362.94 362.643 362.315 361.97 361.653 361.29 361.058 360.84 360.548 360.155 359.74 359.37 358.998 358.525 357.983 357.455 357.015 356.508 355.93 355.493 355.048 354.578 354.14 353.803 353.335 352.923 352.353 351.83 351.41 351.085 350.763 351.088 350.028 349.713 349.393 348.985 348.54 348.22 347.855 347.425 347.093 346.818 346.435 346.035 345.61 344.943 344.41 343.928 343.528 343.078 342.76
425.955 425.838 425.763 425.69 425.585 425.543 425.375 425.2 425.03 424.853 424.708 424.55 424.373 423.93 423.798 423.938 423.933 424.018 423.778 423.683 423.565 423.5 423.435 423.313 423.19 423.105 423.018 422.975 422.96 422.815 422.76 422.788 422.823 422.855 422.863 422.803 422.75 422.7 422.61 422.383 422.173 422.15 422.16 421.923 421.555 421.448 421.4 421.223 420.93 420.75 420.505 420.155 419.945 419.65 419.438 419.218 418.955 418.738 418.513 418.415 418.21 418.02 417.81 417.65 417.503 417.405 417.29 417.203 417.07 416.978 416.893 416.788 416.625 416.48 416.35 416.263 416.115 415.93 415.72 415.5 415.188 414.955 414.67 414.668 414.73 414.99 415.108 414.488 414.243 414.01 413.798 413.578 413.36 413.1 412.833 412.545 412.26 411.953 411.65 411.36 410.98 410.638 410.323 410.033 409.775 409.533 409.37 409.265 409.208 409.128 408.96 408.873 408.845 408.808 408.703 408.635 408.593 408.508 408.453 408.335 408.22 408.125 408 407.84 407.74 407.523 407.29 407.27 407.295 407.355 407.343 407.248 407.128 406.97 406.77 406.805 406.868 406.873 406.853 406.82 406.75 406.693 406.705 406.71 406.693 406.728 406.655 406.608 406.583 406.503 406.478 406.388 406.295 406.205 406.088 405.953 405.825 405.69 405.565 405.398 405.19 404.923 404.793 404.618 404.52 404.375 404.23 404.05 403.773 403.575 403.448 403.318 403.06 402.725 402.47 402.205 401.965 401.748 401.508 401.343 401.18 400.97 400.728 400.408 400.163 399.928 399.593 399.21 398.795 398.408 398.065 397.755 397.463 397.145 396.823 396.498 396.158 395.835 395.598 395.298 395.023 394.653 394.233 393.895 393.455 393.053 392.703 392.328 392.098 391.998 391.823 391.6 391.383 391.135 390.99 390.898 390.655 390.293 389.903 389.618 389.428 389.235 389.045 388.938 388.815 388.653 388.488 388.335 388.173 388.035 387.948 387.84 387.615 387.4 387.228 387.018 386.8 386.65 386.47 386.253 386.098 385.99 385.87 385.815 385.678 385.56 385.363 385.095 384.745 384.41 384.08 383.688 383.298 383.008 382.685 382.338 381.925 381.558 381.27 380.958 380.755 380.608 380.478 380.403 380.445 380.398 380.25 380.093 379.873 379.68 379.418 379.158 378.818 378.495 378.245 378.003 377.768 377.573 377.393 377.22 376.948 376.628 376.423 376.165 375.895 375.585 375.248 374.913 374.565 374.15 373.728 373.468 373.22 373.075 372.893 372.82 372.638 372.458 372.388 372.038 371.638 371.31 371.155 371.048 370.89 370.833 370.673 370.533 370.5 370.425 370.325 370.225 370.085 369.98 369.938 369.758 369.588 369.345 369.158 368.848 368.593 368.413 368.198 367.843 367.465 367.045 366.638 366.38 366.105 365.72 365.303 364.885 364.523 364.223 363.97 363.75 363.593 363.288 362.94 362.65 362.323 361.94 361.588 361.29 361.088 360.878 360.605 360.18 359.775 359.358 358.84 358.27 357.733 357.163 356.688 356.215 355.88 355.453 355.04 354.673 354.17 353.41 353.15 352.798 352.318 351.89 351.458 351.043 350.823 351.198 350.41 349.855 349.415 349.033 348.64 348.235 347.82 347.463 347.078 346.705 346.278 345.793 345.18 344.643 344.133 343.69 343.32 342.983
426.343 426.148 426.033 425.915 425.773 425.665 425.515 425.36 425.178 424.995 424.835 424.718 424.523 424.063 423.773 424.135 424.148 424.183 424.023 423.828 423.713 423.658 423.573 423.525 423.43 423.333 423.198 423.113 423.035 422.975 422.935 422.915 422.918 422.945 422.995 423.003 423.02 422.978 422.865 422.51 422.5 422.583 422.483 422.235 421.898 421.848 421.678 421.478 421.22 421.038 420.838 420.56 420.318 420.165 419.978 419.738 419.433 419.225 419.015 418.793 418.578 418.308 418.12 417.938 417.748 417.658 417.52 417.425 417.298 417.163 417.068 416.975 416.798 416.62 416.488 416.365 416.288 416.13 415.833 415.688 415.375 415.098 414.895 414.965 415.165 415.228 415.28 414.73 414.453 414.243 414.025 413.788 413.578 413.273 412.91 412.405 412.14 412.085 411.788 411.38 410.978 410.615 410.348 410.083 409.868 409.645 409.493 409.425 409.433 409.403 409.253 409.068 408.975 408.915 408.798 408.743 408.655 408.6 408.538 408.415 408.308 408.125 408.028 407.915 407.798 407.565 407.448 407.478 407.46 407.428 407.448 407.433 407.378 407.295 407.24 407.163 407.148 407.063 407.09 407.098 406.973 406.945 406.913 406.918 406.925 406.928 406.885 406.84 406.86 406.76 406.725 406.63 406.515 406.41 406.288 406.113 406.013 405.908 405.763 405.595 405.388 405.11 404.915 404.795 404.625 404.458 404.325 404.143 403.925 403.738 403.595 403.473 403.28 403.013 402.78 402.49 402.275 402.05 401.808 401.593 401.395 401.18 400.975 400.645 400.413 400.168 399.85 399.535 399.09 398.69 398.323 397.968 397.66 397.345 397.048 396.675 396.358 396.025 395.763 395.475 395.163 394.795 394.398 394.04 393.625 393.158 392.77 392.445 392.31 392.158 391.913 391.64 391.465 391.303 391.175 391.033 390.785 390.46 390.098 389.748 389.543 389.36 389.26 389.133 388.988 388.735 388.54 388.415 388.25 388.07 387.983 387.915 387.783 387.6 387.4 387.213 386.978 386.825 386.613 386.363 386.213 386.143 386.063 385.988 385.88 385.71 385.47 385.22 384.858 384.485 384.07 383.75 383.38 383.05 382.748 382.385 381.933 381.625 381.45 381.213 380.995 380.795 380.605 380.545 380.543 380.463 380.353 380.248 380.008 379.775 379.545 379.29 378.93 378.605 378.343 378.105 377.903 377.71 377.523 377.393 377.173 376.94 376.58 376.355 376.083 375.808 375.478 375.13 374.755 374.395 374.01 373.63 373.33 373.135 372.95 372.92 372.758 372.563 372.363 372.183 371.905 371.503 371.273 371.168 371.078 371.073 371.098 370.838 370.728 370.665 370.583 370.433 370.265 370.145 370.175 369.898 369.75 369.545 369.36 369.12 368.875 368.673 368.385 368.105 367.73 367.28 366.865 366.563 366.275 365.95 365.558 365.138 364.788 364.528 364.265 364.068 363.813 363.57 363.283 363.025 362.66 362.323 361.988 361.665 361.353 361.125 360.923 360.65 360.145 359.61 359.133 358.568 357.935 357.34 356.935 356.58 356.235 355.89 355.453 355 354.478 353.778 353.555 353.298 352.868 352.385 351.958 351.485 351.143 350.89 351.098 350.833 349.805 349.47 349.093 348.655 348.22 347.848 347.378 346.915 346.5 346.053 345.498 344.9 344.355 343.898 343.513 343.178
426.805 426.528 426.335 426.223 426.038 425.86 425.683 425.518 425.318 425.138 424.955 424.858 424.658 424.358 424.045 424.298 424.378 424.423 424.29 424.015 423.88 423.768 423.74 423.678 423.61 423.538 423.4 423.29 423.19 423.143 423.12 423.075 423.05 423.11 423.13 423.165 423.223 423.253 423.078 422.735 422.92 422.888 422.663 422.383 422.123 422.09 421.938 421.75 421.558 421.363 421.138 420.953 420.748 420.628 420.395 420.108 419.858 419.698 419.493 419.23 418.918 418.648 418.42 418.178 418.018 417.873 417.738 417.655 417.558 417.425 417.303 417.185 417.038 416.823 416.655 416.515 416.42 416.243 415.99 415.773 415.608 415.23 415.215 415.328 415.41 415.378 415.505 414.91 414.633 414.43 414.225 413.99 413.748 413.473 412.968 412.22 411.953 412.07 411.763 411.425 411.05 410.723 410.425 410.195 410.033 409.783 409.643 409.623 409.658 409.635 409.56 409.32 409.1 408.97 408.895 408.838 408.76 408.64 408.538 408.465 408.335 408.125 407.998 407.893 407.79 407.713 407.66 407.668 407.58 407.565 407.595 407.598 407.58 407.503 407.47 407.45 407.395 407.318 407.243 407.223 407.163 407.128 407.2 407.175 407.128 407.158 407.15 407.09 407.07 407.035 406.985 406.863 406.73 406.64 406.485 406.323 406.21 406.118 405.93 405.785 405.608 405.355 405.135 404.978 404.778 404.563 404.373 404.188 404.058 403.903 403.738 403.615 403.4 403.318 403.03 402.738 402.52 402.328 402.105 401.875 401.62 401.368 401.115 400.89 400.613 400.345 400.103 399.765 399.43 399.085 398.63 398.213 397.91 397.568 397.205 396.853 396.543 396.19 395.908 395.61 395.268 394.9 394.523 394.143 393.745 393.373 392.968 392.663 392.4 392.21 391.975 391.753 391.553 391.365 391.21 391.083 390.863 390.573 390.188 389.888 389.635 389.498 389.398 389.213 389.02 388.843 388.645 388.51 388.335 388.193 388.068 388.035 387.915 387.795 387.693 387.465 387.28 387.08 386.778 386.523 386.345 386.233 386.21 386.09 385.988 385.838 385.61 385.355 385.013 384.598 384.115 383.7 383.348 383.045 382.715 382.373 381.988 381.75 381.558 381.42 381.265 381.098 380.913 380.76 380.613 380.485 380.41 380.305 380.075 379.845 379.63 379.4 379.073 378.753 378.473 378.223 378.025 377.883 377.695 377.538 377.403 377.265 376.87 376.5 376.305 376 375.698 375.355 374.995 374.7 374.363 373.898 373.51 373.22 373.1 373.015 372.838 372.628 372.42 372.21 371.963 371.718 371.528 371.325 371.213 371.143 371.185 371.138 370.973 370.868 370.783 370.628 370.475 370.268 370.158 370.055 369.923 369.825 369.57 369.358 369.055 368.795 368.55 368.293 367.958 367.605 367.14 366.803 366.533 366.203 365.825 365.465 365.11 364.885 364.603 364.353 364.14 363.893 363.625 363.293 363.008 362.688 362.45 362.05 361.68 361.37 361.085 360.843 360.435 359.888 359.315 358.68 358.1 357.673 357.303 356.975 356.673 356.293 355.848 355.43 354.938 354.488 354.2 353.765 353.345 352.913 352.423 351.94 351.573 351.17 350.915 351.195 350.415 349.86 349.55 349.063 348.675 348.205 347.695 347.195 346.753 346.308 345.798 345.16 344.555 344.225 343.808 343.458
427.18 426.905 426.66 426.493 426.3 426.088 425.868 425.64 425.443 425.253 425.103 424.945 424.728 424.453 424.243 424.39 424.528 424.545 424.415 424.235 424.08 423.963 423.925 423.863 423.818 423.718 423.66 423.518 423.415 423.33 423.288 423.273 423.24 423.25 423.278 423.328 423.403 423.42 423.18 423.04 423.273 423.095 422.745 422.465 422.353 422.333 422.208 422.02 421.818 421.59 421.463 421.34 421.213 421.033 420.715 420.488 420.273 420.105 419.953 419.718 419.408 419.123 418.825 418.493 418.323 418.133 417.985 417.86 417.743 417.658 417.54 417.39 417.21 417.033 416.88 416.708 416.56 416.403 416.198 415.83 415.593 415.445 415.555 415.668 415.608 415.51 415.548 415.188 414.805 414.618 414.41 414.175 413.96 413.705 413.15 412.543 412.173 412.065 411.735 411.488 411.173 410.85 410.558 410.35 410.195 409.96 409.883 409.833 409.865 409.858 409.803 409.658 409.4 409.155 409.013 408.963 408.85 408.723 408.598 408.52 408.403 408.2 408.043 407.955 407.858 407.848 407.885 407.86 407.763 407.705 407.773 407.71 407.695 407.663 407.598 407.683 407.715 407.603 407.513 407.403 407.395 407.445 407.508 407.445 407.343 407.38 407.36 407.373 407.348 407.333 407.248 407.103 406.965 406.89 406.695 406.515 406.47 406.338 406.155 405.943 405.768 405.528 405.33 405.175 404.995 404.788 404.608 404.415 404.245 404.04 403.883 403.718 403.583 403.418 403.235 403.005 402.743 402.563 402.345 402.113 401.86 401.52 401.268 401.075 400.868 400.593 400.32 400.03 399.728 399.478 398.985 398.518 398.125 397.833 397.478 397.08 396.72 396.373 396.005 395.723 395.395 395.045 394.625 394.308 393.895 393.525 393.235 392.865 392.543 392.265 392.073 391.855 391.57 391.333 391.188 391.045 390.85 390.593 390.245 389.985 389.803 389.685 389.498 389.3 389.115 388.933 388.763 388.598 388.415 388.28 388.183 388.108 388.018 387.903 387.728 387.585 387.495 387.31 387.053 386.783 386.58 386.475 386.325 386.198 386.048 385.893 385.653 385.398 385.065 384.698 384.198 383.75 383.39 383.07 382.67 382.36 382.1 381.903 381.743 381.613 381.49 381.34 381.1 380.89 380.678 380.523 380.418 380.36 380.173 379.95 379.693 379.458 379.233 378.97 378.71 378.45 378.248 378.123 377.925 377.673 377.568 377.325 376.998 376.668 376.455 376.218 375.94 375.603 375.223 374.913 374.608 374.133 373.753 373.478 373.355 373.163 372.935 372.758 372.633 372.368 372.105 371.938 371.675 371.488 371.36 371.293 371.25 371.323 371.363 371.11 370.945 370.775 370.628 370.475 370.33 370.165 370.14 370.035 369.81 369.538 369.285 369.083 368.745 368.455 368.248 367.913 367.455 367.073 366.775 366.525 366.093 365.73 365.39 365.12 364.858 364.615 364.373 364.108 363.855 363.563 363.223 362.95 362.618 362.265 361.973 361.553 361.29 361.033 360.64 360.06 359.378 358.873 358.508 358.15 357.773 357.343 357.045 356.665 356.183 355.748 355.33 354.96 354.628 354.2 353.805 353.375 352.85 352.358 351.983 351.518 351.158 350.928 351.558 350.475 350.048 349.498 349.09 348.58 348.038 347.495 347.033 346.573 346.043 345.465 344.87 344.423 344.08 343.735
427.568 427.36 427.083 426.865 426.593 426.365 426.11 425.893 425.623 425.383 425.22 425.023 424.688 424.393 424.538 424.608 424.655 424.605 424.523 424.38 424.265 424.168 424.09 424.073 423.993 423.903 423.835 423.728 423.618 423.543 423.463 423.413 423.413 423.443 423.458 423.48 423.52 423.505 423.333 423.325 423.438 423.243 422.898 422.735 422.63 422.578 422.43 422.273 422.073 421.948 421.815 421.698 421.575 421.3 421.018 420.795 420.623 420.493 420.368 420.155 419.925 419.645 419.358 419.003 418.668 418.403 418.228 418.07 417.958 417.83 417.74 417.593 417.443 417.24 417.063 416.938 416.745 416.578 416.343 416 415.743 415.69 415.865 415.9 415.8 415.568 415.418 415.613 414.983 414.825 414.648 414.43 414.273 413.948 413.385 412.96 412.373 411.995 411.675 411.435 411.178 410.933 410.688 410.488 410.335 410.193 410.133 410.085 410.038 410.065 410.008 409.93 409.693 409.405 409.228 409.065 408.97 408.863 408.698 408.615 408.503 408.368 408.188 408.11 407.975 407.965 408.008 407.95 407.908 407.96 407.978 407.9 407.87 407.81 407.745 407.875 407.955 407.943 407.868 407.748 407.658 407.763 407.805 407.75 407.645 407.655 407.618 407.62 407.615 407.618 407.578 407.398 407.26 407.135 406.94 406.775 406.678 406.578 406.41 406.203 405.973 405.785 405.555 405.37 405.223 405.03 404.828 404.618 404.478 404.275 404.05 403.915 403.803 403.613 403.408 403.21 402.975 402.808 402.558 402.31 402.085 401.76 401.46 401.21 400.998 400.738 400.455 400.238 399.945 399.673 399.335 398.878 398.44 398.113 397.763 397.328 396.91 396.518 396.11 395.718 395.393 395.095 394.765 394.425 394.043 393.85 393.533 393.18 392.793 392.438 392.135 391.893 391.625 391.343 391.188 391.043 390.85 390.558 390.368 390.22 390.068 389.853 389.638 389.395 389.198 389.053 388.858 388.66 388.53 388.4 388.273 388.185 388.155 387.99 387.828 387.69 387.638 387.508 387.273 386.985 386.788 386.658 386.48 386.308 386.103 385.863 385.635 385.378 385.02 384.673 384.215 383.838 383.423 383.098 382.705 382.55 382.298 382.155 382.043 381.878 381.75 381.535 381.285 381.023 380.78 380.598 380.48 380.398 380.26 380.033 379.823 379.598 379.42 379.19 379.018 378.755 378.513 378.338 378.155 377.873 377.653 377.503 377.235 376.915 376.65 376.415 376.175 375.833 375.48 375.135 374.843 374.463 374.025 373.73 373.545 373.283 373.033 372.828 372.815 372.495 372.28 372.093 371.81 371.67 371.503 371.42 371.355 371.345 371.433 371.36 371.133 371.103 370.768 370.613 370.51 370.328 370.16 370.04 369.95 369.755 369.538 369.34 369.013 368.685 368.428 368.158 367.758 367.323 367.003 366.705 366.348 365.943 365.648 365.38 365.113 364.853 364.568 364.368 364.103 363.8 363.488 363.188 362.87 362.563 362.175 361.798 361.513 361.163 360.755 360.275 359.755 359.37 359.073 358.693 358.253 357.755 357.32 356.928 356.47 356.048 355.705 355.415 355.08 354.635 354.14 353.748 353.255 352.79 352.36 351.945 351.588 351.195 351.198 351.39 350.485 350.098 349.53 348.978 348.393 347.808 347.285 346.82 346.32 345.79 345.258 344.698 344.318 343.978
428.045 427.788 427.453 427.278 426.97 426.748 426.493 426.165 425.865 425.655 425.418 425.153 424.653 424.63 424.818 424.783 424.875 424.723 424.695 424.62 424.52 424.378 424.323 424.285 424.178 424.095 424.005 423.93 423.808 423.765 423.705 423.65 423.593 423.648 423.64 423.618 423.628 423.618 423.445 423.478 423.513 423.328 423.208 423.075 422.92 422.815 422.663 422.478 422.333 422.213 422.11 421.993 421.798 421.518 421.24 421.045 420.935 420.863 420.698 420.523 420.39 420.125 419.84 419.47 419.145 418.768 418.49 418.358 418.253 418.06 417.925 417.783 417.62 417.455 417.27 417.078 416.888 416.663 416.423 416.138 415.983 415.983 416.178 416.11 415.913 415.73 415.635 415.683 415.233 415.08 414.938 414.818 414.615 414.235 413.665 412.99 412.41 412.053 411.683 411.455 411.233 411.035 410.84 410.685 410.55 410.433 410.333 410.315 410.203 410.165 410.108 410.065 409.925 409.67 409.455 409.23 409.105 409.023 408.87 408.713 408.613 408.498 408.385 408.213 408.108 408.06 408.105 408.085 408.08 408.085 408.175 408.125 408.085 408.085 408.03 408.123 408.088 408.155 408.118 408.045 407.975 407.993 408.018 407.97 407.908 407.885 407.923 407.895 407.83 407.928 407.845 407.77 407.62 407.363 407.218 407.038 406.998 406.77 406.635 406.455 406.165 405.983 405.795 405.6 405.45 405.26 405.058 404.888 404.675 404.485 404.34 404.103 403.958 403.775 403.605 403.4 403.2 403.015 402.77 402.515 402.295 401.99 401.628 401.328 401.043 400.793 400.625 400.428 400.198 399.92 399.61 399.225 398.785 398.368 398.028 397.583 397.105 396.685 396.163 395.728 395.41 395.195 394.928 394.698 394.408 394.1 393.7 393.323 392.953 392.605 392.228 391.878 391.613 391.355 391.21 391.098 390.9 390.695 390.605 390.408 390.235 390.025 389.798 389.548 389.303 389.108 388.928 388.785 388.643 388.485 388.385 388.285 388.22 388.105 387.915 387.738 387.64 387.565 387.395 387.225 387.005 386.795 386.598 386.408 386.153 385.86 385.56 385.228 384.975 384.603 384.253 383.88 383.503 383.088 382.733 382.633 382.55 382.55 382.41 382.203 381.948 381.688 381.433 381.23 380.943 380.755 380.525 380.388 380.325 380.183 379.968 379.763 379.588 379.398 379.228 378.955 378.788 378.665 378.415 378.178 377.855 377.678 377.395 377.13 376.9 376.6 376.353 376.043 375.703 375.373 375.008 374.685 374.293 373.93 373.63 373.315 373.083 372.833 372.74 372.533 372.365 372.175 371.968 371.813 371.638 371.598 371.593 371.428 371.458 371.465 371.318 371.13 370.953 370.773 370.66 370.505 370.273 370.183 370.045 369.92 369.785 369.46 369.16 368.77 368.498 368.235 367.918 367.543 367.243 366.863 366.535 366.155 365.875 365.6 365.343 365.083 364.818 364.613 364.358 364.038 363.755 363.525 363.125 362.76 362.363 362.023 361.728 361.363 360.975 360.605 360.248 359.885 359.588 359.175 358.685 358.135 357.625 357.185 356.778 356.425 356.098 355.77 355.463 355.053 354.598 354.095 353.693 353.223 352.713 352.32 352.005 351.61 351.328 351.205 351.043 350.353 349.918 349.335 348.73 348.09 347.558 347.098 346.643 346.195 345.66 345.105 344.635 344.29
428.51 428.175 427.94 427.703 427.46 427.175 426.865 426.51 426.18 425.858 425.573 425.3 424.895 424.988 425.045 425.008 424.985 424.94 424.873 424.813 424.738 424.618 424.555 424.515 424.438 424.328 424.23 424.155 424.108 424.05 423.94 423.87 423.825 423.805 423.788 423.8 423.79 423.773 423.673 423.59 423.58 423.533 423.518 423.35 423.175 423.055 422.88 422.675 422.543 422.443 422.355 422.205 422.033 421.788 421.558 421.378 421.27 421.185 421.033 420.885 420.718 420.413 420.208 419.918 419.605 419.118 418.828 418.673 418.57 418.398 418.233 417.998 417.838 417.655 417.46 417.288 417.023 416.755 416.518 416.4 416.28 416.265 416.423 416.503 416.155 416 415.855 415.95 415.48 415.368 415.26 415.113 414.775 414.15 413.615 413.103 412.55 412.19 411.89 411.643 411.378 411.203 411.025 410.913 410.773 410.613 410.495 410.39 410.178 410.083 410.125 410.13 410.053 409.883 409.683 409.425 409.285 409.143 409.023 408.853 408.738 408.665 408.488 408.325 408.265 408.2 408.243 408.188 408.205 408.275 408.31 408.338 408.333 408.343 408.343 408.318 408.31 408.3 408.298 408.283 408.288 408.248 408.2 408.15 408.095 408.04 408.07 408.17 408.145 408.06 407.978 407.943 407.93 407.653 407.443 407.34 407.22 406.933 406.828 406.655 406.435 406.228 406.05 405.833 405.648 405.52 405.295 405.108 404.995 404.815 404.5 404.293 404.103 403.95 403.748 403.565 403.38 403.233 402.988 402.678 402.46 402.165 401.785 401.48 401.225 400.978 400.83 400.62 400.428 400.175 399.91 399.568 399.113 398.643 398.243 397.803 397.313 396.833 396.308 395.788 395.493 395.27 395.098 394.925 394.598 394.263 393.833 393.415 393.008 392.643 392.23 391.86 391.573 391.37 391.263 391.153 391.048 390.87 390.748 390.543 390.335 390.138 389.925 389.668 389.445 389.19 389.018 388.88 388.733 388.603 388.468 388.348 388.3 388.223 388.063 387.858 387.718 387.618 387.503 387.365 387.15 386.93 386.668 386.418 386.118 385.795 385.48 385.175 384.918 384.553 384.2 383.858 383.425 383.005 382.84 382.91 382.983 382.935 382.72 382.418 382.128 381.83 381.568 381.403 381.148 380.88 380.643 380.46 380.353 380.32 380.113 379.973 379.768 379.528 379.323 379.148 378.963 378.813 378.578 378.378 378.093 377.86 377.603 377.355 377.135 376.86 376.583 376.295 375.93 375.608 375.27 374.938 374.55 374.195 373.8 373.405 373.12 372.953 372.85 372.7 372.48 372.295 372.14 371.975 371.833 371.708 371.655 371.548 371.56 371.598 371.453 371.19 371.055 370.89 370.785 370.6 370.438 370.28 370.123 369.935 369.803 369.585 369.3 368.97 368.66 368.42 368.095 367.75 367.403 367.033 366.673 366.418 366.098 365.825 365.55 365.29 365.005 364.788 364.59 364.318 363.985 363.705 363.35 362.943 362.533 362.22 361.913 361.568 361.245 360.933 360.728 360.303 359.923 359.513 358.995 358.43 357.938 357.495 357.12 356.795 356.465 356.155 355.808 355.415 354.853 354.273 354.01 353.605 353.08 352.748 352.383 352.01 351.753 351.415 351.185 351.18 350.173 349.613 349.11 348.508 347.94 347.438 347.023 346.57 346.065 345.52 345.055 344.583
428.923 428.643 428.46 428.22 427.895 427.58 427.235 426.815 426.433 426.058 425.73 425.453 425.103 425.138 425.223 425.24 425.208 425.14 425.03 424.948 424.91 424.918 424.86 424.78 424.698 424.665 424.525 424.493 424.378 424.305 424.223 424.108 424.048 424.003 423.97 423.96 423.94 423.938 423.865 423.765 423.793 423.773 423.75 423.595 423.433 423.285 423.065 422.888 422.8 422.713 422.558 422.45 422.278 422.123 421.905 421.725 421.59 421.47 421.358 421.23 421.008 420.688 420.528 420.405 420.048 419.598 419.268 419.028 418.888 418.715 418.523 418.338 418.123 417.878 417.678 417.475 417.19 416.925 416.708 416.673 416.568 416.563 416.618 416.65 416.508 416.27 416.113 416.28 415.83 415.74 415.565 415.258 414.678 414.098 413.555 413.178 412.773 412.358 412.24 411.83 411.583 411.468 411.363 411.2 410.99 410.738 410.558 410.375 410 409.873 409.98 410.148 410.128 410.005 409.825 409.608 409.425 409.298 409.14 408.975 408.883 408.76 408.533 408.44 408.405 408.365 408.328 408.295 408.315 408.425 408.458 408.543 408.583 408.595 408.565 408.53 408.53 408.54 408.55 408.543 408.533 408.533 408.475 408.378 408.308 408.288 408.248 408.36 408.393 408.315 408.23 408.125 408.033 407.908 407.695 407.568 407.365 407.158 406.998 406.825 406.625 406.51 406.31 406.145 405.92 405.72 405.538 405.328 405.148 404.965 404.738 404.57 404.393 404.138 403.903 403.725 403.525 403.305 403.075 402.853 402.628 402.348 402.05 401.725 401.478 401.243 401.023 400.823 400.64 400.443 400.155 399.83 399.38 398.938 398.475 398.035 397.553 397 396.43 395.955 395.653 395.465 395.32 395.09 394.808 394.43 394.013 393.54 393.113 392.663 392.238 391.84 391.585 391.473 391.35 391.253 391.113 390.988 390.84 390.688 390.485 390.22 390.02 389.805 389.565 389.345 389.163 388.958 388.833 388.72 388.58 388.433 388.373 388.275 388.2 388.048 387.805 387.675 387.555 387.398 387.225 386.97 386.723 386.395 386.088 385.768 385.398 385.108 384.893 384.585 384.243 383.753 383.3 383.268 383.328 383.44 383.428 383.243 382.97 382.665 382.393 382.098 381.803 381.563 381.323 381.018 380.798 380.58 380.44 380.375 380.218 380.075 379.9 379.76 379.53 379.358 379.22 378.94 378.735 378.535 378.348 378.125 377.885 377.67 377.453 377.235 377.015 376.67 376.278 375.89 375.515 375.198 374.875 374.545 374.165 373.68 373.285 373.09 372.988 372.815 372.593 372.448 372.253 372.113 371.965 371.85 371.778 371.71 371.64 371.61 371.615 371.343 371.175 371.003 370.885 370.743 370.563 370.403 370.278 370.2 369.833 369.715 369.485 369.168 368.89 368.593 368.34 368.003 367.643 367.333 366.945 366.68 366.36 366.043 365.745 365.453 365.173 364.908 364.725 364.41 364.155 363.855 363.465 363.078 362.718 362.418 362.14 361.808 361.515 361.22 361.02 360.618 360.118 359.69 359.22 358.678 358.233 357.82 357.49 357.15 356.84 356.51 356.14 355.745 355.258 354.808 354.423 353.96 353.473 353.165 352.748 352.42 352.035 351.623 351.19 350.973 350.928 349.92 349.43 348.985 348.415 347.835 347.38 346.9 346.378 345.87 345.435 344.9
429.215 429.09 428.888 428.568 428.288 427.895 427.538 427.113 426.655 426.283 425.938 425.67 425.415 425.303 425.363 425.373 425.36 425.33 425.26 425.14 425.2 425.24 425.185 425.063 424.968 424.923 424.845 424.73 424.665 424.625 424.495 424.35 424.278 424.225 424.143 424.133 424.12 424.08 424.075 424.02 424 423.978 423.925 423.808 423.618 423.405 423.255 423.173 423.11 422.948 422.773 422.67 422.543 422.36 422.223 422.07 421.9 421.745 421.658 421.513 421.313 421.068 420.775 420.743 420.535 420.008 419.653 419.408 419.203 418.988 418.825 418.603 418.38 418.108 417.848 417.583 417.278 417.118 417.013 416.935 416.88 416.805 416.82 416.808 416.633 416.575 416.385 416.463 416.24 415.978 415.673 415.135 414.715 414.3 413.95 413.668 413.24 412.633 412.183 411.953 411.805 411.718 411.568 411.4 411.185 410.945 410.68 410.208 409.713 409.498 409.79 410.06 410.19 410.07 409.95 409.765 409.588 409.443 409.26 409.1 408.998 408.853 408.658 408.57 408.518 408.473 408.483 408.47 408.495 408.56 408.63 408.69 408.733 408.788 408.78 408.788 408.7 408.76 408.808 408.813 408.738 408.723 408.67 408.573 408.518 408.548 408.515 408.525 408.598 408.628 408.565 408.453 408.228 408.08 408.01 407.96 407.705 407.39 407.25 407.113 406.893 406.695 406.538 406.363 406.168 405.95 405.753 405.625 405.375 405.208 405.043 404.825 404.62 404.4 404.135 403.843 403.66 403.448 403.208 402.975 402.75 402.513 402.238 401.965 401.72 401.518 401.23 401.028 400.81 400.628 400.38 400.09 399.673 399.24 398.743 398.283 397.773 397.1 396.603 396.255 396.085 395.835 395.495 395.145 394.895 394.558 394.213 393.75 393.245 392.715 392.268 391.93 391.783 391.625 391.465 391.318 391.15 390.998 390.913 390.768 390.578 390.375 390.128 389.943 389.765 389.483 389.298 389.153 388.96 388.825 388.713 388.603 388.533 388.403 388.328 388.198 388.008 387.803 387.63 387.443 387.205 386.955 386.72 386.4 386.12 385.823 385.39 385.03 384.793 384.478 384.058 383.788 383.8 383.835 383.92 383.853 383.71 383.495 383.218 382.903 382.615 382.325 382.015 381.735 381.48 381.26 380.988 380.758 380.525 380.403 380.358 380.235 380.105 379.96 379.76 379.505 379.393 379.105 378.943 378.733 378.475 378.268 378.143 377.953 377.71 377.493 377.298 377.093 376.608 376.208 375.868 375.543 375.195 374.87 374.52 374.028 373.59 373.368 373.21 372.98 372.758 372.563 372.393 372.248 372.073 371.958 371.875 371.813 371.71 371.685 371.725 371.538 371.29 371.115 370.93 370.768 370.625 370.493 370.338 370.14 369.943 369.738 369.58 369.253 368.995 368.765 368.55 368.175 367.855 367.568 367.285 366.9 366.553 366.243 365.95 365.648 365.463 365.068 364.76 364.58 364.31 363.983 363.655 363.323 363.005 362.658 362.375 362.17 361.89 361.53 361.19 360.91 360.368 359.84 359.383 358.948 358.585 358.205 357.828 357.493 357.185 356.9 356.503 356.083 355.705 355.265 354.793 354.328 353.86 353.503 353.095 352.665 352.253 351.88 351.503 351.073 351.098 350.38 349.773 349.348 348.838 348.243 347.738 347.255 346.74 346.203 345.793 345.305
429.545 429.455 429.258 428.913 428.59 428.233 427.85 427.33 426.895 426.55 426.175 425.893 425.598 425.4 425.518 425.505 425.483 425.458 425.425 425.39 425.435 425.5 425.465 425.38 425.308 425.253 425.16 425.035 424.915 424.85 424.735 424.673 424.523 424.385 424.328 424.283 424.275 424.25 424.168 424.198 424.203 424.165 424.098 423.968 423.78 423.548 423.48 423.45 423.365 423.19 423.038 422.913 422.825 422.663 422.485 422.313 422.185 422.05 421.953 421.77 421.663 421.493 421.24 421.01 420.77 420.468 420.04 419.773 419.525 419.283 419.065 418.825 418.588 418.335 418 417.653 417.423 417.37 417.35 417.26 417.14 417.018 416.955 416.94 416.915 416.833 416.688 416.688 416.673 416.04 415.478 414.875 414.97 414.715 414.35 414.085 413.648 412.985 412.42 412.108 411.87 411.873 411.79 411.605 411.423 411.14 410.785 409.958 409.178 409.173 409.653 410.065 410.265 410.183 410.143 409.973 409.76 409.61 409.403 409.253 409.075 408.943 408.84 408.753 408.658 408.633 408.633 408.693 408.69 408.748 408.793 408.838 408.905 408.943 408.98 408.988 408.98 408.965 409.033 409.07 409.008 408.948 408.878 408.813 408.773 408.73 408.733 408.725 408.728 408.753 408.725 408.58 408.46 408.32 408.333 408.12 407.953 407.648 407.445 407.303 407.153 406.94 406.755 406.595 406.41 406.215 406.005 405.828 405.623 405.41 405.238 405.063 404.795 404.6 404.38 404.143 403.885 403.598 403.393 403.135 402.853 402.61 402.385 402.175 401.91 401.695 401.473 401.253 401.028 400.778 400.563 400.303 399.99 399.543 399.04 398.47 397.82 397.348 397.048 396.795 396.485 396.11 395.668 395.273 394.958 394.705 394.385 393.91 393.418 392.885 392.425 392.238 392.023 391.773 391.593 391.373 391.155 391.013 390.93 390.833 390.683 390.445 390.233 389.998 389.798 389.625 389.44 389.305 389.15 388.96 388.825 388.683 388.55 388.44 388.375 388.263 388.09 387.905 387.69 387.475 387.225 387.013 386.768 386.508 386.14 385.81 385.433 384.968 384.55 384.36 384.258 384.293 384.35 384.31 384.355 384.235 384.015 383.718 383.448 383.155 382.855 382.548 382.27 381.975 381.723 381.475 381.185 380.905 380.685 380.503 380.428 380.355 380.218 380.105 380.14 379.7 379.448 379.243 379.113 378.913 378.735 378.483 378.32 378.165 377.958 377.725 377.498 377.318 376.983 376.673 376.35 375.993 375.573 375.23 374.858 374.395 373.948 373.593 373.355 373.133 372.94 372.725 372.535 372.34 372.203 372.065 371.948 371.848 371.793 371.768 371.658 371.588 371.413 371.235 371.103 370.875 370.753 370.553 370.418 370.215 370.08 369.848 369.698 369.493 369.215 369.02 368.698 368.443 368.085 367.735 367.5 367.12 366.73 366.458 366.21 365.845 365.513 365.233 364.908 364.653 364.428 364.188 363.94 363.668 363.37 363.108 362.85 362.658 362.198 361.788 361.365 361.073 360.678 360.175 359.678 359.313 358.978 358.593 358.28 357.888 357.548 357.228 356.818 356.383 355.983 355.545 355.125 354.68 354.215 353.828 353.408 352.905 352.488 352.128 351.793 351.35 351.063 351.138 350.128 349.64 349.188 348.675 348.153 347.615 347.085 346.583 346.135 345.718
429.775 429.768 429.61 429.313 428.93 428.57 428.153 427.605 427.188 426.808 426.443 426.158 425.758 425.538 425.693 425.7 425.608 425.613 425.568 425.56 425.685 425.688 425.76 425.75 425.69 425.595 425.475 425.37 425.228 425.055 425.02 424.91 424.778 424.645 424.553 424.525 424.505 424.42 424.345 424.368 424.36 424.31 424.265 424.103 423.89 423.723 423.723 423.683 423.523 423.385 423.245 423.165 423.08 422.913 422.793 422.618 422.46 422.338 422.208 422.05 421.91 421.743 421.503 421.345 421 420.693 420.408 420.098 419.82 419.568 419.275 419.008 418.743 418.468 418.133 417.788 417.608 417.66 417.638 417.58 417.498 417.303 417.258 417.228 417.2 417.135 416.97 416.895 416.718 416.07 415.398 415.088 415.26 415.02 414.685 414.315 413.76 413.135 412.673 412.428 412.203 412.108 411.99 411.83 411.613 411.335 410.903 410.238 409.54 409.803 410.083 410.333 410.45 410.45 410.333 410.138 409.928 409.75 409.585 409.418 409.228 409.08 409.018 408.935 408.86 408.833 408.783 408.833 408.9 408.963 409.013 409.058 409.11 409.138 409.175 409.205 409.233 409.275 409.293 409.253 409.23 409.225 409.155 409.093 409.04 408.995 409.023 409.005 408.938 408.86 408.87 408.875 408.668 408.578 408.548 408.308 408.13 407.945 407.72 407.468 407.278 407.2 407.013 406.863 406.623 406.4 406.233 406.02 405.848 405.613 405.42 405.253 405.018 404.815 404.558 404.338 404.203 403.823 403.553 403.313 403.05 402.808 402.568 402.375 402.148 401.905 401.73 401.433 401.205 400.955 400.763 400.513 400.125 399.665 399.128 398.54 398.128 397.838 397.56 397.21 396.743 396.295 395.855 395.39 395.063 394.815 394.485 394.058 393.608 393.218 392.963 392.69 392.443 392.11 391.853 391.555 391.26 391.035 390.953 390.868 390.73 390.545 390.348 390.098 389.9 389.723 389.55 389.413 389.298 389.113 388.953 388.803 388.625 388.49 388.393 388.278 388.12 387.933 387.675 387.458 387.253 387.04 386.84 386.59 386.27 385.898 385.51 384.958 384.68 384.695 384.76 384.79 384.745 384.67 384.67 384.538 384.28 384.01 383.718 383.43 383.133 382.863 382.555 382.243 382.008 381.723 381.398 381.08 380.868 380.623 380.485 380.41 380.315 380.223 380.025 379.83 379.625 379.415 379.25 379.083 378.945 378.675 378.438 378.283 378.175 377.85 377.628 377.493 377.35 377.178 376.865 376.47 375.968 375.56 375.195 374.783 374.273 373.838 373.48 373.28 373.03 372.838 372.76 372.515 372.308 372.205 372.085 371.988 371.945 371.77 371.695 371.575 371.473 371.35 371.135 370.998 370.813 370.665 370.483 370.263 370.1 369.92 369.765 369.678 369.388 369.205 368.87 368.555 368.308 368.048 367.76 367.31 367.033 366.655 366.343 366.04 365.705 365.365 365.07 364.815 364.64 364.45 364.25 364.075 363.835 363.575 363.308 362.973 362.55 362.058 361.623 361.265 360.883 360.493 360.033 359.645 359.358 359.038 358.713 358.27 357.898 357.528 357.15 356.705 356.288 355.798 355.36 354.97 354.52 354.105 353.663 353.168 352.813 352.563 352.205 351.698 351.268 351.2 350.683 349.963 349.508 349.02 348.623 348.01 347.43 347.023 346.523 346.098
429.985 429.98 429.895 429.63 429.288 428.903 428.425 427.913 427.473 427.098 426.733 426.398 425.968 425.645 425.845 425.885 425.815 425.745 425.735 425.83 426.013 426.05 426.045 426.045 426.013 425.868 425.718 425.59 425.505 425.36 425.228 425.173 425.06 424.923 424.825 424.788 424.763 424.665 424.553 424.515 424.503 424.443 424.37 424.2 423.998 423.978 423.95 423.905 423.75 423.625 423.503 423.458 423.365 423.188 423.043 422.855 422.73 422.62 422.468 422.323 422.14 421.965 421.793 421.608 421.263 420.955 420.67 420.4 420.128 419.763 419.52 419.225 418.918 418.563 418.303 418.028 417.96 417.895 417.895 417.855 417.773 417.578 417.518 417.405 417.34 417.375 417.245 417.078 416.863 416.19 415.62 415.163 415.385 415.298 414.925 414.493 413.923 413.288 412.895 412.71 412.515 412.355 412.205 412.025 411.793 411.528 411.138 410.73 410.548 410.593 410.523 410.458 410.485 410.495 410.445 410.325 410.155 409.95 409.79 409.573 409.363 409.32 409.278 409.2 409.118 409.04 409.075 409.04 409.11 409.153 409.228 409.23 409.32 409.353 409.398 409.41 409.475 409.513 409.505 409.468 409.465 409.478 409.398 409.405 409.303 409.198 409.228 409.255 409.115 409.113 409.038 408.925 408.9 408.858 408.733 408.465 408.253 408.053 407.978 407.76 407.438 407.313 407.218 407.08 406.84 406.67 406.453 406.223 405.998 405.785 405.6 405.415 405.165 404.97 404.763 404.555 404.405 404.035 403.748 403.5 403.283 403.043 402.8 402.588 402.458 402.18 401.958 401.65 401.335 401.123 400.888 400.6 400.238 399.72 399.225 398.943 398.593 398.283 397.865 397.468 396.95 396.423 395.863 395.48 395.113 394.808 394.523 394.238 393.925 393.648 393.353 392.985 392.72 392.418 392.063 391.75 391.518 391.29 391.11 390.97 390.838 390.653 390.458 390.27 390.065 389.84 389.633 389.498 389.393 389.223 389.08 388.918 388.77 388.545 388.41 388.245 388.02 387.823 387.62 387.455 387.278 387.073 386.863 386.575 386.243 385.913 385.568 385.318 385.228 385.285 385.225 385.275 385.113 384.95 384.915 384.79 384.588 384.295 383.978 383.713 383.47 383.17 382.87 382.525 382.2 381.94 381.615 381.295 381.028 380.798 380.573 380.473 380.43 380.355 380.19 380.025 379.823 379.695 379.438 379.208 379.045 378.815 378.595 378.433 378.198 377.94 377.798 377.668 377.628 377.555 377.338 376.86 376.42 375.963 375.55 375.153 374.663 374.158 373.705 373.425 373.17 372.958 372.8 372.605 372.448 372.303 372.17 372.078 371.955 371.845 371.733 371.598 371.48 371.388 371.205 371.023 370.87 370.728 370.56 370.355 370.193 370.023 369.853 369.688 369.525 369.413 369.19 368.808 368.51 368.35 368.05 367.605 367.17 366.823 366.495 366.213 365.88 365.53 365.245 364.998 364.845 364.693 364.533 364.343 364.11 363.86 363.583 363.185 362.803 362.348 361.873 361.49 361.143 360.85 360.463 359.988 359.683 359.383 359.058 358.68 358.258 357.845 357.453 357.033 356.57 356.103 355.68 355.29 354.825 354.378 353.913 353.533 353.28 353.063 352.683 352.16 351.573 351.133 351.038 350.768 349.788 349.35 348.98 348.458 347.92 347.525 347.005 346.51
430.175 430.13 430.043 429.868 429.605 429.245 428.775 428.268 427.765 427.448 427.058 426.625 426.228 425.9 426.035 426.05 426.025 425.968 426.058 426.198 426.338 426.378 426.293 426.29 426.238 426.09 425.993 425.85 425.71 425.565 425.44 425.363 425.295 425.23 425.145 425.1 425.018 424.923 424.76 424.713 424.678 424.613 424.48 424.313 424.225 424.185 424.148 423.993 423.908 423.825 423.743 423.725 423.618 423.473 423.265 423.13 423.005 422.878 422.725 422.543 422.373 422.208 422.018 421.815 421.538 421.23 420.915 420.663 420.345 420 419.748 419.423 419.09 418.775 418.623 418.37 418.303 418.233 418.205 418.113 418.023 417.868 417.825 417.733 417.578 417.498 417.43 417.27 417.17 416.618 416.123 415.69 415.708 415.538 415.258 414.77 414.135 413.573 413.128 412.895 412.743 412.525 412.368 412.203 411.993 411.723 411.453 411.273 411.138 410.998 410.753 410.425 410.38 410.488 410.508 410.458 410.338 410.173 409.965 409.66 409.58 409.605 409.67 409.605 409.47 409.34 409.343 409.373 409.38 409.408 409.455 409.445 409.508 409.528 409.553 409.588 409.688 409.725 409.688 409.645 409.65 409.65 409.583 409.57 409.533 409.408 409.378 409.428 409.418 409.333 409.203 409.043 408.94 408.933 408.74 408.558 408.345 408.19 408.07 407.818 407.6 407.473 407.345 407.243 407.085 406.813 406.663 406.455 406.213 405.95 405.735 405.57 405.4 405.183 404.96 404.743 404.578 404.305 403.983 403.753 403.535 403.29 403.138 402.84 402.63 402.435 402.193 401.885 401.52 401.29 401.02 400.67 400.278 399.893 399.665 399.433 398.958 398.558 398.133 397.685 397.153 396.645 396.1 395.598 395.173 394.998 394.683 394.408 394.188 394.005 393.635 393.268 392.978 392.638 392.288 391.98 391.73 391.533 391.393 391.13 390.998 390.818 390.57 390.338 390.185 390 389.763 389.585 389.463 389.353 389.23 389.098 388.8 388.615 388.378 388.185 387.948 387.785 387.573 387.435 387.3 387.125 386.92 386.605 386.335 386.055 385.828 385.81 385.785 385.74 385.628 385.633 385.443 385.275 385.135 385.023 384.865 384.588 384.308 384.063 383.785 383.483 383.18 382.823 382.48 382.16 381.805 381.455 381.18 380.958 380.74 380.615 380.518 380.413 380.283 380.205 379.965 379.92 379.608 379.395 379.103 378.913 378.728 378.54 378.318 378.103 377.983 377.945 377.85 377.73 377.598 377.313 376.91 376.438 375.935 375.543 375.063 374.53 374.058 373.633 373.34 373.123 372.94 372.72 372.59 372.42 372.283 372.148 372.018 371.933 371.818 371.683 371.55 371.42 371.365 371.14 370.915 370.808 370.588 370.403 370.243 370.105 369.945 369.803 369.61 369.473 369.348 369.003 368.64 368.453 368.243 367.848 367.373 367.005 366.66 366.325 366.003 365.668 365.42 365.198 365.068 364.93 364.74 364.573 364.283 364.048 363.795 363.375 362.998 362.5 362.063 361.715 361.393 361.115 360.82 360.358 359.97 359.625 359.345 359.01 358.57 358.158 357.755 357.338 356.913 356.453 355.998 355.558 355.12 354.63 354.245 353.945 353.83 353.565 353.083 352.475 351.843 351.345 351.053 351.158 350.363 349.748 349.293 348.943 348.54 348.01 347.45 346.938
430.3 430.23 430.145 430.078 429.873 429.515 429.048 428.568 428.095 427.715 427.313 426.865 426.483 426.163 426.255 426.273 426.22 426.213 426.378 426.508 426.55 426.598 426.585 426.535 426.448 426.338 426.27 426.185 426.058 425.89 425.68 425.593 425.543 425.495 425.445 425.373 425.32 425.183 424.958 424.883 424.868 424.775 424.6 424.423 424.428 424.388 424.31 424.165 424.085 423.993 423.968 423.945 423.848 423.713 423.518 423.385 423.285 423.158 422.923 422.773 422.578 422.425 422.25 422.035 421.748 421.453 421.17 420.925 420.628 420.293 419.968 419.688 419.383 419.073 418.855 418.77 418.635 418.625 418.563 418.485 418.285 418.175 418.16 418.073 417.93 417.758 417.645 417.568 417.638 417.078 416.513 416.3 416.098 415.8 415.515 415.008 414.4 413.895 413.453 413.158 412.985 412.713 412.535 412.383 412.178 411.973 411.823 411.623 411.435 411.23 410.968 410.63 410.508 410.528 410.555 410.55 410.485 410.345 410.093 409.835 409.825 409.958 410.033 410.045 409.988 409.828 409.73 409.695 409.68 409.67 409.733 409.715 409.728 409.713 409.753 409.823 409.848 409.88 409.855 409.84 409.83 409.815 409.718 409.655 409.668 409.583 409.558 409.55 409.54 409.38 409.29 409.178 409.048 408.938 408.79 408.6 408.42 408.258 408.07 407.91 407.735 407.61 407.435 407.335 407.22 407.043 406.863 406.635 406.37 406.163 405.945 405.778 405.588 405.345 405.115 404.94 404.748 404.538 404.245 404.033 403.815 403.578 403.308 403.058 402.888 402.693 402.403 402.093 401.783 401.435 401.173 400.853 400.503 400.308 400.105 399.688 399.285 398.803 398.335 397.813 397.36 397.03 396.475 395.978 395.48 395.243 394.993 394.713 394.443 394.255 393.943 393.63 393.223 392.853 392.528 392.255 391.923 391.693 391.525 391.335 391.128 390.96 390.768 390.558 390.33 390.11 389.898 389.753 389.615 389.545 389.298 389.103 388.87 388.59 388.36 388.108 387.89 387.728 387.573 387.46 387.353 387.19 387.025 386.78 386.5 386.233 386.175 386.208 386.188 386.095 385.983 385.908 385.735 385.595 385.383 385.218 385.063 384.848 384.615 384.36 384.123 383.795 383.438 383.045 382.69 382.338 381.95 381.61 381.323 381.095 380.93 380.74 380.575 380.515 380.383 380.325 380.16 380.003 379.78 379.548 379.303 379.075 378.858 378.655 378.42 378.27 378.188 378.148 378.058 377.903 377.808 377.568 377.228 376.84 376.343 375.868 375.41 374.875 374.415 373.918 373.55 373.33 373.135 372.868 372.705 372.523 372.385 372.255 372.115 371.963 371.87 371.758 371.633 371.475 371.353 371.245 371.038 370.845 370.66 370.45 370.313 370.203 370.07 369.923 369.735 369.538 369.328 369.133 368.783 368.533 368.335 368.048 367.635 367.193 366.808 366.45 366.123 365.84 365.623 365.42 365.228 365.1 364.923 364.688 364.413 364.165 363.895 363.535 363.148 362.718 362.343 361.978 361.678 361.395 361.025 360.633 360.233 359.908 359.588 359.265 358.868 358.448 357.965 357.563 357.198 356.75 356.263 355.788 355.38 354.945 354.618 354.355 354.2 353.813 353.288 352.72 352.133 351.668 351.278 351.105 351.008 350.04 349.683 349.33 349.028 348.483 347.913 347.355
430.465 430.398 430.32 430.253 430.1 429.743 429.27 428.763 428.303 427.863 427.423 427.01 426.725 426.548 426.343 426.48 426.425 426.528 426.738 426.788 426.818 426.84 426.82 426.818 426.778 426.73 426.703 426.51 426.35 426.213 426.035 425.865 425.785 425.713 425.665 425.59 425.525 425.393 425.175 425.133 425.098 424.95 424.833 424.69 424.635 424.628 424.428 424.303 424.243 424.188 424.218 424.198 424.083 423.893 423.695 423.63 423.52 423.363 423.185 423.023 422.848 422.683 422.488 422.278 421.978 421.7 421.45 421.29 420.978 420.59 420.205 419.905 419.688 419.5 419.398 419.293 419.108 418.988 418.955 418.87 418.685 418.61 418.555 418.455 418.283 418.093 417.943 417.835 418.133 417.388 417.01 416.675 416.433 416.05 415.61 415.195 414.643 414.213 413.828 413.498 413.193 412.918 412.68 412.515 412.328 412.198 412.033 411.848 411.49 411.273 411.173 411.05 410.853 410.668 410.655 410.668 410.625 410.523 410.303 410.068 410.065 410.26 410.32 410.323 410.318 410.265 410.188 410.095 410.005 409.933 409.955 409.965 409.963 409.98 409.998 410.053 410.083 410.075 410.033 410.05 410.035 409.993 409.943 409.848 409.775 409.73 409.655 409.663 409.625 409.493 409.535 409.373 409.2 408.99 408.818 408.655 408.523 408.375 408.22 408.078 407.943 407.743 407.588 407.458 407.34 407.18 406.983 406.803 406.575 406.348 406.15 405.928 405.74 405.558 405.303 405.075 404.935 404.728 404.463 404.233 404.04 403.908 403.643 403.333 403.068 402.898 402.535 402.248 401.905 401.63 401.378 401.103 400.805 400.633 400.335 399.903 399.47 399.038 398.515 398.085 397.67 397.245 396.903 396.403 395.9 395.628 395.393 395.078 394.793 394.505 394.255 393.948 393.483 393.115 392.76 392.468 392.14 391.865 391.715 391.558 391.345 391.113 390.95 390.74 390.508 390.225 389.975 389.81 389.675 389.503 389.328 389.17 388.873 388.548 388.278 388.053 387.848 387.773 387.653 387.488 387.378 387.208 387.05 386.883 386.728 386.63 386.598 386.61 386.488 386.375 386.298 386.128 385.96 385.815 385.613 385.408 385.223 385.01 384.798 384.633 384.378 384.058 383.658 383.308 382.9 382.523 382.133 381.793 381.47 381.238 381.09 380.9 380.673 380.59 380.51 380.398 380.285 380.023 379.923 379.803 379.515 379.21 379.005 378.79 378.593 378.453 378.373 378.28 378.19 378.053 377.98 377.728 377.46 377.155 376.73 376.278 375.775 375.2 374.735 374.23 373.768 373.493 373.248 373.05 372.855 372.68 372.48 372.323 372.195 372.12 371.975 371.87 371.748 371.598 371.453 371.318 371.19 371.013 370.778 370.535 370.42 370.26 370.128 369.93 369.795 369.545 369.443 369.225 368.935 368.623 368.403 368.163 367.74 367.35 366.933 366.545 366.253 366.015 365.798 365.585 365.4 365.263 365.038 364.838 364.558 364.293 364.03 363.668 363.293 362.95 362.578 362.228 361.92 361.598 361.258 360.943 360.553 360.188 359.9 359.583 359.17 358.715 358.258 357.833 357.458 357.033 356.533 356.088 355.675 355.318 354.993 354.743 354.455 354.035 353.49 352.938 352.388 351.96 351.555 351.198 351.428 350.615 350.003 349.66 349.353 348.965 348.465 347.818
430.688 430.583 430.493 430.425 430.255 429.928 429.463 428.868 428.388 427.953 427.518 427.15 426.93 426.73 426.445 426.465 426.598 426.88 427.035 427.12 427.133 427.065 427.09 427.073 427.038 427.025 426.965 426.805 426.638 426.53 426.378 426.173 426.05 425.978 425.89 425.813 425.693 425.623 425.42 425.405 425.275 425.133 424.998 424.948 424.87 424.81 424.623 424.405 424.293 424.265 424.353 424.38 424.24 424.023 423.938 423.898 423.745 423.59 423.433 423.265 423.18 423.018 422.775 422.525 422.25 421.975 421.793 421.58 421.245 420.843 420.498 420.198 420.025 419.908 419.965 419.903 419.715 419.513 419.403 419.26 419.11 419.055 418.988 418.838 418.675 418.513 418.32 418.223 418.153 418.08 417.495 417.19 416.818 416.355 415.693 415.355 414.965 414.608 414.225 413.838 413.463 413.158 412.943 412.74 412.54 412.378 412.228 411.968 411.338 410.768 411.298 411.283 411.08 410.888 410.813 410.76 410.72 410.64 410.508 410.3 410.345 410.453 410.505 410.518 410.53 410.508 410.423 410.375 410.268 410.158 410.193 410.213 410.25 410.24 410.263 410.303 410.303 410.3 410.29 410.263 410.258 410.218 410.153 410.023 409.945 409.858 409.788 409.753 409.675 409.62 409.638 409.455 409.338 409.075 408.925 408.763 408.643 408.493 408.355 408.23 408.045 407.865 407.7 407.54 407.46 407.298 407.13 406.925 406.708 406.503 406.305 406.055 405.87 405.67 405.438 405.19 405.02 404.898 404.705 404.45 404.248 404.138 404.023 403.638 403.278 403.003 402.7 402.458 402.21 401.945 401.645 401.39 401.083 400.823 400.463 400.045 399.65 399.183 398.665 398.348 398.028 397.595 397.265 396.775 396.35 396.153 395.858 395.533 395.198 394.823 394.483 394.153 393.77 393.363 392.973 392.668 392.363 392.063 391.888 391.695 391.55 391.288 391.058 390.888 390.655 390.385 390.08 389.85 389.73 389.6 389.423 389.185 388.888 388.57 388.248 388.04 387.925 387.855 387.703 387.535 387.403 387.253 387.15 387.065 387.025 387.008 386.913 386.883 386.755 386.615 386.543 386.385 386.163 385.978 385.805 385.605 385.418 385.198 384.958 384.768 384.565 384.175 383.815 383.463 383.08 382.688 382.343 381.94 381.61 381.408 381.233 381.068 380.873 380.69 380.583 380.44 380.328 380.13 380.138 380.02 379.728 379.42 379.11 378.89 378.795 378.635 378.515 378.41 378.335 378.213 378.103 377.98 377.758 377.413 377.038 376.625 376.15 375.505 375.01 374.5 374.045 373.683 373.44 373.2 373.02 372.78 372.6 372.44 372.293 372.22 372.138 371.985 371.875 371.753 371.613 371.463 371.288 371.07 370.903 370.863 370.488 370.325 370.143 369.965 369.79 369.595 369.47 369.28 368.94 368.678 368.475 368.253 367.835 367.403 367.07 366.693 366.383 366.128 365.89 365.733 365.535 365.373 365.148 364.915 364.71 364.413 364.153 363.813 363.435 363.113 362.795 362.43 362.04 361.838 361.54 361.218 360.87 360.488 360.14 359.665 359.353 359.033 358.58 358.133 357.66 357.23 356.813 356.418 356.003 355.678 355.325 355.06 354.683 354.25 353.74 353.235 352.708 352.26 351.83 351.435 351.108 351.33 350.61 349.91 349.578 349.345 348.933 348.29
430.823 430.703 430.655 430.545 430.378 430.118 429.675 429.103 428.55 428.203 427.75 427.378 427.048 426.835 426.648 426.768 426.973 427.213 427.35 427.368 427.358 427.335 427.305 427.303 427.265 427.255 427.19 427.055 426.923 426.803 426.65 426.47 426.313 426.188 426.133 426.038 425.908 425.843 425.735 425.675 425.538 425.378 425.23 425.135 425.003 424.95 424.878 424.703 424.563 424.493 424.488 424.465 424.3 424.215 424.215 424.143 423.965 423.813 423.683 423.515 423.418 423.278 423.075 422.828 422.478 422.253 422.053 421.773 421.395 421.1 420.833 420.528 420.385 420.38 420.453 420.378 420.188 420.043 419.845 419.678 419.58 419.51 419.41 419.278 419.145 418.945 418.735 418.618 418.5 418.785 417.93 417.625 417.263 416.808 416.285 415.885 415.483 415.075 414.61 414.218 413.838 413.49 413.225 412.985 412.768 412.625 412.463 412.18 411.65 411.173 411.55 411.425 411.24 411.115 410.998 410.888 410.743 410.69 410.618 410.49 410.51 410.583 410.615 410.64 410.658 410.7 410.64 410.608 410.558 410.453 410.433 410.48 410.5 410.475 410.448 410.468 410.465 410.515 410.498 410.478 410.46 410.408 410.325 410.22 410.145 410.05 409.943 409.86 409.758 409.703 409.648 409.438 409.325 409.148 409.048 408.88 408.76 408.57 408.41 408.295 408.148 408.025 407.86 407.68 407.505 407.36 407.228 407.035 406.853 406.63 406.44 406.183 405.968 405.77 405.585 405.35 405.148 405.015 404.91 404.698 404.423 404.268 404.095 403.88 403.548 403.243 402.948 402.79 402.585 402.393 402.008 401.653 401.368 400.943 400.638 400.273 399.84 399.303 398.863 398.575 398.345 397.96 397.608 397.203 396.943 396.67 396.385 396.023 395.603 395.153 394.81 394.473 394.075 393.698 393.27 392.895 392.59 392.283 392.005 391.838 391.68 391.433 391.215 391.03 390.79 390.53 390.273 390.023 389.765 389.545 389.373 389.203 389.05 388.828 388.525 388.195 388.075 388.055 387.91 387.718 387.568 387.438 387.44 387.375 387.28 387.225 387.163 387.115 387.013 386.875 386.715 386.583 386.378 386.195 385.993 385.773 385.578 385.325 385.07 384.84 384.59 384.283 383.97 383.635 383.275 382.905 382.51 382.083 381.773 381.513 381.323 381.18 381.013 380.773 380.628 380.513 380.45 380.358 380.19 380.103 379.9 379.623 379.373 379.098 378.888 378.788 378.65 378.585 378.425 378.35 378.258 378.14 377.943 377.64 377.29 376.923 376.5 375.928 375.275 374.788 374.3 373.905 373.625 373.388 373.14 372.918 372.748 372.58 372.42 372.353 372.238 372.148 372.02 371.913 371.745 371.598 371.4 371.123 370.9 370.868 370.55 370.383 370.178 369.985 369.753 369.578 369.468 369.318 368.998 368.705 368.483 368.278 367.99 367.548 367.2 366.855 366.555 366.32 366.12 365.91 365.673 365.433 365.2 365.005 364.788 364.568 364.26 363.965 363.64 363.325 363.005 362.673 362.27 362.02 361.805 361.563 361.16 360.8 360.373 359.49 359.323 359.328 358.793 358.295 357.83 357.47 357.128 356.753 356.36 355.98 355.67 355.328 354.958 354.465 353.97 353.478 353.005 352.57 352.088 351.688 351.315 351.035 351.253 350.228 349.873 349.585 349.238 348.773
430.953 430.853 430.76 430.65 430.553 430.343 429.923 429.488 428.943 428.41 427.905 427.445 427.185 427.16 427.108 427.148 427.333 427.743 427.858 427.835 427.795 427.713 427.608 427.518 427.475 427.478 427.488 427.4 427.228 427.105 426.978 426.78 426.585 426.468 426.375 426.3 426.165 426.068 425.98 425.948 425.74 425.548 425.433 425.288 425.168 425.028 424.95 424.843 424.733 424.675 424.62 424.555 424.403 424.38 424.33 424.285 424.143 424.01 423.883 423.753 423.62 423.485 423.3 423.065 422.79 422.57 422.295 421.935 421.565 421.37 421.105 420.855 420.79 420.795 420.85 420.765 420.668 420.498 420.283 420.105 420.065 419.973 419.888 419.793 419.72 419.498 419.255 419.048 418.775 418.873 418.288 417.998 417.648 417.318 416.913 416.518 416.03 415.53 414.973 414.5 414.148 413.828 413.55 413.288 413.088 412.88 412.668 412.428 412.173 411.99 411.823 411.608 411.373 411.26 411.143 410.985 410.86 410.738 410.66 410.613 410.595 410.65 410.685 410.708 410.753 410.785 410.803 410.808 410.795 410.755 410.69 410.698 410.698 410.64 410.593 410.555 410.64 410.693 410.698 410.688 410.628 410.523 410.443 410.425 410.345 410.248 410.138 410.025 409.925 409.8 409.66 409.478 409.363 409.248 409.123 408.985 408.85 408.7 408.548 408.368 408.228 408.133 407.975 407.785 407.638 407.433 407.258 407.105 406.92 406.765 406.525 406.313 406.11 405.915 405.723 405.5 405.273 405.175 405.125 404.918 404.623 404.553 404.285 404.038 403.798 403.57 403.325 403.083 402.898 402.663 402.355 402 401.645 401.193 400.808 400.455 399.995 399.52 399.118 398.908 398.653 398.463 398.125 397.868 397.598 397.218 396.885 396.465 396.035 395.62 395.24 394.853 394.42 393.995 393.558 393.155 392.84 392.565 392.26 392.028 391.895 391.648 391.348 391.168 390.928 390.668 390.373 390.115 389.863 389.593 389.428 389.315 389.223 389.01 388.833 388.543 388.43 388.41 388.275 388.05 387.978 387.89 387.863 387.725 387.57 387.45 387.363 387.27 387.178 387.09 386.948 386.773 386.563 386.305 386.088 385.9 385.678 385.41 385.145 384.93 384.698 384.393 384.08 383.793 383.443 383.04 382.618 382.278 382.03 381.75 381.488 381.333 381.165 380.938 380.75 380.65 380.548 380.44 380.278 380.163 380.02 379.85 379.638 379.313 379.023 378.88 378.753 378.648 378.513 378.465 378.38 378.18 378.033 377.785 377.465 377.13 376.69 376.215 375.48 374.925 374.513 374.125 373.783 373.508 373.303 373.105 372.925 372.76 372.623 372.49 372.415 372.365 372.218 372.095 371.885 371.718 371.495 371.21 371.013 370.743 370.703 370.438 370.265 370.025 369.843 369.655 369.443 369.28 369.17 368.905 368.708 368.318 368.053 367.695 367.37 367.055 366.725 366.483 366.263 366.073 365.79 365.593 365.318 365.108 364.975 364.77 364.505 364.183 363.853 363.538 363.245 362.928 362.578 362.248 361.965 361.705 361.383 361.058 360.678 360.125 359.73 359.543 358.995 358.475 358.06 357.695 357.445 357.095 356.715 356.303 355.97 355.653 355.218 354.748 354.248 353.77 353.318 352.87 352.413 351.963 351.613 351.233 351.105 351.115 350.16 349.823 349.538 349.053
431.105 431 430.88 430.77 430.638 430.408 430.19 429.858 429.258 428.615 427.943 427.433 427.44 427.398 427.343 427.4 427.685 428.225 428.285 428.22 428.14 428.075 427.938 427.788 427.773 427.678 427.713 427.705 427.558 427.375 427.238 427.053 426.855 426.74 426.62 426.495 426.395 426.298 426.188 426.138 425.953 425.733 425.545 425.388 425.26 425.168 425.053 424.97 424.888 424.79 424.713 424.698 424.6 424.59 424.515 424.423 424.323 424.188 424.025 423.903 423.705 423.575 423.413 423.205 422.94 422.773 422.48 422.155 421.825 421.605 421.45 421.34 421.125 421.16 421.173 421.16 421.108 420.953 420.728 420.618 420.6 420.508 420.448 420.328 420.213 420.013 419.76 419.485 419.238 419.373 418.693 418.34 417.995 417.688 417.33 416.91 416.435 415.923 415.32 414.8 414.45 414.105 413.813 413.608 413.383 413.138 412.88 412.658 412.448 412.273 412.075 411.785 411.545 411.41 411.273 411.19 411.06 410.94 410.765 410.673 410.688 410.685 410.713 410.703 410.783 410.868 410.94 411.03 411.038 411.003 410.918 410.855 410.833 410.798 410.768 410.758 410.835 410.848 410.868 410.873 410.798 410.733 410.71 410.61 410.508 410.398 410.26 410.14 410.033 409.883 409.683 409.545 409.428 409.34 409.235 409.143 408.983 408.8 408.64 408.463 408.323 408.21 408.045 407.86 407.715 407.548 407.328 407.175 407 406.843 406.645 406.445 406.248 406.063 405.855 405.653 405.463 405.303 405.2 405.11 404.895 404.658 404.448 404.253 404.005 403.86 403.65 403.398 403.208 402.953 402.735 402.433 402.025 401.51 401.03 400.515 400.135 399.753 399.443 399.215 399.023 398.848 398.773 398.46 398.075 397.7 397.26 396.783 396.42 395.988 395.565 395.118 394.723 394.258 393.84 393.415 393.108 392.83 392.585 392.293 392.09 391.858 391.548 391.258 391.053 390.805 390.508 390.198 389.925 389.705 389.573 389.465 389.313 389.135 389.018 388.845 388.725 388.71 388.708 388.445 388.348 388.273 388.198 388.005 387.838 387.678 387.558 387.458 387.34 387.268 387.165 386.95 386.658 386.403 386.155 385.953 385.748 385.468 385.243 384.975 384.745 384.475 384.178 383.843 383.51 383.148 382.863 382.57 382.25 382.005 381.695 381.49 381.31 381.148 380.928 380.753 380.68 380.613 380.4 380.29 380.26 380.035 379.828 379.553 379.258 378.993 378.848 378.733 378.613 378.56 378.463 378.27 378.225 377.945 377.583 377.238 376.82 376.385 375.693 375.123 374.74 374.345 374.025 373.71 373.508 373.318 373.113 372.933 372.768 372.665 372.595 372.483 372.333 372.173 372.008 371.828 371.628 371.313 371.218 370.883 370.713 370.515 370.31 370.12 369.97 369.735 369.478 369.255 369.068 368.95 368.703 368.405 368.098 367.85 367.535 367.225 366.89 366.658 366.448 366.185 365.903 365.713 365.458 365.323 365.163 364.958 364.655 364.33 364.045 363.73 363.423 363.158 362.85 362.525 362.22 361.905 361.653 361.295 360.925 360.518 360.058 359.655 359.195 358.713 358.358 358 357.695 357.398 357.028 356.648 356.308 355.975 355.49 355.068 354.593 354.093 353.628 353.185 352.703 352.265 351.868 351.52 351.22 351.388 350.868 350.103 349.86 349.423
431.243 431.1 431.08 430.878 430.75 430.585 430.388 430.09 429.515 428.77 428.018 427.84 427.848 427.675 427.605 427.753 428.038 428.53 428.593 428.5 428.43 428.373 428.223 428.123 428.11 427.973 427.918 427.868 427.748 427.63 427.493 427.33 427.143 427.035 426.898 426.768 426.598 426.49 426.39 426.4 426.12 425.928 425.743 425.5 425.373 425.33 425.195 425.123 425.03 424.91 424.863 424.783 424.76 424.68 424.633 424.535 424.405 424.245 424.13 423.993 423.82 423.595 423.423 423.25 423.108 422.923 422.618 422.41 422.128 421.865 421.793 421.703 421.48 421.455 421.46 421.458 421.355 421.318 421.13 421.093 421.105 420.97 420.863 420.768 420.635 420.43 420.178 419.895 419.603 419.66 419.005 418.708 418.35 417.988 417.678 417.258 416.783 416.263 415.708 415.16 414.703 414.383 414.073 413.893 413.625 413.378 413.09 412.87 412.66 412.478 412.265 411.968 411.705 411.54 411.433 411.358 411.298 411.145 410.96 410.895 410.873 410.79 410.758 410.723 410.803 410.923 411.04 411.115 411.168 411.133 411.073 410.99 410.938 410.925 410.898 410.96 410.965 410.988 410.963 410.978 410.915 410.843 410.79 410.74 410.595 410.5 410.35 410.213 410.09 409.918 409.765 409.608 409.49 409.418 409.315 409.195 409.07 408.908 408.743 408.598 408.448 408.265 408.085 407.913 407.773 407.628 407.415 407.27 407.085 406.905 406.735 406.563 406.375 406.17 405.938 405.783 405.578 405.438 405.313 405.205 405.13 404.863 404.633 404.488 404.258 404.068 403.885 403.653 403.438 403.24 403.015 402.75 402.398 401.903 401.235 400.623 400.32 400.125 399.813 399.6 399.385 399.173 399.058 398.88 398.518 398.04 397.583 397.11 396.73 396.308 395.858 395.363 394.928 394.555 394.143 393.705 393.375 393.093 392.823 392.528 392.32 392.123 391.795 391.5 391.24 390.92 390.555 390.268 390.023 389.91 389.788 389.623 389.438 389.278 389.19 389.04 389.028 389.038 388.93 388.75 388.658 388.57 388.46 388.268 388.048 387.845 387.685 387.578 387.475 387.403 387.35 387.11 386.815 386.565 386.23 386.005 385.773 385.508 385.29 385.015 384.76 384.495 384.18 383.895 383.658 383.41 383.14 382.818 382.498 382.183 381.878 381.638 381.383 381.238 381.07 380.913 380.818 380.65 380.508 380.36 380.29 380.193 380.01 379.745 379.523 379.115 378.95 378.793 378.72 378.58 378.533 378.43 378.29 377.998 377.765 377.348 376.935 376.53 375.93 375.373 374.993 374.598 374.235 373.925 373.718 373.513 373.303 373.115 372.948 372.838 372.745 372.605 372.458 372.29 372.145 371.965 371.803 371.518 371.155 371.015 370.805 370.563 370.348 370.18 370.015 369.81 369.643 369.305 369.09 368.903 368.695 368.498 368.225 367.935 367.708 367.473 367.19 366.86 366.583 366.333 366.068 365.868 365.693 365.515 365.278 365.135 364.885 364.57 364.243 363.918 363.62 363.343 363.043 362.79 362.475 362.12 361.795 361.488 361.128 360.658 360.248 359.86 359.475 359.083 358.8 358.425 357.998 357.713 357.42 357.008 356.663 356.308 355.878 355.403 354.938 354.463 353.978 353.508 353.01 352.553 352.103 351.758 351.478 351.283 351.53 350.435 350.123 349.75
