ncols 378
nrows 32
xllcorner    388080
yllcorner    477648
cellsize     2
NODATA_value -9999
558.708 558.55 558.658 558.563 558.52 558.505 558.462 558.328 558.212 558.25 557.954 557.792 557.673 557.71 557.627 557.595 557.575 557.332 557.198 557.281 557.22 557.132 557.163 557.053 557.008 557.059 556.991 556.893 556.699 556.63 556.698 556.597 556.546 556.493 556.338 556.341 556.391 556.276 556.16 556.167 556.122 556.101 556.051 555.875 555.956 555.784 555.667 555.629 555.734 555.485 555.597 555.49 555.581 555.636 555.508 555.413 555.33 555.573 555.632 555.766 555.563 555.489 555.612 555.657 555.726 555.857 556.162 556.065 556.096 555.967 556.061 556.214 556.191 556.138 556.159 556.283 556.214 556.404 556.525 556.845 556.906 557.228 557.374 557.544 557.704 557.722 557.914 557.933 558.06 558.291 558.389 558.574 558.372 558.374 558.639 558.797 558.984 559.018 559.18 559.254 559.308 559.402 559.466 559.635 559.677 559.803 559.855 559.747 559.905 560.175 560.256 560.616 560.873 561.083 561.172 561.628 561.698 562.015 561.988 562.134 562.12 562.333 562.513 562.731 562.878 563.048 563.334 563.585 563.847 564.231 564.625 564.764 565.105 565.518 565.804 566.004 566.332 566.618 566.789 566.851 567.402 567.945 568.304 568.644 568.742 569.19 569.528 569.899 570.223 570.594 571.039 571.277 571.497 571.581 571.757 572.028 572.102 572.307 572.499 572.843 572.889 573.138 573.305 573.48 573.465 573.508 573.523 573.389 573.342 573.274 573.099 573.093 573.165 573.105 573.164 573.182 573.418 573.561 573.73 573.879 573.974 574.02 573.942 573.996 574.007 573.823 574.032 574.12 574.216 574.323 574.546 574.692 574.953 575.053 575.157 575.156 575.193 575.337 575.419 575.425 575.649 575.933 575.804 575.535 574.825 574.165 574.18 574.622 574.654 574.837 574.768 575.906 576.495 576.471 576.685 576.733 576.736 576.367 576.068 575.779 576.182 576.601 576.565 577.122 577.083 577.066 577.123 577.117 577.21 577.076 577.361 577.534 577.761 577.714 577.841 577.814 578.052 578.1 578.085 578.099 577.95 578.318 578.445 578.597 578.686 578.781 579.074 579.31 579.602 579.848 579.93 580.115 580.322 580.64 580.78 581.114 581.432 581.511 581.67 581.666 581.697 582.077 582.718 582.828 583.42 583.94 584.35 584.968 585.196 585.423 585.797 586.263 586.281 586.298 586.359 586.671 586.834 587.125 587.257 587.176 587.427 587.464 587.589 587.637 587.936 588.045 587.957 588.097 588.13 588.243 588.326 588.381 588.299 588.345 588.451 588.544 588.782 588.827 588.785 588.94 589.21 589.338 589.452 589.565 589.638 589.526 589.57 589.609 589.567 589.587 589.635 589.709 589.759 589.755 589.811 589.964 589.98 590.079 590.15 590.302 590.434 590.663 590.763 590.711 590.808 590.775 590.835 590.892 590.892 590.814 590.815 590.996 591.335 591.427 591.427 591.393 591.353 591.322 591.412 591.522 591.346 591.297 591.34 591.367 591.475 591.448 591.385 591.455 591.425 591.417 591.437 591.367 591.063 591.159 591.491 591.767 591.727 591.67 591.62 591.593 591.458 591.429 591.365 591.414 591.499 591.609 591.701 591.919 591.951 591.922 591.952 591.934 591.499 591.546 591.795 591.871 592.033 592.105
558.693 558.647 558.386 558.423 558.328 558.37 558.215 558.083 557.973 557.98 557.897 557.525 557.519 557.544 557.44 557.35 557.359 557.153 557.243 557.077 557.057 557.091 557.032 557.089 556.923 556.88 556.747 556.727 556.648 556.719 556.6 556.527 556.445 556.582 556.54 556.349 556.352 556.451 556.315 556.247 556.224 556.091 556.07 555.979 555.828 555.71 555.58 555.573 555.347 555.226 555.321 555.278 555.293 555.015 555.115 555.07 555.128 555.273 555.322 555.309 555.357 555.218 555.328 555.221 555.411 555.66 555.673 555.748 555.853 555.819 556.083 556.139 555.994 556.226 556.322 556.294 556.455 556.662 556.706 557.116 557.196 557.317 557.365 557.576 557.62 557.719 557.79 557.896 558.077 558.209 558.288 558.289 558.234 558.226 558.562 558.791 558.885 558.976 559.041 559.067 559.149 559.297 559.498 559.433 559.717 559.768 559.612 559.57 559.653 559.968 560.016 560.238 560.563 560.835 560.914 561.205 561.432 561.545 561.611 561.741 561.863 561.999 562.143 562.403 562.741 562.951 563.157 563.35 563.771 563.979 564.331 564.544 565.104 565.387 565.595 565.915 566.269 566.57 566.824 566.886 567.372 567.862 568.243 568.547 568.778 569.155 569.549 569.837 570.115 570.615 570.89 571.129 571.202 571.31 571.433 571.705 571.838 572.028 572.23 572.391 572.494 572.767 572.776 572.932 573.016 573.094 573.012 572.986 573.033 572.792 572.788 572.794 572.681 572.789 572.875 572.968 573.059 573.277 573.515 573.675 573.714 573.766 573.868 573.9 573.647 573.672 573.861 573.873 573.945 574.03 574.28 574.52 574.546 574.653 574.926 575.007 575.02 575.242 575.278 575.561 575.637 575.722 575.719 575.413 574.918 574.098 574.129 573.935 574.366 574.844 575.248 576.315 576.347 576.512 576.527 576.634 576.662 576.307 575.704 575.641 575.871 576.571 576.724 577.032 577.006 576.952 576.988 577.088 577.06 577.014 577.096 577.1 577.276 577.336 577.595 577.648 577.838 577.998 577.999 577.897 578.08 578.189 578.34 578.342 578.531 578.59 579.022 579.325 579.44 579.643 579.619 579.872 580.53 580.712 580.705 581.037 581.257 581.305 581.351 581.401 581.635 582.161 582.504 582.942 583.341 583.713 584.342 584.902 585.155 585.413 585.865 586.158 586.304 586.373 586.627 586.725 586.943 586.978 587.146 587.264 587.423 587.539 587.638 587.655 587.713 587.968 588.085 588.143 588.17 588.192 588.319 588.325 588.371 588.359 588.427 588.562 588.804 588.993 589.065 589.091 589.244 589.311 589.465 589.521 589.585 589.511 589.604 589.57 589.548 589.534 589.594 589.627 589.669 589.714 589.838 589.894 590.004 590.031 590.134 590.325 590.465 590.612 590.606 590.688 590.672 590.673 590.592 590.597 590.658 590.832 590.792 590.931 591.299 591.334 591.392 591.408 591.372 591.427 591.399 591.399 591.361 591.41 591.499 591.47 591.451 591.419 591.434 591.408 591.417 591.46 591.447 591.158 591.078 591.036 591.282 591.44 591.375 591.337 591.537 591.325 591.342 591.242 591.174 591.234 591.247 591.443 591.497 591.726 591.847 591.916 591.926 591.783 591.448 591.131 591.635 592.009 592.089 592.105
558.637 558.608 558.444 558.125 558.132 558.183 558.125 557.923 557.948 557.874 557.849 557.63 557.612 557.513 557.49 557.399 557.309 557.211 557.197 557.119 557.058 557.055 557.027 556.867 556.805 556.717 556.654 556.661 556.537 556.598 556.528 556.547 556.349 556.288 556.199 556.159 556.116 556.106 556.047 556.006 556.004 555.944 555.873 555.766 555.627 555.491 555.403 555.297 555.125 555.278 555.373 555.395 555.259 555.011 554.917 555.034 555.202 555.293 555.222 555.163 555.143 555.134 555.218 555.377 555.503 555.598 555.782 555.974 555.909 555.77 555.889 555.864 555.97 555.82 556.092 556.37 556.522 556.686 556.873 556.857 557 557.01 557.157 557.221 557.403 557.429 557.465 557.576 557.679 557.895 557.97 558.02 558.102 558.24 558.33 558.504 558.618 558.654 558.81 558.942 559.074 559.1 559.285 559.529 559.549 559.505 559.496 559.462 559.594 559.731 559.898 560.082 560.226 560.609 560.773 561 561.105 561.241 561.401 561.556 561.783 561.887 562.052 562.218 562.347 562.791 562.893 563.343 563.608 563.792 564.151 564.325 564.765 565.233 565.62 565.874 566.164 566.511 566.741 566.895 567.341 567.909 568.177 568.365 568.602 568.786 569.32 569.517 569.932 570.291 570.361 570.71 570.839 571.056 571.175 571.274 571.424 571.581 571.63 571.94 572.057 572.218 572.318 572.584 572.615 572.604 572.601 572.371 572.447 572.406 572.447 572.384 572.402 572.442 572.545 572.735 572.903 572.99 573.275 573.362 573.411 573.473 573.657 573.529 573.379 573.534 573.569 573.651 573.833 573.989 574.104 574.214 574.263 574.365 574.477 574.658 574.893 575.034 575.142 575.263 575.525 575.658 575.528 575.539 575.445 574.758 574.97 575.022 575.149 575.04 575.92 576.421 576.442 576.577 576.588 576.678 576.422 576.314 576.12 575.963 576.178 576.5 576.73 576.882 576.824 576.787 576.845 576.846 576.838 576.881 576.985 577.033 576.95 577.093 577.298 577.443 577.664 577.74 577.526 577.812 577.904 577.972 577.894 578.072 578.293 578.504 578.749 579.05 579.318 579.152 579.72 580.213 580.279 580.171 580.479 580.702 580.818 581.005 581.123 581.227 581.686 582.118 582.481 582.863 583.352 583.775 584.296 584.639 585.063 585.415 585.775 586.275 586.398 586.439 586.519 586.698 586.732 586.777 586.918 587.003 587.443 587.555 587.511 587.579 587.631 587.737 588.037 588.176 588.271 588.292 588.433 588.392 588.283 588.325 588.42 588.583 589.074 589.092 589.054 589.084 589.017 589.207 589.244 589.353 589.479 589.525 589.54 589.55 589.552 589.523 589.573 589.637 589.657 589.764 589.787 589.876 589.932 590.084 590.192 590.305 590.395 590.505 590.648 590.714 590.681 590.589 590.571 590.579 590.579 590.656 590.748 591.109 591.253 591.232 591.333 591.332 591.337 591.331 591.332 591.416 591.247 591.372 591.468 591.513 591.446 591.494 591.476 591.381 591.459 591.414 591.375 591.262 591.121 590.916 590.892 591.076 591.108 591.175 591.191 591.18 591.112 591.137 591.14 591.089 591.141 591.279 591.43 591.66 591.853 591.884 591.859 591.735 591.509 591.479 591.702 592.073 592.238 592.211
558.632 558.618 558.324 558.243 558.153 558.127 558.005 557.927 557.981 557.763 557.69 557.677 557.601 557.47 557.312 557.24 557.13 557.041 556.939 557.045 556.905 556.826 556.872 556.742 556.637 556.596 556.49 556.469 556.472 556.472 556.535 556.401 556.341 556.321 556.244 556.174 556.156 555.94 555.956 555.946 555.824 555.822 555.843 555.662 555.612 555.414 555.442 555.329 555.229 555.147 555.022 555.294 554.929 554.888 554.74 554.882 554.91 555.021 555.078 555.033 554.982 555.025 555.075 555.114 555.236 555.365 555.525 555.588 555.467 555.503 555.612 555.398 555.079 555.49 555.908 556.171 556.395 556.479 556.738 556.886 556.821 556.964 557.166 557.195 557.248 557.459 557.389 557.554 557.699 557.848 557.85 557.891 557.967 558.193 558.199 558.405 558.422 558.479 558.658 558.814 558.97 559.09 559.233 559.366 559.359 559.402 559.435 559.54 559.582 559.583 559.773 559.86 560.238 560.484 560.588 560.707 560.945 560.98 561.113 561.432 561.652 561.739 561.858 561.99 561.813 562.404 562.77 563.038 563.492 563.773 563.979 564.326 564.76 565.099 565.446 565.693 565.98 566.174 566.513 566.967 567.379 567.697 568.097 568.373 568.631 568.738 568.991 569.525 569.699 569.723 569.983 570.269 570.44 570.681 570.645 570.77 570.926 570.981 571.136 571.266 571.486 571.677 571.848 572.062 572.216 572.065 572.062 572.061 572.042 571.974 572.086 572.162 572.045 572.062 572.248 572.429 572.567 572.658 572.924 573.018 573.072 573.136 572.971 572.868 572.899 573.134 573.193 573.329 573.623 573.865 573.934 573.966 573.912 574.106 574.254 574.529 574.694 574.961 574.885 575.179 575.119 575.435 575.636 575.694 575.693 575.932 575.778 575.556 575.695 575.593 576.092 576.371 576.481 576.458 576.567 576.488 576.427 576.398 576.29 576.205 576.384 576.555 576.682 576.749 576.722 576.682 576.827 576.633 576.764 576.742 576.748 576.859 576.673 576.548 577.016 577.162 577.557 577.572 577.34 577.232 577.411 577.424 577.751 577.992 578.208 578.334 578.699 579.035 578.984 578.99 579.75 580.034 580.037 580.306 580.253 580.374 580.478 580.829 580.858 581.208 581.629 582.065 582.439 582.678 583.243 583.933 584.301 584.582 584.795 585.34 585.768 586.183 586.346 586.454 586.604 586.607 586.669 586.749 586.793 587.405 587.546 587.535 587.519 587.526 587.628 587.71 587.947 588.217 588.366 588.51 588.498 588.5 588.457 588.674 588.789 588.829 588.97 588.897 588.844 588.981 588.925 589.055 589.176 589.446 589.635 589.55 589.524 589.561 589.575 589.537 589.707 589.728 589.734 589.744 589.79 589.899 589.956 590.082 590.232 590.332 590.376 590.368 590.613 590.744 590.71 590.664 590.636 590.614 590.546 590.575 590.565 591.065 591.294 591.182 591.271 591.28 591.244 591.326 591.336 591.344 591.365 591.437 591.381 591.338 591.365 591.392 591.387 591.386 591.401 591.455 591.404 591.308 591.108 590.806 590.875 591.031 590.965 591.015 591.067 591.132 591.065 591.135 591.366 591.349 591.434 591.542 591.68 591.824 592.029 591.979 591.908 591.787 591.594 591.638 591.911 592.242 592.27 592.396
558.674 558.491 558.113 558.135 558.106 558.109 557.978 557.857 557.788 557.704 557.776 557.685 557.617 557.445 557.143 557.135 557.018 556.962 556.984 556.855 556.803 556.821 556.79 556.656 556.594 556.557 556.613 556.457 556.515 556.542 556.548 556.395 556.337 556.309 556.18 556.094 555.972 555.914 555.82 555.813 555.693 555.741 555.653 555.562 555.405 555.382 555.232 555.121 554.927 554.779 554.819 555.5 555.142 554.396 554.599 554.35 554.852 554.938 554.796 554.712 554.802 554.908 555.166 555.092 555.275 555.391 555.537 555.546 555.488 555.521 555.404 555.289 555.051 555.657 556.062 556.267 556.385 556.54 556.597 556.732 556.767 556.958 557.022 557.003 557.085 557.152 557.274 557.326 557.391 557.559 557.613 557.71 557.822 557.903 557.936 558.101 558.231 558.352 558.512 558.638 558.855 558.904 559.003 559.134 559.233 559.293 559.326 559.346 559.351 559.426 559.416 559.593 559.735 560.257 560.465 560.584 560.637 560.731 560.874 560.999 561.277 561.539 561.756 561.621 562.183 562.337 562.508 562.809 563.175 563.532 563.693 563.948 564.338 564.691 565.171 565.179 565.385 565.695 566.094 566.621 567.051 567.461 567.808 568.141 568.325 568.547 568.921 569.184 569.346 569.568 569.695 570.028 570.127 570.261 570.327 570.389 570.391 570.517 570.65 570.79 570.801 571.057 571.352 571.421 571.43 571.552 571.572 571.583 571.55 571.565 571.639 571.557 571.81 571.759 571.872 572.033 571.992 572.258 572.476 572.539 572.639 572.458 572.343 572.467 572.658 572.881 573.031 573.293 573.391 573.539 573.709 573.819 573.759 573.904 574.111 574.384 574.559 574.868 574.856 574.833 574.94 575.36 575.74 575.851 575.95 575.986 575.96 575.848 576.146 576.259 576.445 576.485 576.49 576.704 576.541 576.574 576.507 576.483 576.524 576.373 576.277 576.442 576.371 576.665 576.588 576.718 576.538 576.566 576.615 576.627 576.689 576.743 576.743 576.779 577.018 577.233 577.317 577.359 577.162 576.747 576.96 577.574 577.821 577.854 578.181 578.503 578.616 578.723 578.758 579.03 579.384 579.562 579.723 579.708 579.968 580.055 580.147 580.44 580.594 581.064 581.552 581.8 582.138 582.433 582.934 583.736 584.234 584.638 584.971 585.296 585.75 586.056 586.285 586.418 586.544 586.5 586.672 586.733 587.094 587.374 587.559 587.496 587.509 587.538 587.651 587.863 588.064 588.34 588.399 588.524 588.534 588.477 588.505 588.572 588.637 588.738 588.846 588.831 588.876 589.05 588.957 588.986 589.247 589.544 589.642 589.588 589.627 589.704 589.699 589.781 589.853 589.945 589.868 589.746 589.789 589.831 589.907 590.065 590.183 590.274 590.363 590.389 590.46 590.608 590.704 590.727 590.702 590.629 590.592 590.613 590.58 590.994 591.205 591.128 591.305 591.263 591.27 591.291 591.273 591.178 591.427 591.433 591.328 591.269 591.331 591.338 591.373 591.4 591.336 591.337 591.346 591.132 590.96 590.749 590.791 590.834 590.925 591.045 590.967 591.147 591.33 591.536 591.795 591.854 591.823 591.817 591.87 592.064 592.099 592.113 591.948 591.849 591.822 591.656 592.055 592.23 592.376 592.622
558.657 558.458 558.124 558.132 558.147 558.044 557.864 557.835 557.831 557.81 557.667 557.53 557.415 557.377 557.084 556.914 556.888 556.934 556.866 556.784 556.791 556.71 556.664 556.621 556.541 556.484 556.406 556.448 556.421 556.384 556.365 556.368 556.209 556.145 556.19 555.783 555.706 555.812 555.727 555.663 555.585 555.572 555.628 555.394 555.364 555.221 555.23 555.113 555.664 555.703 554.499 554.533 554.56 554.431 554.521 554.734 554.634 554.814 554.651 554.549 554.721 554.758 554.927 555.085 555.341 555.338 555.286 555.354 555.275 555.201 555.067 554.56 555.317 555.705 555.966 556.055 556.234 556.294 556.299 556.462 556.624 556.619 556.826 556.84 556.897 556.922 556.997 557.355 557.321 557.448 557.42 557.569 557.609 557.698 557.736 557.859 558.049 558.115 558.393 558.692 558.829 558.895 558.916 559.002 559.079 559.108 559.155 559.196 559.187 559.266 559.407 559.425 559.658 559.872 560.222 560.294 560.335 560.357 560.671 560.872 561.032 561.341 561.527 561.731 561.916 562.081 562.345 562.599 562.841 563.278 563.317 563.433 563.746 564.068 564.384 564.689 565.111 565.382 565.841 566.235 566.698 567.123 567.545 567.832 568.144 568.4 568.569 568.791 568.972 569.177 569.493 569.566 569.737 569.738 569.807 569.864 569.954 569.93 570.123 570.087 570.302 570.251 570.564 570.696 570.809 570.881 571.026 570.934 570.941 570.94 571.057 571.153 571.241 571.331 571.369 571.494 571.665 571.882 572.085 572.135 571.999 571.858 571.872 572.137 572.477 572.722 572.966 573.106 573.233 573.493 573.621 573.669 573.726 573.852 573.976 574.218 574.384 574.71 574.739 574.591 574.714 575.257 575.891 576.241 576.196 576.184 576.154 576.214 576.166 576.341 576.427 576.456 576.55 576.532 576.571 576.499 576.589 576.39 576.288 576.112 576.24 576.315 576.358 576.503 576.687 576.506 576.561 576.535 576.645 576.683 576.735 576.714 576.73 577.03 577.088 577.142 577.083 577.143 576.944 576.693 576.58 577.131 577.617 577.639 577.749 577.984 578.428 578.422 578.311 578.743 579.025 579.369 579.443 579.453 579.471 579.715 579.97 580.225 580.665 581.073 581.252 581.738 581.993 582.415 583.029 583.914 584.26 584.756 585.327 585.459 585.859 586.037 586.252 586.411 586.496 586.599 586.685 586.936 587.161 587.268 587.253 587.43 587.485 587.537 587.635 587.925 588.285 588.582 588.511 588.55 588.528 588.682 588.64 588.703 588.771 588.698 588.689 588.767 588.931 588.9 588.903 588.991 589.251 589.454 589.678 589.693 589.803 589.9 589.887 589.885 589.855 589.962 589.856 589.781 589.781 589.842 589.917 590.008 590.109 590.204 590.363 590.271 590.316 590.577 590.628 590.685 590.664 590.639 590.578 590.466 590.594 590.787 591.015 591.222 591.371 591.33 591.284 591.288 591.049 591.293 591.426 591.437 591.323 591.31 591.314 591.318 591.22 591.265 591.325 591.323 591.269 590.955 590.762 590.793 590.8 590.898 591.104 591.106 591.235 591.365 591.742 591.842 591.848 591.94 592.008 591.898 591.945 591.995 592.071 592.019 592.07 592.012 591.846 592.013 592.317 592.43 592.611 592.785
558.503 558.406 558.206 558.104 558.067 558.061 557.902 557.861 557.686 557.82 557.572 557.21 557.312 557.172 557.084 556.85 556.799 556.841 556.791 556.741 556.663 556.638 556.573 556.61 556.514 556.477 556.457 556.481 556.415 556.233 556.309 556.276 556.152 556.095 555.798 555.781 555.744 555.72 555.587 555.709 555.611 555.576 555.393 555.306 555.248 555.224 555.211 555.348 555.343 554.478 554.341 554.375 554.333 554.327 554.624 554.332 554.519 554.426 554.47 554.376 554.43 554.575 554.687 554.917 555.035 555.147 555.241 555.256 555.034 555.016 554.862 554.795 555.553 555.887 555.932 556.093 556.177 556.232 556.237 556.471 556.493 556.742 556.72 556.736 556.79 556.876 557.036 556.984 557.02 557.115 557.271 557.284 557.387 557.519 557.562 557.689 557.817 557.965 558.195 558.567 558.689 558.823 558.726 558.75 558.999 558.994 559.015 558.93 559.006 559.048 559.269 559.324 559.375 559.517 559.639 559.824 560.151 560.427 560.432 560.614 560.818 561.132 561.377 561.519 561.727 561.877 562.147 562.278 562.535 562.77 563.046 563.106 563.354 563.626 564.077 564.309 564.748 565.092 565.539 565.887 566.196 566.604 567.084 567.452 567.918 568.005 568.206 568.274 568.57 568.746 568.913 569.053 569.134 569.257 569.257 569.45 569.454 569.386 569.617 569.669 569.863 569.907 569.859 570.14 570.23 570.169 570.521 570.418 570.462 570.528 570.699 570.745 570.854 570.933 571.087 571.072 571.297 571.527 571.653 571.556 571.155 571.286 571.542 571.898 572.393 572.682 572.831 573.001 573.203 573.372 573.545 573.599 573.66 573.795 573.925 574.15 574.362 574.517 574.399 574.478 574.768 575.204 575.638 576.256 576.745 576.627 576.675 576.391 576.414 576.34 576.399 576.417 576.431 576.49 576.397 576.376 576.436 576.33 576.117 576.129 576.013 576.197 576.405 576.404 576.314 576.365 576.324 576.344 576.582 576.714 576.729 576.803 576.739 576.732 576.839 577.005 577.128 576.973 576.903 576.853 576.739 577.232 577.471 577.525 577.704 578.001 578.118 578.153 578.152 578.636 578.707 578.995 579.313 579.34 579.312 579.56 579.757 580.211 580.541 580.901 581.264 581.445 581.601 582.156 582.968 583.712 584.196 584.569 585.118 585.392 585.707 585.886 586.073 586.279 586.433 586.578 586.671 587.042 587.205 587.052 587.056 587.358 587.423 587.733 587.95 587.994 588.312 588.675 588.559 588.618 588.743 588.704 588.662 588.702 588.713 588.778 588.789 588.781 588.805 588.856 588.874 589.02 589.217 589.333 589.61 589.649 589.713 589.888 590.017 589.864 589.768 589.809 589.758 589.816 589.818 589.863 589.896 589.941 590.015 590.069 590.225 590.169 590.196 590.443 590.448 590.533 590.518 590.517 590.54 590.619 590.568 590.75 590.957 591.065 591.235 591.256 591.242 591.185 591.123 591.355 591.393 591.396 591.48 591.519 591.435 591.274 591.245 591.284 591.278 591.259 591.279 591.008 590.785 590.794 590.9 591.034 591.319 591.36 591.623 591.612 591.801 591.869 591.907 591.869 591.895 591.93 591.994 591.969 591.985 591.948 592.035 592.047 591.882 591.898 592.216 592.533 592.687 592.867
558.449 558.387 558.174 558.095 557.985 558.038 557.906 557.798 557.767 557.665 557.538 557.477 557.331 557.125 556.933 556.756 556.675 556.737 556.696 556.656 556.703 556.623 556.577 556.519 556.502 556.4 556.37 556.281 556.295 556.155 556.096 556.035 556.049 555.891 555.733 555.708 555.626 555.551 555.586 555.396 555.377 555.35 555.291 555.178 555.083 555.006 555.427 554.904 554.481 554.223 553.946 554.106 554.139 554.038 554.193 554.246 554.274 554.39 554.415 554.463 554.415 554.5 554.584 554.744 554.823 555.013 554.984 555.032 554.759 554.784 554.714 555.167 555.546 555.734 555.833 556.024 556.061 556.044 556.127 556.261 556.362 556.474 556.517 556.517 556.616 556.613 556.62 556.702 556.849 556.892 556.973 557.051 557.072 557.196 557.308 557.57 557.654 557.863 558.045 558.28 558.473 558.74 558.778 558.715 558.831 558.842 558.778 558.848 558.85 558.937 558.982 559.074 559.19 559.299 559.473 559.608 559.863 560.164 560.323 560.546 560.59 560.925 561.002 561.392 561.421 561.67 561.861 562.086 562.282 562.525 562.703 562.802 562.999 563.322 563.508 564.043 564.199 564.721 565.219 565.427 565.763 566.156 566.577 566.983 567.21 567.464 567.64 567.789 567.951 568.294 568.486 568.593 568.713 568.656 568.737 568.774 568.943 568.986 569.123 569.099 569.275 569.387 569.461 569.57 569.662 569.65 569.581 569.877 569.772 570.02 570.131 570.208 570.34 570.609 570.651 570.721 570.724 570.982 571.203 571.056 570.424 570.728 571.247 571.643 572.134 572.481 572.748 572.891 573.02 573.203 573.35 573.487 573.537 573.594 573.71 573.815 574.041 574.142 574.17 574.355 574.691 575.203 575.563 576.006 576.48 576.803 576.753 576.492 576.538 576.399 576.377 576.402 576.459 576.314 576.048 575.601 575.57 575.885 575.82 575.815 575.867 576.033 575.97 576.046 576.172 576.247 576.2 576.315 576.468 576.641 576.739 576.749 576.698 576.725 576.768 576.904 577.025 576.854 576.714 576.845 577.13 577.401 577.505 577.333 577.502 577.74 577.956 577.575 577.233 577.961 578.372 578.616 579.029 578.882 578.753 578.948 579.583 579.91 580.18 580.669 580.869 581.277 581.553 582.197 582.674 583.435 583.948 584.413 584.907 585.331 585.688 586.006 586.11 585.84 586.327 586.741 586.978 587.07 587.025 587.117 587.063 587.235 587.509 587.712 588.005 588.111 588.412 588.625 588.736 588.628 588.628 588.656 588.596 588.632 588.619 588.745 588.757 588.705 588.734 588.789 589.081 589.137 589.2 589.35 589.552 589.669 589.582 589.842 590.022 589.783 589.693 589.668 589.75 589.831 589.847 589.884 589.897 589.895 590.001 590.037 590.046 590.108 590.155 590.377 590.547 590.537 590.517 590.538 590.592 590.608 590.62 590.735 590.889 590.973 591.258 591.242 591.163 590.991 591.278 591.314 591.392 591.422 591.468 591.557 591.403 591.258 591.204 591.208 591.214 591.15 591.02 590.718 590.709 590.753 590.725 590.937 591.341 591.537 591.631 591.693 591.817 591.897 591.875 591.846 591.947 591.954 592.067 592.046 592.033 591.929 592.068 592.003 591.906 591.839 592.238 592.697 592.744 593.167
558.396 558.278 558.157 558.025 557.971 557.913 557.844 557.755 557.658 557.587 557.53 557.456 557.283 556.986 556.866 556.798 556.725 556.659 556.647 556.628 556.695 556.467 556.502 556.507 556.36 556.327 556.323 556.142 556.243 556.075 556.05 555.947 555.903 555.671 555.661 555.605 555.472 555.522 555.474 555.343 555.362 555.264 555.136 555.127 555.165 555.186 554.845 554.519 554.383 554.149 554.057 553.939 554.009 553.993 554.06 554.204 554.112 554.328 554.239 554.252 554.269 554.354 554.401 554.46 554.604 554.682 554.67 554.66 554.617 554.32 554.776 555.207 555.406 555.641 555.789 555.802 555.831 556.137 556.233 556.197 556.293 556.37 556.315 556.414 556.504 556.436 556.524 556.616 556.554 556.53 556.835 557.095 556.934 557.162 557.285 557.355 557.56 557.614 557.687 558.221 558.434 558.588 558.654 558.698 558.838 558.717 558.746 558.832 558.785 558.732 558.747 558.802 558.978 559.151 559.391 559.481 559.578 559.876 560.107 560.212 560.412 560.742 561.052 561.255 561.347 561.46 561.709 561.731 561.9 562.117 562.365 562.414 562.763 562.964 563.272 563.473 563.655 564.013 564.479 564.697 565.25 565.712 565.977 566.356 566.529 566.963 567.35 567.43 567.639 567.844 567.868 567.959 567.971 568.199 568.215 568.232 568.373 568.47 568.488 568.529 568.726 568.672 568.902 568.949 568.958 569.025 569.082 569.141 569.337 569.538 569.655 569.646 569.915 570.208 570.379 570.348 570.507 570.666 570.674 570.389 570.305 570.501 571.11 571.529 571.901 572.319 572.534 572.679 572.918 572.965 573.18 573.285 573.309 573.264 573.334 573.426 573.898 573.96 574.13 574.237 574.697 575.259 575.865 576.073 576.404 576.753 576.953 576.998 576.705 576.631 576.417 576.371 576.417 576.457 576.282 576.084 575.752 575.296 575.515 575.654 575.756 575.97 576.009 576.065 575.947 576.19 576.337 576.351 576.434 576.657 576.661 576.68 576.677 576.693 576.645 576.796 576.769 576.574 576.963 577.064 577.232 577.446 577.39 577.195 577.372 577.593 577.639 577.179 576.414 576.915 578.119 578.552 578.698 578.655 577.932 578.395 579.216 579.71 580.349 580.378 580.803 581.332 581.594 582.098 582.732 583.377 583.866 584.322 584.765 585.197 585.589 585.745 585.994 586.197 586.446 586.656 586.974 587.068 587.1 587.086 587.039 587.326 587.471 587.796 587.913 588.19 588.455 588.68 588.67 588.794 588.756 588.607 588.715 588.64 588.781 588.714 588.678 588.626 588.662 588.843 589.225 589.147 589.231 589.277 589.442 589.608 589.763 589.72 589.874 589.906 589.886 589.712 589.672 589.811 589.856 589.834 589.878 589.914 589.995 590.032 589.965 590.127 590.124 590.251 590.428 590.501 590.544 590.548 590.573 590.463 590.615 590.753 590.849 590.983 591.294 591.25 590.943 591.119 591.27 591.233 591.286 591.277 591.353 591.531 591.348 591.211 591.209 591.243 591.092 590.997 590.687 590.44 590.55 590.469 590.586 590.984 591.413 591.562 591.6 591.672 591.808 591.983 591.938 591.836 591.939 591.981 592.071 592.055 592.053 591.998 592.037 592.018 591.93 591.743 591.967 592.742 593.064 593.557
558.229 558.198 558.165 558.076 557.922 557.878 557.873 557.688 557.638 557.525 557.49 557.436 557.3 557.085 557.025 556.677 556.73 556.721 556.577 556.516 556.485 556.473 556.332 556.21 556.172 556.153 556.07 555.996 555.948 555.884 555.969 555.855 555.772 555.675 555.652 555.535 555.433 555.35 555.303 555.269 555.15 555.05 555.089 555.102 555.054 554.982 554.467 554.405 554.311 554.167 553.914 553.793 553.899 553.765 554.004 554.01 554.029 554.062 554.198 554.15 554.196 554.124 554.347 554.301 554.325 554.347 554.332 554.28 554.303 554.39 554.832 555.296 555.331 555.508 555.612 555.693 555.906 555.852 555.972 556.111 556.006 555.989 556.206 556.251 556.356 556.344 556.319 556.44 556.585 556.64 556.675 556.686 556.877 557.003 557.249 557.279 557.383 557.469 557.74 558.11 558.341 558.527 558.436 558.45 558.443 558.487 558.448 558.519 558.54 558.634 558.614 558.624 558.925 559.196 559.271 559.305 559.435 559.693 559.812 559.955 560.215 560.524 560.991 561 561.148 561.225 561.347 561.534 561.789 561.89 561.956 562.23 562.58 562.671 562.838 562.917 562.958 563.146 563.574 564.138 564.856 565.042 565.417 565.717 566.087 566.344 566.685 567.006 567.245 567.427 567.473 567.589 567.65 567.634 567.796 567.862 567.986 567.918 567.944 568.059 568.178 568.316 568.278 568.316 568.392 568.465 568.535 568.718 568.865 569.041 569.082 569.237 569.598 569.698 570.005 570.031 569.992 570.143 569.897 569.595 569.954 570.448 570.903 571.264 571.712 572.135 572.426 572.539 572.617 572.575 572.884 572.946 573.079 573.083 573.191 573.385 573.412 573.608 573.769 574.08 574.681 575.152 575.663 575.938 576.229 576.53 576.729 576.841 576.843 576.645 576.471 576.489 576.454 576.515 576.646 576.425 575.691 575.248 575.244 575.395 575.666 575.924 575.949 575.877 576.02 576.195 576.39 576.556 576.514 576.609 576.532 576.565 576.527 576.575 576.582 576.548 576.342 576.724 576.96 577.173 577.226 577.258 577.196 577.209 577.213 577.27 577.44 577.194 577.003 577.132 577.965 578.241 578.492 578.711 578.34 578.421 579.143 579.527 580.161 580.53 580.866 581.105 581.598 581.914 582.398 583.035 583.649 584.149 584.814 585.163 585.398 585.685 586.139 586.46 586.49 586.562 586.697 586.98 587.025 587.145 587.109 587.422 587.7 587.85 587.97 588.184 588.521 588.687 588.814 588.709 588.79 588.721 588.708 588.777 588.762 588.754 588.771 588.753 588.794 588.955 589.117 589.169 589.231 589.256 589.496 589.567 589.619 589.681 589.724 589.94 589.947 589.778 589.641 589.763 589.779 589.877 589.918 589.919 589.823 589.829 589.874 589.925 590.054 590.099 590.277 590.374 590.467 590.582 590.488 590.413 590.632 590.726 590.766 591.004 591.156 591.122 591.002 591.211 591.187 591.207 591.241 591.284 591.224 591.342 591.266 591.181 591.135 591.122 591.012 590.859 590.553 590.303 590.439 590.399 590.562 590.996 591.387 591.501 591.531 591.459 591.739 591.903 591.903 591.995 592.004 592.119 592.159 592.156 592.086 592.088 592.04 592.032 591.859 591.746 592.083 592.87 593.61 593.773
558.115 558.007 557.774 557.956 557.893 557.788 557.703 557.595 557.515 557.365 557.379 557.313 557.258 557.137 556.997 556.705 556.614 556.61 556.526 556.459 556.421 556.38 556.299 556.253 556.157 556.095 556.057 556.016 555.872 555.915 555.843 555.783 555.638 555.621 555.485 555.419 555.364 555.223 555.124 555.127 554.985 555.02 555.047 555.343 554.783 554.437 554.33 554.233 554.168 554.081 554.109 553.993 553.648 553.891 553.701 553.775 553.728 553.863 553.835 553.97 553.947 554 554.047 554.134 554.018 554.148 554.045 553.879 553.962 554.195 554.853 555.036 555.224 555.282 555.406 555.49 555.555 555.721 555.785 555.696 555.857 555.937 556.018 556.21 556.247 556.325 556.311 556.317 556.321 556.455 556.532 556.605 556.731 556.751 556.895 556.885 557.264 557.516 557.808 557.892 557.961 558.181 558.239 558.29 558.22 558.19 558.192 558.201 558.418 558.394 558.391 558.572 558.798 558.863 558.987 559.19 559.308 559.275 559.529 559.807 559.936 560.175 560.619 560.839 560.937 561.032 561.182 561.388 561.508 561.686 561.831 562.026 562.068 562.329 562.512 562.524 562.502 562.595 563.045 563.632 563.971 564.38 564.823 565.062 565.514 565.836 566.157 566.541 566.682 566.933 567.081 567.17 567.22 567.233 567.29 567.408 567.445 567.521 567.546 567.632 567.739 567.59 567.772 567.927 567.81 567.81 568.056 568.249 568.315 568.343 568.633 568.814 568.946 568.96 569.403 569.545 569.651 569.572 569.275 569.285 569.874 570.041 570.456 570.994 571.43 571.728 572.017 572.217 572.255 572.492 572.648 572.7 572.822 572.87 572.901 573.102 573.185 573.239 573.459 573.994 574.557 575.202 575.543 576.097 576.285 576.409 576.56 576.661 576.757 576.433 576.6 576.537 576.732 576.884 576.815 576.402 575.729 575.328 574.849 574.793 575.276 575.167 575.495 575.85 575.993 576.193 576.332 576.371 576.551 576.651 576.425 576.394 576.454 576.523 576.625 576.436 576.553 576.852 577.021 577.163 577.216 577.112 577.083 577.094 577.09 577.153 577.123 577.191 577.226 577.304 577.542 577.815 578.105 578.46 578.88 579.162 579.514 579.941 580.422 580.469 580.82 580.997 581.37 581.721 582.291 582.898 583.456 583.829 584.449 585.129 585.449 585.537 586.094 586.311 586.399 586.423 586.625 586.868 587.044 587.102 587.284 587.58 587.833 587.979 588.065 588.362 588.607 588.681 588.762 588.677 588.787 588.64 588.692 588.777 588.743 588.796 588.736 588.726 588.868 589.07 589.188 589.196 589.292 589.312 589.336 589.477 589.567 589.607 589.597 589.765 589.947 589.807 589.687 589.68 589.682 589.702 589.765 589.683 589.716 589.78 589.787 589.767 589.874 589.92 590.141 590.289 590.596 590.602 590.408 590.551 590.667 590.703 590.7 590.962 591.081 590.756 591.119 591.124 591.151 591.224 591.158 591.212 591.274 591.199 591.163 591.117 591.04 590.899 590.858 590.608 590.343 590.269 590.398 590.362 590.771 591.224 591.412 591.527 591.52 591.494 591.588 591.885 591.942 591.951 592.039 592.148 592.256 592.313 592.225 592.092 592.074 592.127 592.205 592.304 592.347 592.991 593.788 594.058
558.148 557.94 557.886 557.718 557.736 557.728 557.602 557.585 557.42 557.355 557.338 557.311 557.234 557.217 556.946 556.688 556.56 556.518 556.468 556.424 556.363 556.307 556.183 556.117 556.083 556.03 556.04 555.916 555.823 555.79 555.675 555.752 555.547 555.447 555.465 555.204 555.211 555.015 555.029 554.975 554.974 554.812 554.657 554.483 554.314 554.274 554.249 554.168 554.062 553.953 553.927 553.704 553.57 553.642 553.496 553.557 553.651 553.587 553.635 553.873 553.888 553.968 554.09 554.007 554.008 553.826 553.821 553.615 553.673 554.246 554.81 554.908 555.036 554.945 555.207 555.243 555.542 555.541 555.567 555.766 555.782 555.877 555.839 555.872 555.942 556.017 556.143 556.096 556.149 556.26 556.266 556.401 556.496 556.544 556.689 556.835 557.175 557.393 557.582 557.768 557.872 558.047 558.005 558.068 557.998 557.964 557.889 558.003 558.166 558.018 558.225 558.405 558.537 558.638 558.81 558.981 559.108 559.165 559.365 559.632 559.642 559.819 560.268 560.534 560.658 560.851 560.948 561.285 561.305 561.455 561.597 561.624 561.777 562.068 562.18 562.301 562.202 562.304 562.399 562.725 563.058 563.719 564.176 564.471 564.946 565.372 565.623 565.705 566.15 566.412 566.494 566.617 566.72 566.759 566.817 566.896 566.991 567.046 567.086 567.086 567.121 567.09 567.181 567.118 567.287 567.401 567.55 567.682 567.815 567.878 567.895 568.275 568.271 568.602 568.844 568.937 569.2 569.242 569.172 569.337 569.68 569.876 570.198 570.676 571.064 571.452 571.772 572.04 572.237 572.273 572.344 572.461 572.461 572.434 572.609 572.681 572.851 572.942 573.241 573.859 574.489 575.029 575.291 575.471 575.775 576.1 576.387 576.459 576.404 576.424 576.55 576.726 576.996 576.952 576.369 575.785 575.511 575.234 574.638 574.732 575.015 575.39 575.683 575.79 576.103 576.186 576.325 576.49 576.553 576.46 576.322 576.314 576.381 576.326 576.448 576.395 576.338 576.524 576.613 576.821 577 576.978 576.979 576.993 576.911 576.949 577.096 576.998 577.015 577.257 577.291 577.457 577.867 578.253 578.657 579.079 579.822 579.924 580.094 580.524 580.831 581.057 581.372 581.666 582.277 582.84 583.307 583.849 584.455 584.874 585.244 585.558 586.017 586.269 586.406 586.513 586.713 586.863 586.988 587.163 587.385 587.631 587.898 588.048 588.33 588.519 588.527 588.757 588.724 588.744 588.675 588.774 588.799 588.758 588.716 588.807 588.773 588.834 589.143 589.018 589.086 589.158 589.299 589.261 589.348 589.471 589.453 589.565 589.619 589.669 589.861 589.775 589.687 589.633 589.63 589.627 589.644 589.635 589.606 589.644 589.691 589.682 589.806 590.054 590.182 590.29 590.395 590.416 590.126 590.505 590.501 590.622 590.739 590.86 590.968 590.927 591.072 591.089 591.071 591.138 591.121 591.16 591.171 591.16 591.121 590.939 590.862 590.833 590.552 590.087 589.698 589.975 590.207 590.415 591.007 591.245 591.403 591.47 591.495 591.544 591.632 591.878 591.959 591.961 592.006 592.16 592.263 592.307 592.312 592.13 592.16 592.176 592.508 592.655 592.909 593.253 593.853 594.053
558.039 557.875 557.812 557.826 557.538 557.479 557.444 557.315 557.222 557.208 557.275 557.179 557.204 557.033 556.603 556.537 556.429 556.468 556.358 556.425 556.344 556.239 556.091 555.925 555.971 555.962 555.968 555.869 555.776 555.754 555.616 555.602 555.651 555.439 555.425 555.234 555.133 554.975 554.992 554.97 555.131 555.007 554.637 554.503 554.261 554.13 554.203 554.089 553.981 553.923 553.693 553.55 553.497 553.748 553.282 553.432 553.404 553.471 553.539 553.42 553.443 553.667 553.729 553.701 553.544 553.337 553.315 553.456 553.665 553.916 554.452 554.4 554.819 554.928 555.021 555.085 555.253 555.393 555.47 555.572 555.61 555.589 555.592 555.734 555.701 555.758 555.934 555.955 555.98 556.157 556.125 556.238 556.312 556.432 556.585 556.831 556.982 557.122 557.324 557.624 557.791 557.84 557.884 557.913 557.813 557.737 557.753 557.797 557.88 558.066 558.198 558.231 558.315 558.449 558.741 558.817 558.949 558.922 559.051 559.235 559.426 559.766 560.057 560.321 560.53 560.544 560.837 560.883 561.178 561.144 561.236 561.298 561.484 561.711 561.904 561.963 561.919 561.928 561.876 562.249 562.783 562.944 563.393 563.949 564.456 564.519 564.876 565.184 565.55 565.736 565.964 566.146 566.343 566.259 566.279 566.49 566.575 566.689 566.648 566.601 566.546 566.612 566.571 566.676 566.888 566.822 567.03 567.201 567.365 567.489 567.588 567.644 567.964 567.973 568.229 568.404 568.616 568.765 568.915 569.051 569.374 569.479 569.877 570.327 570.672 571.097 571.541 571.661 571.743 571.852 572.073 572.106 572.13 572.204 572.363 572.424 572.457 572.69 573.08 573.621 574.065 574.55 574.959 575.38 575.792 576.05 576.15 576.216 576.192 576.404 576.58 576.901 576.879 576.797 576.003 575.519 575.24 574.933 574.612 574.586 574.652 575.188 575.41 575.483 575.682 575.911 576.104 576.077 576.27 576.333 576.299 576.313 576.284 576.186 576.143 576.163 576.307 576.297 576.516 576.808 576.869 576.962 576.925 576.911 576.756 576.869 576.862 576.951 577.009 577.062 577.379 577.529 577.908 578.231 578.519 578.99 579.361 579.962 580.289 580.371 580.761 581.084 581.34 581.557 582.079 582.716 583.303 584.132 584.446 584.91 585.238 585.515 585.864 586.126 586.431 586.634 586.856 586.973 587.002 587.111 587.406 587.904 588.065 588.31 588.405 588.441 588.608 588.67 588.728 588.724 588.758 588.895 588.858 588.842 588.856 588.788 588.81 588.905 588.967 588.98 589.015 589.176 589.231 589.247 589.22 589.316 589.441 589.748 589.641 589.577 589.618 589.773 589.662 589.634 589.659 589.557 589.554 589.564 589.591 589.645 589.673 589.873 589.989 590.225 590.28 590.193 590.19 590.405 590.285 590.356 590.418 590.55 590.627 590.623 590.472 590.929 591.035 591.068 590.891 590.937 591.013 591.051 591.046 591.054 590.97 590.842 590.677 590.304 589.609 589.37 589.3 589.472 590.041 590.695 591.082 591.378 591.445 591.459 591.591 591.574 591.72 591.868 591.881 591.955 592.033 592.121 592.237 592.387 592.435 592.353 592.3 592.285 592.548 592.71 592.899 593.404 593.826 594.091
557.836 557.838 557.719 557.659 557.518 557.452 557.415 557.402 557.17 557.016 557.109 556.994 556.916 556.572 556.606 556.519 556.481 556.387 556.367 556.378 556.283 556.239 556.023 555.988 555.966 555.924 555.872 555.714 555.689 555.668 555.482 555.452 555.316 555.317 555.276 555.005 554.88 555.027 554.9 554.872 555.725 554.688 554.148 554.071 553.976 553.906 553.96 553.918 553.774 553.723 553.577 553.303 553.152 553.286 553.262 553.325 553.352 553.357 553.384 553.423 553.451 553.469 553.43 553.462 553.417 553.291 553.261 553.304 553.131 553.52 554.148 554.628 554.823 554.88 555.048 555.101 555.135 555.188 555.314 555.38 555.44 555.395 555.508 555.52 555.646 555.625 555.758 555.884 555.926 556.068 556.021 556.034 556.252 556.343 556.562 556.667 556.831 557.053 557.232 557.374 557.463 557.494 557.359 557.577 557.589 557.474 557.499 557.524 557.776 558.004 557.995 558.14 558.284 558.424 558.56 558.607 558.747 558.732 558.841 558.985 559.275 559.579 559.836 560.081 560.205 560.427 560.449 560.606 560.799 560.916 561.198 561.259 561.263 561.445 561.558 561.654 561.521 561.529 561.754 562.132 562.305 562.508 562.789 563.398 563.585 563.753 564.154 564.396 564.703 565.054 565.499 565.583 565.674 565.786 565.848 566.057 566.082 565.995 566.123 566.177 566.052 566.036 566.097 566.185 566.138 566.439 566.604 566.683 566.797 566.842 567.071 567.295 567.345 567.573 567.938 568.073 568.057 568.29 568.59 568.761 568.961 569.177 569.47 569.948 570.178 570.855 571.26 571.253 571.405 571.391 571.649 571.776 571.943 572.024 572.205 572.341 572.339 572.487 573.165 573.502 573.826 574.456 574.848 575.205 575.392 575.75 575.839 575.853 575.987 576.136 576.611 576.896 576.605 576.101 575.756 575.426 574.785 574.568 574.63 573.957 574.641 574.921 575.225 575.504 575.62 575.718 575.88 576.06 576.271 576.19 576.199 576.102 576.121 576.017 575.976 575.955 575.962 576.163 576.403 576.624 576.722 576.765 576.857 576.723 576.787 576.865 576.857 576.912 576.983 577.089 577.325 577.586 577.844 578.175 578.582 578.961 579.284 579.594 579.95 580.324 580.588 580.998 581.184 581.447 582.092 582.543 583.003 583.882 584.512 584.92 585.319 585.524 585.734 586.102 586.47 586.757 586.897 586.957 587.006 587.214 587.459 587.77 587.98 588.18 588.392 588.483 588.605 588.639 588.721 588.73 588.85 588.918 588.945 588.912 588.802 588.673 588.809 588.995 588.984 589.084 589.09 589.155 589.135 589.233 589.227 589.231 589.299 589.421 589.531 589.533 589.599 589.588 589.633 589.581 589.58 589.545 589.608 589.496 589.511 589.701 589.886 590.031 590.053 590.15 590.226 590.136 590.205 590.173 590.268 590.284 590.355 590.473 590.46 590.257 590.652 590.802 590.883 590.885 590.866 590.876 590.942 590.96 591.054 590.861 590.895 590.797 590.553 589.705 588.888 588.239 588.469 589.401 590.128 590.663 591.219 591.344 591.41 591.484 591.473 591.617 591.778 591.812 591.847 591.934 592.088 592.279 592.417 592.497 592.482 592.447 592.309 592.492 592.794 592.667 592.729 593.236 593.446 593.886
557.91 557.864 557.745 557.667 557.53 557.384 557.3 557.275 557.192 557.07 556.984 556.801 556.769 556.619 556.483 556.436 556.333 556.393 556.303 556.267 556.188 556.087 555.824 555.879 555.785 555.698 555.766 555.644 555.555 555.522 555.499 555.342 555.282 555.156 555.009 554.916 554.93 555.057 555.097 554.766 554.481 554.318 554.155 554.035 554.011 553.817 553.876 553.832 553.742 553.531 553.508 553.414 553.094 553.154 553.271 553.331 553.211 553.2 553.24 553.401 553.36 553.265 552.894 553.006 553.331 553.08 553.275 553.333 553.202 552.991 553.677 554.242 554.434 554.646 554.706 554.675 554.849 554.895 554.989 555.146 555.197 555.194 555.133 555.246 555.337 555.351 555.527 555.729 555.744 555.783 555.983 555.983 556.13 556.232 556.353 556.511 556.657 556.814 556.936 557.039 557.222 557.271 557.288 557.343 557.349 557.282 557.315 557.415 557.543 557.754 557.942 558.089 558.28 558.243 558.276 558.38 558.438 558.478 558.731 558.842 559.092 559.325 559.721 559.955 559.936 559.995 560.213 560.402 560.555 560.919 560.975 561.038 561.049 561.18 561.235 561.224 561.248 561.494 561.757 562.031 562.276 562.37 562.557 562.625 562.831 563.208 563.363 563.531 563.778 564.328 564.65 564.709 564.862 565.028 565.234 565.387 565.444 565.49 565.587 565.575 565.559 565.539 565.579 565.583 565.663 565.81 565.967 566.122 566.284 566.349 566.413 566.709 566.945 567.333 567.606 567.594 567.719 567.959 568.216 568.462 568.641 568.86 569.169 569.479 569.937 570.351 570.685 570.564 570.655 571.034 571.252 571.412 571.555 571.676 572.021 572.193 572.351 572.464 572.693 572.999 573.331 573.981 574.266 574.507 575.033 575.209 575.347 575.526 575.543 575.733 576.347 576.513 576.157 575.988 575.369 574.967 574.4 574.32 574.285 574.537 574.629 574.781 575.14 575.313 575.462 575.513 575.581 576.079 576.069 576.073 575.94 575.972 575.983 575.777 575.848 575.864 576.044 576.214 576.381 576.542 576.587 576.605 576.65 576.645 576.644 576.687 576.873 576.832 576.891 577.114 577.375 577.64 577.82 578.307 578.429 578.813 579.209 579.48 579.779 580.158 580.568 580.843 581.102 581.43 581.924 582.496 583.298 583.898 584.399 584.951 585.343 585.574 585.824 586.199 586.435 586.794 586.932 586.991 587.034 587.166 587.425 587.745 587.961 588.128 588.486 588.607 588.607 588.749 588.821 588.914 588.946 588.957 588.99 588.995 588.895 588.812 589.008 589.076 589.058 589.233 589.054 588.995 589.057 589.117 589.149 589.156 589.16 589.231 589.374 589.41 589.508 589.669 589.647 589.568 589.591 589.495 589.449 589.433 589.494 589.672 589.831 589.886 590.015 590.068 590.156 590.186 590.066 590.093 590.185 590.254 590.256 589.952 590.377 590.509 590.476 590.691 590.757 590.781 590.7 590.785 590.869 590.897 590.933 590.963 590.891 590.671 590.292 589.678 588.456 587.752 588.782 589.801 590.487 590.88 591.329 591.22 591.262 591.331 591.406 591.398 591.596 591.66 591.799 592.155 592.392 592.55 592.636 592.608 592.649 592.477 592.341 592.515 592.603 592.69 592.778 592.892 593.13 593.556
557.791 557.711 557.519 557.563 557.502 557.286 557.207 557.16 557.079 556.956 556.85 556.81 556.683 556.69 556.526 556.492 556.368 556.417 556.424 556.256 556.2 556.114 556.034 555.856 555.823 555.648 555.61 555.644 555.476 555.583 555.543 555.461 555.199 555.126 555.041 554.953 554.939 554.961 555.651 554.428 554.118 554.068 553.999 553.937 553.835 553.75 553.607 553.584 553.541 553.421 553.369 553.071 552.859 552.967 552.955 553.131 553.018 553.026 553.081 553.232 553.16 553.172 553.208 552.907 553.211 553.155 553.086 553.113 553.111 552.945 553.597 554.028 554.313 554.54 554.533 554.674 554.738 554.784 554.841 554.854 555.067 555.185 555.014 555.059 555.222 555.284 555.502 555.697 555.719 555.815 555.752 555.975 556.027 556.133 556.25 556.365 556.509 556.629 556.769 557.013 557.016 557.03 557.076 557.195 557.068 557.042 557.073 557.213 557.412 557.438 557.709 557.833 558.007 558.114 558.136 558.273 558.324 558.317 558.549 558.703 558.99 559.374 559.555 559.549 559.695 559.815 560.086 560.144 560.364 560.662 560.716 560.78 560.802 560.95 560.89 560.943 561.093 561.343 561.423 561.765 562.08 562.256 562.309 562.467 562.763 562.912 563.015 563.059 563.203 563.495 563.695 564.014 564.189 564.364 564.614 564.744 564.918 565.028 564.94 565.058 565.148 564.992 565.109 565.189 565.212 565.316 565.29 565.606 565.553 565.544 565.684 566.148 566.548 566.882 566.903 567.083 567.255 567.456 567.655 568.094 568.298 568.52 568.712 569.103 569.43 569.797 570.002 570.163 570.395 570.705 570.833 571.032 571.202 571.356 571.625 571.986 572.168 572.412 572.753 573.02 573.376 573.688 574.046 574.372 574.757 574.952 575.186 575.324 575.413 575.548 576.275 576.284 575.963 575.241 574.851 574.519 574.036 574.094 574.187 574.233 574.471 574.759 574.845 574.977 575.05 575.237 575.367 575.376 575.72 575.804 575.773 575.8 575.809 575.78 575.811 575.864 575.882 575.844 576.066 576.315 576.36 576.431 576.438 576.484 576.542 576.528 576.615 576.725 576.906 576.926 577.275 577.638 577.917 578.073 578.352 578.665 579.023 579.413 579.827 580.076 580.469 580.785 581.047 581.257 581.902 582.528 583.151 583.811 584.544 585.038 585.323 585.588 585.853 586.367 586.586 586.685 586.812 587.029 587.053 587.134 587.218 587.338 587.711 587.94 588.265 588.464 588.612 588.853 588.787 588.956 588.946 588.947 588.974 589.006 588.93 588.836 588.943 589.109 589.115 589.297 589.137 589.008 588.992 589.076 589.145 589.065 589.044 589.025 589.131 589.002 589.206 589.48 589.609 589.489 589.5 589.342 589.342 589.314 589.342 589.407 589.672 589.879 589.868 589.879 590.013 590.048 590.098 589.932 589.932 590.112 589.899 589.978 590.199 590.403 590.426 590.49 590.571 590.617 590.599 590.668 590.809 590.851 590.846 590.862 590.839 590.738 590.592 590.004 588.986 588.799 590.012 590.22 590.56 590.881 591.128 591.146 591.19 591.204 591.191 591.23 591.316 591.534 591.788 592.142 592.42 592.635 592.722 592.766 592.677 592.561 592.605 592.609 592.716 592.707 592.818 592.971 593.138 593.379
557.979 557.832 557.78 557.66 557.593 557.503 557.414 557.242 557.212 557.133 556.946 556.889 556.818 556.646 556.596 556.46 556.461 556.333 556.225 556.16 556.022 555.978 555.909 555.852 555.788 555.554 555.528 555.528 555.375 555.267 555.226 555.107 554.933 554.889 554.827 554.846 555.476 554.587 554.666 554.257 554.163 553.945 553.826 553.755 553.712 553.616 553.565 553.452 553.342 553.261 553.294 553.132 552.969 552.962 553.074 553.014 552.912 552.972 553.177 553.133 553.104 553.201 553.177 553.114 553.16 552.971 552.878 553.314 552.987 552.767 553.678 553.895 554.225 554.292 554.288 554.432 554.487 554.67 554.634 554.765 554.733 554.921 554.695 554.931 555.105 555.262 555.299 555.348 555.473 555.641 555.639 555.669 555.902 555.893 556.05 556.172 556.321 556.467 556.619 556.76 556.864 556.848 556.973 556.97 556.955 556.891 556.886 557.103 557.207 557.363 557.527 557.643 557.81 557.839 557.973 558.163 558.275 558.295 558.387 558.608 558.946 559.184 559.379 559.526 559.603 559.654 559.756 559.81 560.199 560.426 560.524 560.454 560.633 560.678 560.715 560.737 560.739 561.006 561.141 561.354 561.744 561.999 562.021 562.176 562.386 562.492 562.77 562.93 563.103 563.226 563.415 563.593 563.802 563.855 564.011 564.11 564.203 564.334 564.335 564.401 564.557 564.611 564.8 565.017 564.953 565.089 565.088 565.282 565.376 565.369 565.627 565.965 566.216 566.285 566.635 566.84 566.951 567.109 567.309 567.481 567.808 568.096 568.469 568.938 569.223 569.401 569.708 569.897 570.156 570.356 570.701 570.858 570.975 571.357 571.676 571.952 572.162 572.543 572.759 573.003 573.201 573.575 573.738 573.994 574.384 574.623 574.747 574.982 575.015 575.441 575.614 575.566 575.184 574.454 574.148 573.956 573.789 573.796 573.879 574.065 574.203 574.412 574.875 574.74 574.79 574.991 575.189 575.42 575.302 575.516 575.66 575.703 575.814 575.522 575.794 575.75 575.817 575.854 575.897 575.934 576.166 576.294 576.32 576.369 576.445 576.504 576.581 576.722 576.964 576.989 577.26 577.647 577.834 577.889 578.283 578.542 578.912 579.161 579.633 579.996 580.244 580.559 581.015 581.51 581.986 582.741 583.08 583.618 584.222 584.947 585.348 585.495 585.729 586.006 586.366 586.577 586.497 586.841 586.996 587.102 587.24 587.542 587.863 588.078 588.201 588.321 588.548 588.651 588.754 589.021 588.905 588.917 588.966 588.973 589.019 588.959 588.863 588.872 589.122 589.282 589.174 589.035 589.022 588.985 589.006 589.018 589.048 588.99 588.994 588.946 588.956 589.345 589.353 589.355 589.293 589.299 589.336 589.324 589.329 589.418 589.653 589.829 589.738 589.679 589.657 589.822 589.674 589.677 589.723 589.857 589.987 590.021 590.2 590.249 590.291 590.432 590.476 590.557 590.655 590.71 590.817 590.897 590.881 590.913 590.902 590.745 590.596 590.399 590.152 590.108 590.348 590.582 590.858 591.059 591.026 591.291 591.089 590.891 590.813 591.142 591.291 591.227 591.542 591.987 592.374 592.65 592.812 592.935 592.853 592.753 592.742 592.526 592.667 592.688 592.793 592.956 593.246 593.414
557.933 557.8 557.699 557.619 557.478 557.421 557.352 557.224 557.058 556.966 556.75 556.643 556.69 556.539 556.47 556.428 556.359 556.248 556.221 556.064 555.984 555.977 556.005 555.917 555.732 555.548 555.416 555.311 555.306 555.295 555.247 555.115 555.019 554.907 554.873 554.924 555.046 554.59 554.307 554.415 554.127 553.97 553.854 553.773 553.768 553.638 553.486 553.441 553.366 553.338 553.169 553.044 552.923 552.76 552.866 552.861 552.807 552.826 552.792 552.95 552.951 553.014 552.913 553.12 553.01 552.93 552.996 552.876 552.993 552.996 553.486 553.754 554.009 554.004 554.134 554.18 554.261 554.378 554.439 554.448 554.477 554.481 554.682 554.825 555.001 555.088 555.331 555.223 555.363 555.521 555.479 555.651 555.799 555.741 555.93 556.028 556.161 556.432 556.517 556.578 556.701 556.789 556.831 556.84 556.656 556.67 556.736 556.833 557.07 557.314 557.292 557.477 557.493 557.631 557.723 557.915 558.125 558.195 558.344 558.662 558.872 558.909 559.071 559.333 559.301 559.465 559.539 559.62 559.852 560.036 560.163 560.33 560.507 560.535 560.519 560.222 560.661 561.096 561.387 561.538 561.675 561.891 562.164 562.36 562.243 562.38 562.628 562.799 562.885 563.036 563.159 563.237 563.396 563.478 563.609 563.802 563.892 564.027 564.239 564.373 564.464 564.446 564.427 564.628 564.804 564.895 565.009 565.238 565.335 565.488 565.782 565.918 566.142 566.361 566.524 566.657 566.824 567.128 567.292 567.309 567.367 567.644 568.002 568.464 568.772 569.179 569.485 569.639 569.781 570.13 570.543 570.597 570.872 571.062 571.366 571.753 572.169 572.274 572.513 572.811 573.077 573.331 573.396 573.602 573.573 574.065 574.303 574.426 574.498 574.708 574.99 574.881 574.549 574.392 574.056 573.511 573.644 573.067 573.699 573.933 574.07 574.27 574.509 574.734 574.76 574.8 574.949 574.984 575.021 575.28 575.299 575.281 575.511 575.47 575.665 575.729 575.78 575.753 575.801 575.873 575.954 576.136 576.346 576.223 576.236 576.363 576.504 576.793 576.889 577.135 577.234 577.247 577.56 577.761 577.934 578.319 578.747 578.985 579.429 579.808 580.141 580.577 581.101 581.442 581.966 582.503 583.018 583.579 584.16 584.644 585.095 585.428 585.723 585.875 586.111 586.329 586.332 586.687 586.951 587.138 587.259 587.523 587.804 587.949 588.036 588.29 588.268 588.566 588.692 588.81 588.877 588.795 588.84 588.894 588.855 588.696 588.75 588.748 589.04 589.261 589.102 589.088 589.034 588.93 588.981 588.997 588.982 588.988 588.981 589.013 589.097 589.341 589.277 589.173 589.151 589.24 589.224 589.288 589.35 589.405 589.518 589.593 589.39 589.533 589.389 589.556 589.422 589.591 589.602 589.777 589.925 589.927 590.094 590.204 590.2 590.273 590.309 590.411 590.474 590.611 590.709 590.724 590.821 590.86 590.9 590.762 590.663 590.631 590.607 590.643 590.581 590.821 590.949 591.076 591.236 591.374 591.014 590.303 590.266 590.798 591.035 591.23 591.405 592.07 592.417 592.79 592.849 593.176 592.936 592.952 592.69 592.377 592.473 592.657 592.847 593.096 593.358 593.507
557.921 557.836 557.616 557.446 557.446 557.322 557.352 557.171 557.216 557.066 556.969 556.895 556.754 556.674 556.595 556.573 556.503 556.33 556.226 556.072 555.952 555.927 555.881 555.899 555.744 555.528 555.282 555.332 555.186 555.232 555.179 555.081 554.919 554.714 555.466 555.034 554.422 554.338 554.205 554.061 554.089 553.722 553.738 553.714 553.458 553.426 553.371 553.298 553.228 553.109 553.054 552.901 552.561 552.479 552.651 552.654 552.824 552.793 552.779 552.97 552.995 552.901 553.019 553.092 553.109 552.871 552.918 552.975 552.964 553.27 553.582 553.764 553.891 554.189 554.009 554.183 554.086 554.319 554.331 554.366 554.325 554.498 554.616 554.881 554.876 554.972 555.056 555.205 555.218 555.214 555.337 555.397 555.443 555.716 555.741 555.809 555.985 556.166 556.252 556.339 556.436 556.524 556.558 556.589 556.556 556.491 556.585 556.701 556.967 557.077 557.122 557.158 557.231 557.354 557.729 557.848 557.987 558.047 558.134 558.502 558.648 558.745 558.713 558.891 559.031 559.152 559.343 559.401 559.736 559.955 559.92 560.215 560.207 560.238 560.283 560.328 560.708 560.862 561.117 561.344 561.475 561.707 561.674 561.781 561.949 562.121 562.452 562.695 562.846 562.952 563.084 563.221 563.368 563.471 563.537 563.63 563.782 563.929 564.117 564.244 564.322 564.395 564.468 564.519 564.684 564.836 564.968 565.083 565.166 565.452 565.6 565.767 565.807 566.079 566.327 566.438 566.655 566.935 567.049 567.042 567.208 567.384 567.676 568.152 568.487 569.016 569.225 569.357 569.572 569.935 570.053 570.156 570.459 570.809 571.232 571.53 571.793 572.07 572.399 572.644 572.879 573.177 573.463 573.271 573.369 573.913 574.16 574.154 574.358 574.692 574.509 574.026 573.972 573.636 573.226 573.154 573.202 572.794 573.448 573.723 573.824 574.022 574.25 574.42 574.449 574.675 574.781 574.69 574.7 574.928 575.035 575.056 575.225 575.098 575.643 575.747 575.796 575.759 575.746 575.827 575.899 575.868 576.094 576.116 576.157 576.264 576.411 576.286 576.751 576.911 577.053 577.102 577.439 577.521 577.96 578.17 578.606 578.854 579.366 579.641 580.068 580.466 580.858 581.461 581.916 582.448 583.172 583.638 583.941 584.14 584.821 585.186 585.492 585.96 586.113 586.319 586.235 586.521 586.511 586.899 587.132 587.499 587.797 587.935 587.985 588.092 588.236 588.407 588.589 588.59 588.489 588.604 588.704 588.735 588.715 588.755 588.736 588.841 589.056 589.304 589.184 588.95 588.859 588.566 588.723 588.771 588.871 588.934 588.922 588.949 589.019 589.261 589.189 589.151 589.119 589.107 589.18 589.341 589.463 589.499 589.395 589.363 589.341 589.314 589.352 589.337 589.134 589.481 589.719 589.874 590.006 589.942 589.974 590.029 590.092 590.117 589.987 590.037 590.191 590.438 590.604 590.749 590.771 590.803 590.78 590.728 590.614 590.668 590.797 590.574 590.699 590.825 591.002 591.092 591.296 591.365 591.232 590.834 590.793 590.982 591.213 591.208 591.489 591.893 592.501 592.965 593.401 593.302 593.133 593.145 592.636 592.408 592.369 592.652 592.864 593.32 593.868 593.866
558.056 557.798 557.67 557.323 557.32 557.196 557.258 557.124 557.021 556.973 556.833 556.706 556.701 556.549 556.479 556.395 556.289 556.202 555.986 555.73 555.724 555.731 555.77 555.709 555.465 555.391 555.361 555.162 555.069 554.89 555.105 554.99 554.972 554.716 555.181 554.47 554.398 554.272 554.089 554.02 554.027 553.938 553.782 553.758 553.737 553.617 553.528 553.286 553.281 553.087 553.026 553.163 552.6 552.58 552.398 552.382 552.654 552.853 552.834 552.73 552.815 552.969 552.846 552.869 552.884 552.795 552.837 552.662 553.267 553.32 553.475 553.514 553.569 553.769 553.705 553.811 553.909 553.972 553.959 554.093 554.199 554.394 554.534 554.711 554.731 554.832 554.845 555.044 555.092 555.217 555.262 555.241 555.341 555.461 555.545 555.598 555.739 556.034 556.155 556.202 556.267 556.345 556.351 556.421 556.412 556.383 556.458 556.517 556.716 556.775 556.911 556.896 556.98 557.114 557.438 557.688 557.809 557.978 558.135 558.419 558.631 558.745 558.807 558.824 558.91 559.01 559.226 559.385 559.59 559.758 559.79 559.922 559.869 560.065 560.149 560.382 560.605 560.836 560.947 561.166 561.277 561.404 561.451 561.596 561.89 562.096 562.266 562.518 562.752 562.797 562.989 563.142 563.208 563.32 563.419 563.529 563.614 563.817 563.99 564.175 564.243 564.306 564.321 564.489 564.585 564.65 564.751 564.937 565.059 565.135 565.347 565.572 565.66 565.813 566.186 566.186 566.445 566.757 566.866 566.942 567.135 567.339 567.575 567.901 568.265 568.596 569.034 569.201 569.346 569.537 569.854 570.048 570.402 570.682 570.946 571.191 571.535 571.849 572.197 572.567 573.005 573.015 572.763 572.866 573.106 573.273 573.47 573.589 573.746 573.692 573.694 573.696 573.567 573.114 572.835 572.935 572.808 572.6 573.353 573.515 573.839 574.096 574.257 574.298 574.609 574.607 574.687 574.558 574.692 574.837 574.778 574.843 575.086 575.078 575.392 575.463 575.584 575.712 575.696 575.689 575.741 575.841 575.83 575.896 576.078 576.119 576.365 576.55 576.828 576.929 577.085 577.215 577.455 577.548 577.927 577.968 578.389 578.618 579.071 579.588 579.998 580.586 580.731 581.357 582.074 582.465 583.029 583.57 583.922 584.307 584.74 585.047 585.497 585.814 585.914 586.082 586.182 586.456 586.133 586.564 587.164 587.407 587.649 587.82 588.096 588.03 588.124 588.144 588.35 588.286 588.326 588.486 588.452 588.41 588.504 588.71 588.758 588.903 589.001 589.109 588.868 588.644 588.492 588.142 588.223 588.632 588.782 588.931 588.918 588.85 588.978 589.054 589.082 589.09 589.05 589.068 589.166 589.369 589.493 589.44 589.391 589.274 589.294 589.222 589.175 589.13 589.419 589.479 589.554 589.897 590.047 590.02 589.849 589.94 589.971 589.925 589.365 589.533 589.881 590.386 590.575 590.642 590.698 590.747 590.767 590.734 590.674 590.733 590.637 590.691 590.793 590.816 591.123 591.28 591.409 591.422 591.292 591.203 591.156 591.15 591.303 591.473 591.95 592.428 592.768 593.17 593.356 593.263 593.211 593.058 592.736 592.644 592.76 593.006 593.469 593.757 593.888 594.052
557.998 557.764 557.61 557.412 557.146 557.166 557.197 557.109 557.031 556.976 556.88 556.766 556.669 556.563 556.467 556.418 556.375 556.085 555.883 555.913 555.752 555.743 555.896 555.865 555.662 555.599 555.454 555.403 555.286 555.088 554.896 554.835 555.067 556.177 554.211 554.154 554.102 554.158 554.041 553.904 553.992 553.755 553.734 553.598 553.481 553.448 553.274 552.983 552.821 552.802 552.748 552.622 552.553 552.214 551.885 551.981 552.449 552.364 552.512 552.584 552.597 552.738 552.779 552.766 552.652 552.697 552.849 552.893 553.195 553.327 553.366 553.524 553.535 553.549 553.794 553.76 554.016 554.006 553.934 554.063 554.144 554.341 554.465 554.665 554.604 554.758 554.852 554.914 555.024 555.033 555.049 555.086 555.294 555.327 555.379 555.564 555.669 555.736 555.891 555.933 556.15 556.032 556.044 556.086 556.041 556.156 556.251 556.244 556.254 556.386 556.674 556.768 556.946 557.066 557.477 557.651 557.821 557.92 558.181 558.33 558.524 558.767 558.783 558.816 558.85 559.02 559.216 559.251 559.367 559.435 559.483 559.64 559.856 559.897 560.117 560.32 560.578 560.69 560.808 561.007 561.194 561.302 561.422 561.476 561.673 561.826 562.107 562.409 562.486 562.606 562.796 562.983 563.056 563.324 563.31 563.372 563.529 563.678 563.868 564.06 564.102 564.229 564.448 564.301 564.361 564.57 564.715 564.756 564.866 564.992 565.161 565.333 565.537 565.679 565.744 565.841 566.112 566.561 566.752 566.858 566.946 567.224 567.49 567.634 568.045 568.541 568.824 569.042 568.97 569.155 569.478 569.57 569.943 570.017 570.432 570.898 571.226 571.444 571.908 572.394 572.728 572.559 572.418 572.482 572.575 572.902 573.105 573.306 573.454 573.614 573.408 573.4 573.073 572.697 572.59 572.786 572.44 573.024 573.212 573.473 573.761 573.949 574.069 574.213 574.21 574.095 574.307 574.387 574.53 574.644 574.657 574.667 574.85 574.786 574.988 575.163 575.218 575.458 575.582 575.549 575.678 575.815 575.549 575.897 576.143 576.241 576.32 576.598 576.734 576.974 577.039 577.16 577.313 577.556 577.743 577.89 578.242 578.556 579.036 579.421 579.939 580.48 580.915 581.395 582.152 582.606 582.953 583.552 583.796 584.389 584.782 584.949 585.582 585.841 585.801 585.837 586.015 586.468 586.69 586.889 587.103 587.301 587.421 587.477 587.708 587.935 587.869 587.901 588.184 588.139 588.258 588.238 588.287 588.441 588.484 588.648 588.762 588.815 588.875 588.844 588.69 588.441 588.039 587.874 588.061 588.463 588.616 588.731 588.707 588.78 588.817 588.922 589.058 589.008 589.038 589.045 588.964 589.049 589.094 589.195 589.159 589.093 589.178 589.057 589.328 589.325 589.401 589.465 589.394 589.819 589.96 590.059 589.941 589.9 589.964 589.723 589.234 589.529 590.046 590.472 590.575 590.681 590.703 590.793 590.798 590.811 590.786 590.783 590.603 590.695 590.767 591.023 591.199 591.348 591.483 591.415 591.308 591.269 591.284 591.371 591.533 591.776 592.046 592.464 592.983 593.159 593.242 593.219 593.261 592.938 592.748 592.846 593.321 593.685 593.735 593.917 593.913 594.289
557.994 557.869 557.885 557.721 557.448 557.522 557.309 557.205 557.053 556.973 556.897 556.712 556.675 556.506 556.463 556.288 556.23 555.962 555.809 555.728 555.634 555.662 555.65 555.74 555.498 555.411 555.314 555.199 555.075 554.955 554.826 555.697 554.561 554.14 553.807 553.805 553.915 553.998 554.035 553.823 553.733 553.754 553.507 553.557 553.515 553.351 552.951 552.861 552.771 552.897 552.844 552.672 552.603 552.231 551.835 551.82 552.351 552.579 552.568 552.561 552.542 552.668 552.708 552.544 552.584 552.733 552.932 553.124 553.144 553.241 553.264 553.348 553.397 553.507 553.533 553.607 553.678 553.62 553.731 553.906 554.037 554.077 554.14 554.373 554.386 554.523 554.649 554.755 554.747 554.718 554.864 554.859 555.068 555.076 555.138 555.304 555.34 555.291 555.457 555.586 555.677 555.724 555.786 555.744 555.9 556.12 556.168 556.212 556.278 556.339 556.497 556.614 556.718 556.841 557.216 557.502 557.745 557.869 557.995 558.137 558.312 558.588 558.707 558.719 558.762 558.852 558.949 559.038 559.166 559.139 559.433 559.484 559.465 559.905 560.029 560.255 560.426 560.617 560.716 560.868 560.987 561.164 561.292 561.417 561.531 561.709 561.948 562.189 562.238 562.441 562.759 562.753 562.866 562.964 563.199 563.219 563.342 563.544 563.705 563.774 563.835 564.036 564.109 564.119 564.163 564.39 564.482 564.54 564.656 564.777 564.978 565.255 565.472 565.536 565.606 565.667 566.03 566.354 566.514 566.587 566.853 567.027 567.137 567.378 567.872 568.092 568.433 568.7 568.92 569.13 569.26 569.311 569.338 569.692 570.099 570.493 570.79 571.308 571.613 572.415 572.38 572.15 572.126 572.284 572.504 572.859 572.917 572.922 573.066 573.055 572.85 572.622 572.474 572.201 572.228 572.328 572.44 572.687 572.968 573.087 573.485 573.762 573.945 574.064 574.043 574.102 573.996 574.22 574.343 574.49 574.4 574.473 574.571 574.663 574.76 575.005 575.159 575.365 575.36 575.464 575.421 575.72 575.737 575.901 576.048 576.171 576.273 576.439 576.688 576.795 576.962 577.085 577.3 577.512 577.74 577.892 578.239 578.376 578.83 579.562 579.939 580.465 581.088 581.614 582.252 582.8 583.144 583.425 583.893 584.143 584.729 585.052 585.402 585.626 585.702 585.82 586.001 586.202 586.47 586.84 587.038 587.172 587.103 587.189 587.58 587.814 587.836 587.869 588.07 588.28 588.158 588.163 588.211 588.441 588.368 588.545 588.493 588.559 588.592 588.633 588.51 588.403 587.942 587.848 587.704 588.163 588.502 588.614 588.651 588.623 588.756 588.899 589.004 588.994 589.017 589.012 588.91 588.839 588.777 588.652 588.843 588.971 589.046 589.274 589.284 589.274 589.449 589.403 589.393 589.774 589.857 589.898 589.883 589.827 589.926 589.842 589.739 589.712 590.036 590.525 590.622 590.68 590.701 590.752 590.785 590.723 590.746 590.654 590.645 590.662 590.732 591.063 591.262 591.425 591.384 591.331 591.203 591.284 591.237 591.38 591.643 591.826 592.112 592.501 592.91 593.019 593.015 593.07 593.02 592.741 592.613 593.044 593.42 593.617 593.871 594.045 594.125 594.259
557.902 557.748 557.696 557.526 557.534 557.314 557.171 556.983 556.879 556.925 556.738 556.696 556.543 556.39 556.244 556.247 556.101 555.871 555.824 555.51 555.524 555.536 555.632 555.633 555.491 555.344 555.297 555.281 554.932 554.99 554.8 554.881 554.363 554.037 553.833 553.908 553.994 553.901 553.884 553.784 553.595 553.499 553.494 553.294 553.252 553.029 553.096 552.848 552.752 552.615 552.644 552.549 552.564 552.331 550.995 551.104 551.633 552.13 552.234 552.308 552.417 552.519 552.328 552.276 552.369 552.625 552.717 552.89 552.979 552.929 553.195 553.128 553.248 553.343 553.416 553.463 553.544 553.593 553.813 553.939 553.944 554.056 554.195 554.209 554.315 554.474 554.566 554.358 554.751 554.72 554.747 554.726 554.861 554.804 554.969 555.03 555.254 555.244 555.255 555.411 555.502 555.526 555.618 555.669 555.875 556.007 556.081 556.114 556.182 556.242 556.183 556.34 556.613 556.488 556.796 557.26 557.597 557.719 557.88 558.038 558.222 558.374 558.559 558.541 558.753 558.73 558.761 558.859 558.921 558.973 559.372 559.395 559.483 559.714 560.037 560.153 560.296 560.604 560.728 560.82 560.911 561.029 561.24 561.298 561.406 561.591 561.744 561.992 562.161 562.255 562.519 562.558 562.716 562.81 562.942 562.961 563.087 563.204 563.403 563.44 563.616 563.771 563.763 563.972 564.056 564.263 564.332 564.442 564.48 564.689 564.907 565.113 565.247 565.415 565.511 565.696 565.915 566.118 566.303 566.56 566.702 566.867 567.034 567.393 567.743 567.936 568.234 568.678 568.746 568.852 568.825 569.003 569.035 569.451 569.661 570.047 570.382 570.828 571.4 571.564 571.456 571.296 571.587 571.857 572.185 572.332 572.483 572.6 572.636 572.616 572.433 572.143 572.046 571.979 572.01 571.893 572.336 572.469 572.844 573.078 573.333 573.66 573.904 573.991 574.025 573.808 573.794 573.914 574.132 574.282 574.351 574.3 574.389 574.466 574.536 574.781 574.93 575.02 575.062 575.236 575.429 575.667 575.708 575.945 576.013 576.12 576.276 576.481 576.633 576.813 576.951 577.125 577.165 577.357 577.667 577.814 578.102 578.447 578.679 579.233 579.95 580.614 581.37 581.989 582.384 582.953 583.391 583.73 583.975 584.202 584.646 584.924 585.275 585.482 585.563 585.839 586.002 586.164 586.468 586.901 586.963 587.02 587.227 587.343 587.587 587.887 587.914 587.856 587.747 587.768 587.945 588.06 588.146 588.198 588.309 588.388 588.44 588.472 588.598 588.625 588.614 588.447 588.282 588.114 588.178 588.296 588.42 588.581 588.634 588.739 588.752 588.883 588.992 588.957 588.999 589.049 588.863 588.357 588.283 588.067 588.22 588.774 589.118 589.328 589.325 589.508 589.519 589.506 589.615 589.793 589.745 589.812 589.873 589.859 589.831 589.788 589.778 589.859 590.116 590.525 590.614 590.687 590.702 590.711 590.813 590.815 590.84 590.723 590.803 590.858 591.048 591.174 591.278 591.415 591.362 591.306 591.055 590.882 591.095 591.214 591.757 591.937 592.272 592.495 592.683 592.821 592.834 592.837 592.776 592.701 592.807 593.155 593.337 593.639 593.911 594.097 594.234 594.319
557.975 557.871 557.857 557.784 557.576 557.367 557.291 557.138 557.022 556.92 556.771 556.719 556.614 556.553 556.332 556.231 556.067 555.91 555.74 555.673 555.582 555.552 555.491 555.526 555.409 555.155 555.284 554.986 554.812 555.048 555.44 554.306 553.975 553.664 553.433 553.53 553.519 553.673 553.602 553.649 553.427 553.344 553.111 553.059 552.974 552.864 552.838 552.694 552.67 552.487 552.513 552.516 552.374 552.291 551.356 551.182 551.632 552.038 552.306 552.186 552.224 552.312 552.294 552.175 552.473 552.756 552.913 552.947 553.122 553.126 553.091 553.186 553.313 553.333 553.392 553.493 553.464 553.529 553.66 553.642 553.837 553.787 553.898 553.986 554.047 554.259 554.14 554.248 554.409 554.333 554.488 554.516 554.449 554.562 554.582 554.688 554.877 554.901 555.024 555.063 555.195 555.262 555.327 555.502 555.637 555.84 555.9 555.935 556.039 556.027 556.074 556.029 556.055 556.087 556.283 556.935 557.378 557.58 557.697 557.802 557.871 558.057 558.27 558.394 558.478 558.5 558.566 558.68 558.725 558.782 559.03 559.266 559.407 559.624 559.857 560.14 560.186 560.447 560.584 560.718 560.829 560.917 561.017 561.201 561.345 561.433 561.642 561.813 562.044 562.085 562.192 562.405 562.647 562.671 562.718 562.775 562.943 563.021 563.086 563.203 563.377 563.456 563.576 563.745 563.935 563.996 564.24 564.369 564.491 564.555 564.792 564.988 565.08 565.15 565.282 565.36 565.619 566.015 566.146 566.463 566.641 566.727 567.099 567.531 567.71 567.9 568.088 568.262 568.054 568.485 568.668 568.574 568.815 568.878 569.207 569.588 569.787 570.016 570.811 571.138 571.204 571.181 571.28 571.472 571.879 572.147 572.296 572.365 572.235 572.113 572.013 571.815 571.678 571.764 571.74 571.808 572.017 572.378 572.641 572.887 573.103 573.356 573.486 573.626 573.559 573.374 573.356 573.555 573.797 573.96 574.043 573.976 574.128 574.071 574.383 574.318 574.818 574.627 575.112 575.313 575.593 575.501 575.749 575.922 576.06 576.143 576.23 576.208 576.483 576.736 576.823 576.936 577.181 577.339 577.486 577.702 578 578.304 578.71 579.272 579.956 580.561 581.451 582.04 582.385 582.983 583.487 583.876 584.151 584.322 584.58 584.927 585.066 585.305 585.478 585.833 586.032 586.094 586.314 586.522 586.714 586.986 587.239 587.417 587.511 587.65 587.712 587.712 587.657 587.718 587.793 587.994 588.077 588.133 588.223 588.284 588.483 588.516 588.544 588.621 588.646 588.636 588.541 588.398 588.529 588.551 588.645 588.81 588.615 588.715 588.813 588.974 589.005 589.028 588.953 588.872 588.796 588.315 587.676 587.59 587.833 588.402 588.924 589.093 589.318 589.443 589.412 589.574 589.656 589.695 589.76 589.812 589.879 590.026 589.99 589.929 589.73 589.884 590.06 590.616 590.691 590.766 590.77 590.801 590.836 590.839 590.891 590.949 591.057 591.303 591.185 591.183 591.385 591.485 591.487 591.319 590.777 590.836 590.974 591.087 591.447 591.746 592.087 592.317 592.524 592.623 592.74 592.68 592.7 592.546 592.924 593.224 593.457 593.746 593.962 594.211 594.402 594.468
557.919 557.851 557.718 557.691 557.559 557.44 557.26 557.054 556.905 556.814 556.651 556.641 556.621 556.398 556.356 556.212 555.945 555.753 555.604 555.611 555.419 555.394 555.194 555.236 555.172 555.118 554.971 554.746 554.769 554.524 554.415 553.94 553.717 553.628 553.54 553.309 553.619 553.555 553.639 553.596 553.506 553.28 553.219 552.992 552.982 552.803 552.809 552.702 552.617 552.419 552.394 552.392 552.309 552.231 551.235 550.983 551.404 551.948 551.953 552.023 552.057 552.21 551.848 552.027 552.308 552.463 552.619 552.687 552.794 552.832 552.925 553.068 553.162 553.092 553.174 553.237 553.297 553.257 553.406 553.688 553.611 553.688 553.745 553.86 553.875 554.017 554.041 554.213 554.272 554.449 554.341 554.391 554.253 554.076 554.251 554.308 554.447 554.441 554.751 554.891 554.832 555.097 555.221 555.337 555.431 555.62 555.742 555.771 555.822 555.837 555.898 555.874 555.942 555.828 556.028 556.393 557.022 557.418 557.437 557.551 557.707 557.855 557.91 558.059 558.272 558.311 558.388 558.337 558.506 558.487 558.893 559.183 559.423 559.588 559.809 560.053 560.089 560.348 560.483 560.631 560.652 560.774 560.864 561.081 561.223 561.318 561.411 561.675 561.765 562.005 562.125 562.289 562.414 562.583 562.505 562.58 562.677 562.741 562.818 562.898 563.084 563.204 563.332 563.472 563.653 563.649 563.748 563.881 564.029 564.242 564.554 564.823 564.91 564.939 565.002 565.086 565.19 565.327 565.752 566.068 566.385 566.768 567.171 567.389 567.573 567.848 567.765 568.115 568.013 568.122 568.191 568.228 568.451 568.752 569.2 569.265 569.608 570.034 570.574 570.887 570.855 570.854 570.914 571.265 571.339 571.455 571.725 571.561 571.803 571.375 571.379 571.247 571.09 571.091 571.153 571.48 571.731 571.886 572.123 572.43 572.748 573.096 573.234 573.128 573.013 572.996 573.069 573.307 573.757 573.894 573.948 574.028 573.846 572.901 574.229 574.454 574.59 574.83 575.056 575.27 575.224 575.355 575.611 575.846 575.984 576.041 576.065 576.143 576.428 576.68 576.778 576.876 577.059 577.066 577.342 577.64 577.828 578.231 578.692 579.476 579.906 580.878 581.399 582.217 582.579 582.9 583.339 583.534 583.956 584.259 584.437 584.771 584.742 584.964 585.104 585.313 585.678 585.988 586.194 586.443 586.811 587.082 587.143 587.149 587.289 587.347 587.564 587.723 587.762 587.645 587.696 587.906 587.906 587.953 588.207 588.271 588.374 588.336 588.422 588.453 588.599 588.667 588.65 588.639 588.394 588.46 588.628 588.674 588.696 588.736 588.777 588.883 588.97 588.968 588.854 588.769 588.702 587.865 587.256 587.373 587.503 588.224 588.52 588.781 589.055 589.349 589.301 589.489 589.491 589.618 589.67 589.765 590.01 590.178 590.139 590.143 590.095 590.193 590.398 590.615 590.602 590.782 590.935 590.928 590.93 590.956 591.002 591.079 591.072 591.112 591.221 591.201 591.345 591.455 591.46 591.389 590.928 590.936 590.948 591.056 591.349 591.467 592.049 592.206 592.279 592.409 592.547 592.563 592.498 592.478 592.922 593.314 593.634 593.837 594.036 594.34 594.475 594.546
557.941 557.869 557.953 557.842 557.604 557.413 557.359 557.027 556.959 556.739 556.63 556.604 556.431 556.491 556.265 556.07 555.906 555.622 555.526 555.492 555.508 555.323 555.054 555.263 555.129 554.897 554.965 555.211 554.51 554.394 553.954 553.778 553.604 553.607 553.433 553.266 553.413 553.445 553.397 553.342 553.218 553.075 552.992 552.763 552.615 552.543 552.482 552.39 552.414 552.262 552.203 552.17 551.841 551.231 550.327 550.506 550.96 551.943 551.711 551.939 551.94 551.796 551.641 552.069 552.324 552.451 552.703 552.673 552.711 552.844 552.965 552.979 553.097 553.477 553.085 553.338 553.385 553.446 553.773 553.731 553.674 553.573 553.801 553.854 553.833 553.959 553.967 554.07 554.135 554.104 553.952 554.008 553.851 553.236 553.046 553.2 553.781 554.226 554.321 554.562 554.676 554.848 555.049 555.223 555.232 555.34 555.418 555.427 555.556 555.692 555.706 555.817 555.819 555.8 555.853 556.217 556.73 557.005 557.312 557.434 557.544 557.598 557.639 557.753 558.003 557.961 558.021 558.162 558.311 558.542 558.922 559.169 559.242 559.385 559.625 559.949 560.006 560.096 560.312 560.527 560.57 560.733 560.845 560.972 561.085 561.265 561.398 561.556 561.663 561.791 561.883 561.978 562.214 562.246 562.225 562.314 562.394 562.581 562.692 562.748 562.791 562.943 563.168 563.324 563.348 563.598 563.785 563.826 564.036 564.21 564.472 564.604 564.979 565.031 564.939 565.173 565.23 565.419 565.888 566.194 566.582 566.887 567.186 567.295 567.364 567.712 567.778 567.754 567.756 567.853 567.813 567.88 568.075 568.33 568.4 568.725 568.919 569.497 569.674 569.899 570.087 570.361 570.438 570.697 570.888 571.023 571.142 571.166 571.169 571.069 570.939 570.952 570.745 570.586 571.125 571.269 571.501 571.552 571.893 572.315 572.427 572.683 572.736 572.696 572.506 572.577 572.754 572.938 573.333 573.584 573.78 573.769 573.641 573.42 574.091 574.38 574.566 574.704 574.883 575.089 575.093 575.363 575.459 575.477 575.918 575.92 575.959 576.133 576.282 576.426 576.574 576.679 576.662 576.614 576.88 577.259 577.649 578.14 578.828 579.517 580.056 580.767 581.679 582.127 582.462 582.777 583.195 583.446 583.795 584.089 584.286 584.494 584.647 584.835 585.016 585.107 585.348 585.711 586.173 586.491 586.8 586.96 586.965 587.001 586.949 586.978 587.151 587.541 587.763 587.603 587.628 587.739 587.83 587.91 588.02 588.099 588.193 588.261 588.352 588.384 588.503 588.699 588.661 588.539 588.404 588.461 588.513 588.513 588.444 588.705 588.845 588.868 588.875 588.843 588.849 588.763 588.675 588.118 587.355 586.354 587.478 588.021 588.296 588.658 588.974 589.198 589.26 589.359 589.487 589.615 589.737 589.815 590.167 590.193 590.341 590.407 590.412 590.471 590.507 590.572 590.603 590.766 590.931 591.017 591.032 591.068 591.089 591.026 591.043 591.055 591.171 591.234 591.395 591.498 591.459 591.335 590.955 590.966 590.982 591.174 591.382 591.624 591.942 592.077 592.132 592.279 592.53 592.474 592.399 592.581 592.8 593.339 593.625 593.865 594.157 594.358 594.548 594.657
557.916 557.834 557.83 557.703 557.524 557.376 557.2 557.019 556.801 556.684 556.532 556.412 556.395 556.255 556.137 555.905 555.815 555.59 555.444 555.385 555.172 554.969 554.569 555.037 554.745 554.722 554.718 554.524 554.295 554.191 554.088 553.79 553.514 553.455 553.4 553.341 553.431 553.411 553.331 553.199 553.138 552.981 552.939 552.573 552.551 552.353 552.304 552.374 552.291 552.178 552.278 552.058 551.717 551.647 550.884 550.566 550.638 551.811 551.756 551.344 551.219 551.263 551.297 552.077 551.977 552.256 552.29 552.443 552.606 552.618 552.804 552.77 552.886 552.955 553.025 553.175 553.204 553.33 553.423 553.377 553.378 553.466 553.582 553.669 553.748 553.68 553.703 553.815 553.695 553.719 553.682 553.619 553.488 552.839 551.971 552.897 553.934 554.372 554.235 554.226 554.31 554.569 554.751 554.873 555.042 555.113 555.195 555.14 555.274 555.435 555.594 555.659 555.756 555.822 555.674 555.995 556.354 556.756 557.043 557.215 557.385 557.489 557.458 557.553 557.667 557.677 557.84 557.976 558.16 558.414 558.576 558.77 559.001 559.221 559.504 559.761 559.805 559.989 560.231 560.279 560.468 560.524 560.774 560.799 561.045 561.154 561.264 561.355 561.458 561.605 561.647 561.626 561.886 561.928 562.113 562.127 562.171 562.28 562.366 562.504 562.598 562.685 562.907 562.999 563.099 563.228 563.378 563.491 563.773 563.93 564.111 564.306 564.405 564.549 564.705 564.898 565.214 565.366 565.851 566.178 566.605 566.785 567.014 567.168 567.321 567.376 567.441 567.526 567.509 567.575 567.681 567.746 567.846 568.07 568.239 568.451 568.906 569.053 569.303 569.53 569.9 569.929 570.244 570.508 570.485 570.671 570.727 570.616 570.747 570.741 570.441 570.35 570.193 570.204 570.417 570.912 571.007 571.34 571.536 571.624 571.801 572.111 572.207 572.291 572.162 572.083 572.171 572.607 573.101 573.278 573.316 573.298 572.316 572.655 573.907 574.095 574.442 574.496 574.844 574.739 574.984 575.047 575.422 575.384 575.427 575.721 575.852 576.038 576.115 576.392 576.534 576.442 576.41 576.224 576.712 577.186 577.737 578.104 578.799 579.502 580.12 580.949 581.351 582.073 582.425 582.687 583.072 583.327 583.647 583.918 584.072 584.287 584.39 584.635 584.903 585.132 585.248 585.569 585.608 586.198 586.555 586.791 586.854 586.623 586.202 586.801 587.067 587.419 587.383 587.458 587.483 587.659 587.793 587.819 587.901 587.987 588.065 588.184 588.375 588.49 588.47 588.575 588.59 588.542 588.343 588.394 588.391 588.276 588.343 588.491 588.8 588.783 588.782 588.783 588.726 588.747 588.602 588.276 587.582 587.475 587.684 587.733 587.827 588.467 588.936 589.039 589.14 589.322 589.482 589.572 589.782 589.755 590.003 590.25 590.298 590.379 590.437 590.453 590.481 590.603 590.641 590.701 590.93 591.062 591.052 591.004 590.956 590.942 591 591.025 591.106 591.181 591.303 591.43 591.368 590.98 590.869 591.154 591.236 591.301 591.291 591.493 591.829 591.852 591.976 592.172 592.397 592.396 592.297 592.505 593.019 593.346 593.603 593.925 594.196 594.458 594.545 594.701
557.819 557.664 557.668 557.73 557.474 557.411 557.146 557.058 556.644 556.662 556.518 556.395 556.377 556.287 556.104 555.921 555.764 555.172 555.09 554.989 555.033 554.511 554.489 554.719 554.627 555.2 554.352 554.246 554.225 554.163 554.047 553.883 553.653 553.69 553.609 553.613 553.556 553.401 553.388 553.125 552.904 552.779 552.517 552.414 552.328 552.177 552.179 552.071 552.023 551.974 551.847 551.776 551.55 551.201 550.731 549.849 550.467 551.316 551.38 551.128 550.702 550.781 551.109 551.49 551.71 551.895 552.085 552.395 552.366 552.481 552.761 552.798 552.815 552.985 553.043 552.971 553.082 553.224 553.21 553.323 553.425 553.356 553.496 553.708 553.836 553.711 553.738 553.678 553.406 553.555 553.309 553.15 553.37 552.759 551.727 553.081 553.978 554.179 553.968 553.674 553.7 554.259 554.614 554.707 554.802 554.883 554.992 554.98 555.063 555.338 555.461 555.565 555.602 555.63 555.635 555.623 556.166 556.604 556.783 556.967 557.129 557.238 557.265 557.351 557.362 557.388 557.537 557.779 557.941 558.065 558.35 558.621 558.812 559.148 559.279 559.488 559.723 559.856 560.045 560.192 560.261 560.29 560.47 560.645 560.904 560.982 560.999 561.102 561.304 561.602 561.6 561.665 561.61 561.715 561.828 561.886 561.998 562.096 562.144 562.308 562.319 562.411 562.51 562.699 562.861 562.988 563.147 563.287 563.478 563.636 563.84 564.049 564.135 564.289 564.639 564.869 565.193 565.418 565.616 565.949 566.133 566.429 566.739 567.059 567.245 567.287 567.331 567.436 567.51 567.467 567.631 567.714 567.806 567.749 567.822 568.151 568.47 568.682 568.849 569.038 569.218 569.297 569.376 569.265 569.328 569.443 569.47 569.699 569.325 569.752 569.338 569.637 569.585 569.789 570.115 570.464 570.691 570.869 571.191 571.339 571.558 571.579 571.709 571.643 571.688 571.765 572.071 572.498 572.77 573.01 573.077 572.321 572.528 572.813 573.603 574.01 574.275 574.337 574.364 574.541 574.781 574.998 575.101 575.256 575.353 575.524 575.693 575.837 576.126 576.358 576.359 576.254 576.05 575.331 576.406 577.227 577.71 578.42 578.823 579.497 580.019 580.504 581.114 581.648 582.103 582.493 582.75 582.922 583.249 583.651 583.959 583.999 584.326 584.448 584.646 584.985 585.322 585.598 585.695 586.02 586.379 586.653 586.717 586.491 586.554 586.85 586.895 586.709 586.718 587.13 587.357 587.682 587.82 587.751 587.757 587.804 587.715 587.763 588.219 588.452 588.344 588.434 588.478 588.43 588.356 588.404 588.331 588.187 588.302 588.58 588.78 588.685 588.728 588.79 588.742 588.663 588.536 588.532 588.45 588.205 587.981 587.527 587.391 588.092 588.577 588.989 589.091 589.062 588.979 588.938 589.363 589.703 589.847 590.044 590.158 590.396 590.436 590.426 590.49 590.631 590.676 590.747 590.89 590.963 590.985 590.888 591.071 590.988 590.976 590.993 591.088 591.17 591.276 591.278 591.258 590.942 590.823 590.948 591.165 591.162 591.076 591.318 591.4 591.724 591.724 591.985 592.262 592.355 592.181 592.494 593.042 593.328 593.585 593.952 594.222 594.406 594.661 594.672
557.655 557.628 557.556 557.605 557.537 557.339 557.155 557.073 556.761 556.604 556.517 556.386 556.237 556.083 555.971 555.814 555.51 555.104 554.837 554.86 554.822 554.481 554.632 554.922 554.931 554.425 554.306 554.122 554.18 554.187 553.891 553.653 553.554 553.546 553.546 553.409 553.411 553.303 553.126 552.86 552.763 552.372 552.372 552.219 552.165 552.061 552.101 551.953 551.881 551.622 551.687 551.62 551.384 551.325 550.457 549.681 549.455 550.928 551.291 551.198 550.341 550.562 550.934 551.31 551.806 552.129 552.232 552.296 552.477 552.577 552.55 552.639 552.763 552.705 552.408 552.269 552.188 552.733 552.984 552.962 552.986 553.111 553.418 553.502 553.525 553.491 553.557 553.522 553.24 552.831 552.651 552.26 552.198 552.154 551.991 553.541 553.895 553.77 553.53 553.379 553.597 553.882 554.283 554.571 554.723 554.758 554.818 554.897 554.982 555.207 555.345 555.526 555.482 555.505 555.391 555.401 555.807 556.088 556.118 556.735 556.925 557.002 557.069 557.141 557.287 557.118 557.409 557.522 557.736 558.015 558.263 558.603 558.851 559.073 559.256 559.43 559.558 559.751 559.93 560.154 560.16 560.225 560.393 560.677 560.745 560.845 560.938 561.101 561.184 561.233 561.361 561.425 561.39 561.67 561.651 561.732 561.83 561.828 561.907 562.057 561.99 562.094 562.234 562.381 562.638 562.724 562.939 563.077 563.276 563.502 563.667 563.89 563.946 564.209 564.54 564.854 565.116 565.316 565.589 565.772 566.019 566.219 566.498 566.775 566.977 567.144 567.294 567.371 567.483 567.522 567.474 567.489 567.536 567.574 567.655 567.73 568.065 568.143 568.212 568.017 567.934 568.032 568.118 568.274 568.531 568.949 569.069 569.137 569.26 569.172 569.234 569.19 569.386 569.616 569.811 569.957 570.234 570.546 570.722 570.94 571.017 571.077 571.155 571.26 571.264 571.391 571.733 572.285 572.535 572.646 572.586 572.353 572.307 572.89 573.499 573.876 574.096 574.032 574.113 574.315 574.619 574.837 574.929 575.118 575.302 575.498 575.559 575.675 575.74 575.977 576.086 576.041 576.119 576.248 576.721 577.504 577.946 578.398 578.85 579.424 579.884 580.547 581.017 581.486 581.919 582.396 582.622 582.808 583.109 583.428 583.697 584.042 584.275 584.457 584.539 584.699 585.194 585.481 585.646 585.916 586.188 586.384 586.595 586.172 586.647 586.807 586.882 586.823 586.743 587.054 587.355 587.7 587.781 587.721 587.776 587.671 587.487 587.566 588.164 588.246 588.211 588.309 588.482 588.39 588.428 588.276 588.273 588.157 588.375 588.495 588.669 588.619 588.728 588.737 588.692 588.636 588.66 588.463 588.321 588.154 587.952 587.341 587.659 588.07 588.604 589.011 589.081 588.928 588.585 588.716 589.364 589.554 589.594 589.612 589.912 590.301 590.396 590.433 590.498 590.576 590.714 590.717 590.856 590.93 590.844 590.756 590.879 590.922 590.941 590.998 591.036 591.063 591.191 591.214 591.198 591.229 591.14 591.01 591.207 591.171 591.185 591.304 591.361 591.44 591.518 591.912 592.093 592.179 591.961 592.314 592.906 593.366 593.638 593.861 594.077 594.349 594.556 594.576
557.516 557.563 557.611 557.489 557.44 557.296 557.197 556.917 556.659 556.658 556.489 556.414 556.203 556.014 555.889 555.825 555.141 554.986 554.792 554.563 554.698 554.58 554.703 555.212 554.422 554.348 554.221 554.064 554.004 553.919 553.709 553.638 553.377 553.534 553.494 553.374 553.381 553.167 552.961 553.116 552.519 552.252 552.116 551.957 552.042 551.9 551.815 551.7 551.634 551.562 551.468 551.228 551.008 550.769 550.251 548.965 549.253 550.48 550.641 550.536 550.037 550.488 551.119 551.56 551.699 551.846 552.127 552.097 552.185 552.344 552.471 552.43 552.451 552.227 551.787 551.245 551.632 551.862 552.724 552.52 552.887 553.049 553.488 553.444 553.478 553.458 553.45 553.33 552.95 552.754 552.189 551.549 552.127 552.367 553.228 553.765 553.875 553.694 553.349 553.292 553.093 553.245 553.847 554.321 554.517 554.591 554.466 554.327 554.865 554.866 555.023 555.381 555.434 555.364 555.058 554.969 555.291 555.79 556.12 556.445 556.598 556.696 556.831 557.003 556.974 557.057 557.311 557.57 557.669 558.019 558.217 558.459 558.682 558.842 559.016 559.304 559.434 559.538 559.751 559.9 560.045 560.394 560.247 560.332 560.559 560.687 560.758 560.898 561.071 561.113 561.157 561.168 561.271 561.378 561.346 561.41 561.517 561.634 561.594 561.564 561.666 561.611 561.807 562.008 562.314 562.53 562.649 562.867 562.942 563.309 563.43 563.519 563.645 564.065 564.385 564.634 564.903 565.29 565.505 565.73 566.102 566.292 566.412 566.625 566.703 567.042 567.152 567.236 567.38 567.332 567.389 567.428 567.405 567.451 567.523 567.698 567.842 568 567.805 567.597 567.468 567.742 567.73 568.184 568.223 568.306 568.192 568.315 568.43 568.813 568.94 569.183 569.307 569.265 569.39 569.385 569.36 569.685 569.943 570.226 570.233 570.369 570.682 570.783 570.88 571.245 571.658 572.065 572.044 572.176 572.091 571.874 572.58 573.053 573.288 573.424 573.66 573.715 573.981 574.17 574.431 574.585 574.816 575.083 575.308 575.265 575.262 575.487 575.789 575.886 575.893 575.993 576.125 576.515 577.15 577.705 577.937 578.389 579.052 579.499 580.093 580.571 580.877 581.313 581.796 582.113 582.373 582.618 582.787 583.189 583.474 583.723 583.947 584.187 584.368 584.506 584.841 585.096 585.239 585.463 585.781 585.932 586.033 586.224 586.566 586.786 586.812 586.806 586.889 587.111 587.427 587.701 587.78 587.701 587.592 587.57 587.492 587.153 587.658 588.203 588.112 588.229 588.287 588.274 588.053 588.086 588.229 588.169 588.381 588.432 588.493 588.526 588.714 588.645 588.629 588.643 588.475 588.411 588.192 588.043 587.952 587.827 588.32 588.611 588.772 588.906 589.022 589.099 588.914 589.052 589.293 589.348 589.232 589.34 589.583 589.727 589.983 590.17 590.49 590.48 590.782 590.707 590.727 590.804 590.767 590.726 590.73 590.813 590.882 591.09 591.158 591.111 591.067 591.066 591.089 591.176 591.101 591.098 591.134 591.153 591.249 591.426 591.272 591.318 591.523 591.664 591.898 592.007 591.654 591.909 592.534 593.126 593.591 593.789 593.919 594.169 594.323 594.323
557.261 557.37 557.224 557.224 557.143 557.181 557.016 556.774 556.723 556.679 556.395 556.392 556.204 555.926 555.879 555.367 555.037 554.719 554.748 554.615 554.712 554.696 554.449 554.379 554.308 554.291 554.117 554.062 553.832 553.697 553.655 553.5 553.407 553.346 553.275 553.194 553.289 553.125 553.027 553.031 552.568 551.892 551.674 551.753 551.781 551.567 551.584 551.44 551.511 551.345 551.32 551.095 550.945 550.555 549.786 548.664 548.638 550.033 550.352 549.802 549.951 550.752 551.407 551.63 551.317 551.008 551.874 552.203 552.185 552.25 551.768 551.564 551.33 551.038 550.386 551.02 550.942 551.481 552.092 552.551 552.857 552.992 553.177 553.167 553.226 552.871 553.045 552.934 552.614 552.285 552.187 552.324 552.712 553.089 553.381 553.631 553.7 553.55 553.187 553.056 552.523 552.387 553.087 553.966 554.316 554.346 553.795 553.182 553.671 554.15 554.478 555.07 555.215 555.183 554.308 554.058 554.292 555.286 555.765 555.926 556.18 556.423 556.458 556.518 556.826 556.984 557.108 557.394 557.732 557.932 558.084 558.288 558.518 558.684 558.899 559.125 559.248 559.33 559.556 559.822 560.168 560.217 560.179 560.237 560.476 560.614 560.613 560.715 560.885 560.882 560.929 560.91 560.951 561.198 561.133 561.215 561.201 561.339 561.359 561.294 561.428 561.436 561.579 561.869 562.121 562.387 562.467 562.689 562.811 562.948 563.133 563.264 563.448 563.78 564.238 564.557 564.762 565.056 565.327 565.755 566.049 566.257 566.407 566.536 566.648 566.788 566.953 567.112 567.279 567.247 567.415 567.377 567.397 567.381 567.397 567.653 567.723 567.544 567.073 567.003 567.033 567.478 567.838 567.975 568.025 568.15 568.153 568.308 568.514 568.636 568.794 569.023 568.978 569.223 569.172 569.316 569.315 569.6 569.636 569.766 569.911 570.116 570.289 570.531 570.652 570.948 571.4 571.682 571.806 571.675 571.574 571.865 572.343 572.715 572.971 573.148 573.544 573.634 573.739 573.904 574.148 574.3 574.573 574.909 575.054 575.065 575.038 575.127 575.324 575.558 575.605 575.832 576.515 577.011 577.455 577.957 578.197 578.554 578.779 579.335 579.793 580.272 580.601 581.127 581.479 581.778 582.138 582.413 582.611 582.879 583.38 583.655 583.869 584.113 584.269 584.429 584.661 584.91 585.075 585.285 585.607 585.833 585.93 586.1 586.333 586.617 586.572 586.587 586.962 587.199 587.418 587.482 587.579 587.531 587.437 587.358 587.397 587.495 587.786 587.982 587.969 588.098 588.076 588.073 588.036 588.008 588.027 588.062 588.238 588.356 588.459 588.441 588.443 588.423 588.416 588.424 588.403 588.273 588.138 588 587.964 588.119 588.371 588.667 588.769 588.798 589.005 589.058 589.093 589.076 589.143 589.181 588.896 589.182 589.509 589.8 589.881 589.919 590.334 590.442 590.64 590.661 590.676 590.709 590.652 590.649 590.654 590.719 590.906 591.03 591.015 591.102 590.859 590.759 590.981 591.035 590.922 590.831 591.008 591.225 591.271 591.361 591.296 591.246 591.46 591.635 591.683 591.844 591.929 591.775 592.176 592.828 593.435 593.713 593.909 594.011 594.083 594.169
557.397 557.358 557.31 557.206 557.173 557.111 556.945 556.877 556.7 556.688 556.459 556.272 556.151 555.854 555.743 555.314 555.142 554.812 554.695 554.532 554.954 555.127 554.348 554.251 554.145 554.277 554.087 554.077 553.699 553.591 553.439 553.226 553.216 553.246 553.093 552.882 552.628 552.614 552.667 552.628 552.276 552.045 551.67 551.428 551.409 551.407 551.064 551.133 551.006 551.036 550.914 550.971 550.701 550.114 549.299 548.689 548.557 549.528 549.501 549.365 550.069 550.873 551.355 551.471 550.748 551.18 551.763 552.016 552.086 551.911 551.337 551.41 551.019 550.236 550.116 550.612 550.939 551.659 551.933 552.364 552.626 552.871 552.967 553.106 553.318 552.722 552.655 552.585 552.398 552.068 552.474 552.72 553.142 553.373 553.517 553.447 553.548 553.341 553.05 552.773 552.547 552.638 553.186 553.651 554.085 554.155 553.393 552.31 553.089 553.972 554.507 554.739 554.941 554.928 554.122 553.726 554.149 555.086 555.424 555.646 556.017 556.003 556.376 556.51 556.659 556.79 557.006 557.168 557.537 557.842 557.957 558.1 558.298 558.456 558.707 558.931 559.075 559.259 559.466 559.681 559.956 559.951 560.101 560.254 560.336 560.514 560.467 560.561 560.65 560.73 560.809 560.749 560.669 560.822 560.917 560.944 560.963 561.036 561.143 561.192 561.273 561.314 561.519 561.712 561.93 562.059 562.244 562.381 562.506 562.726 562.81 563 563.184 563.524 563.739 564.289 564.57 564.978 565.207 565.59 565.863 566.129 566.299 566.472 566.594 566.729 566.726 566.845 566.976 566.957 567.032 567.172 567.303 567.291 567.354 567.445 567.47 567.338 567.002 566.739 567.051 567.349 567.626 567.842 568.013 568.116 568.123 568.127 568.398 568.539 568.69 568.961 568.966 569.046 569.037 568.95 569.059 569.181 569.354 569.492 569.736 569.807 569.913 570.047 570.343 570.616 570.865 571.284 571.303 571.224 571.299 571.811 572.228 572.279 572.586 573.121 573.194 573.477 573.564 573.608 573.95 574.198 574.381 574.443 574.639 574.512 574.626 574.803 575.206 575.437 575.564 575.844 576.268 576.885 577.38 577.755 578.076 578.461 578.775 579.168 579.67 580.125 580.577 581.02 581.387 581.729 582.027 582.187 582.486 582.857 583.326 583.486 583.754 584.073 584.201 584.317 584.45 584.732 584.915 585.167 585.354 585.724 585.899 585.835 586.187 586.53 586.63 586.699 586.83 587.08 587.322 587.304 587.38 587.321 587.241 587.232 587.421 587.599 587.777 587.836 587.856 587.887 587.893 587.927 587.91 587.828 587.851 587.931 588.028 588.199 588.39 588.39 588.297 588.339 588.313 588.332 588.299 588.24 588.114 587.998 588.001 588.368 588.684 588.683 588.753 588.858 588.938 589.009 588.946 588.707 589.152 589.25 589.152 589.291 589.625 589.716 589.836 589.925 590.359 590.506 590.544 590.64 590.694 590.562 590.62 590.64 590.427 590.619 590.767 590.895 590.986 590.803 590.548 590.383 590.602 590.91 590.878 590.899 590.988 590.977 591.02 590.98 590.766 591.043 591.454 591.564 591.556 591.52 591.802 591.824 591.971 592.589 592.955 593.359 593.485 593.772 593.753 593.921
