ncols 384
nrows 32
xllcorner    388098
yllcorner    478406
cellsize     2
NODATA_value -9999
570.818 570.788 570.865 571.003 571.145 571.1 571.145 571.165 571.185 571.323 571.463 571.683 571.75 571.69 571.643 571.753 571.773 571.823 571.928 572.093 572.273 572.435 572.515 572.6 572.578 572.553 572.513 572.478 572.603 572.473 572.373 572.373 572.365 572.345 572.34 572.308 572.383 572.503 572.698 572.773 572.853 572.933 572.93 572.978 573.11 573.203 573.395 573.515 573.583 573.618 573.675 573.748 573.695 573.703 573.648 573.64 573.69 573.713 573.75 573.91 574.198 574.403 574.48 574.418 574.353 574.295 574.308 574.315 574.353 574.403 574.48 574.51 574.46 574.415 574.355 574.158 574.133 574.048 573.918 573.815 573.525 573.578 573.618 573.548 573.453 573.363 573.205 573.03 572.893 572.778 572.69 572.568 572.475 572.418 572.435 572.438 572.523 572.48 572.513 572.48 572.463 572.37 572.255 572.168 572.088 572.048 571.993 571.885 571.84 571.95 571.985 571.97 571.78 571.565 571.455 571.383 571.273 571.155 571.11 571.003 570.865 570.76 570.683 570.64 570.57 570.513 570.408 570.305 570.198 570.113 570.115 570.053 569.958 569.898 569.868 569.858 569.85 569.81 569.768 569.52 569.308 569.198 569.025 568.833 568.505 568.163 567.875 567.72 567.64 567.543 567.535 567.488 567.325 567.178 567.125 566.9 566.628 566.47 566.333 566.075 565.693 565.365 564.92 564.583 564.323 564.033 563.688 563.543 563.303 563.15 562.98 562.933 562.908 562.895 562.798 562.7 562.633 562.698 562.745 562.623 562.355 562 561.613 561.225 560.845 560.458 560.163 559.813 559.588 559.338 559.12 558.898 558.7 558.475 558.103 558.05 557.91 557.598 557.29 556.973 556.735 556.438 556.448 556.4 556.27 556.123 555.905 555.608 555.383 555.09 554.763 554.53 554.155 554.058 554.1 554.063 553.853 553.34 553.065 553.295 553.23 553.04 552.83 552.678 552.445 552.17 551.95 551.8 551.558 551.355 551.008 550.585 550.163 549.72 549.173 548.255 547.375 547.013 546.855 546.708 546.565 546.54 546.393 546.235 546.053 545.923 545.78 545.788 545.605 545.423 545.255 545.2 545.01 544.753 544.585 544.418 544.388 544.343 544.273 544.173 544.07 543.985 543.858 543.78 543.708 543.563 543.47 543.415 543.418 543.385 543.388 543.375 543.338 543.33 543.315 543.26 543.183 543.028 543.013 543.005 542.948 542.888 542.84 542.865 542.843 542.898 542.943 542.978 543.025 542.99 542.993 542.983 542.805 542.755 542.655 542.51 542.498 542.498 542.493 542.493 542.47 542.388 542.31 542.218 542.075 541.883 541.74 541.595 541.515 541.403 541.203 540.963 540.725 540.443 540.148 539.683 539.17 539.395 539.293 539.145 538.988 538.783 538.718 538.58 538.4 538.348 538.195 537.995 537.725 537.568 537.383 537.263 537.053 536.873 536.773 536.655 536.52 536.455 536.293 536.173 536.09 536.015 535.858 535.728 535.675 535.488 535.323 535.158 534.975 534.778 534.643 534.473 534.388 534.27 533.948 533.738 533.55 533.463 533.288 533.005 532.745 532.568 532.713 532.435 532.66 533.075 533.383 533.473 533.465 533.675 533.753 533.825 533.843 533.905 533.945 533.92 533.96 534.008 533.9 533.84 533.8 533.768 533.793 533.76
571.21 571.085 571.12 571.223 571.43 571.513 571.635 571.485 571.455 571.515 571.703 571.875 571.963 571.943 571.918 571.995 572.045 572.045 572.185 572.278 572.503 572.625 572.655 572.673 572.68 572.71 572.693 572.695 572.68 572.638 572.52 572.52 572.488 572.455 572.378 572.35 572.313 572.333 572.51 572.543 572.685 572.783 572.85 572.928 572.988 573.085 573.335 573.555 573.638 573.733 573.86 574.145 574.155 573.94 573.613 573.61 573.663 573.723 573.848 574.178 574.453 574.528 574.553 574.525 574.45 574.38 574.348 574.413 574.468 574.513 574.535 574.525 574.5 574.513 574.353 574.213 574.2 574.165 574.073 573.903 573.573 573.7 573.74 573.663 573.613 573.555 573.385 573.268 573.13 573.055 572.978 572.885 572.798 572.725 572.65 572.658 572.668 572.648 572.65 572.588 572.63 572.595 572.45 572.293 572.218 572.163 572.148 572.065 572.018 572.14 572.253 572.105 571.875 571.695 571.618 571.585 571.535 571.48 571.423 571.27 571.155 571.055 571.015 570.92 570.823 570.79 570.665 570.555 570.458 570.488 570.428 570.298 570.185 570.168 570.188 570.258 570.233 570.168 570.06 569.963 569.813 569.698 569.503 569.308 569.135 568.865 568.533 568.443 568.295 568.228 568.123 568.048 567.955 567.893 567.713 567.52 567.298 567.128 567.003 566.885 566.695 566.428 565.95 565.62 565.298 564.968 564.725 564.643 564.22 563.865 563.49 563.268 563.143 563.13 563.015 562.828 562.808 562.985 563.118 563.05 562.91 562.725 562.373 561.988 561.61 561.2 560.83 560.44 560.113 559.855 559.66 559.368 559.163 559.025 558.788 558.583 558.378 558.128 557.653 557.308 557.038 556.93 556.97 556.958 556.91 556.745 556.523 556.205 555.968 555.693 555.433 555.165 554.868 554.753 554.735 554.638 554.388 553.813 553.673 553.9 553.88 553.708 553.49 553.295 553 552.758 552.613 552.485 552.3 552.018 551.67 551.27 550.885 550.445 549.875 549.21 548.278 547.538 547.32 547.215 547.038 547.035 546.803 546.773 546.523 546.333 546.303 546.225 546.03 545.885 545.723 545.635 545.44 545.293 545.128 544.983 544.835 544.793 544.69 544.605 544.475 544.32 544.228 544.068 543.978 543.865 543.77 543.67 543.658 543.608 543.585 543.645 543.653 543.578 543.528 543.525 543.448 543.38 543.293 543.238 543.145 543.148 543.108 543.108 543.108 543.078 543.19 543.193 543.203 543.253 543.265 543.285 543.158 543.04 542.893 542.808 542.785 542.803 542.815 542.81 542.723 542.66 542.615 542.508 542.348 542.193 542.043 541.865 541.715 541.583 541.435 541.17 540.88 540.615 540.325 539.895 539.758 539.718 539.61 539.458 539.343 539.228 539.058 538.89 538.688 538.483 538.423 538.263 538.058 537.913 537.693 537.48 537.38 537.253 537.03 536.973 536.848 536.72 536.558 536.55 536.535 536.433 536.29 536.108 535.825 535.815 535.653 535.468 535.183 534.968 534.763 534.623 534.583 534.425 534.183 533.98 533.74 533.605 533.448 533.29 533.06 532.898 532.903 532.818 533 533.378 533.733 533.845 533.825 533.93 534.085 534.123 534.123 534.138 534.128 534.173 534.165 534.235 534.19 534.14 534.06 534.118 534.038 533.895
571.528 571.48 571.523 571.55 571.735 572.005 572.188 571.79 571.76 571.685 571.843 572.005 572.073 572.105 572.053 572.068 572.153 572.298 572.498 572.683 572.783 572.843 572.845 572.845 572.875 572.868 572.928 572.9 572.81 572.773 572.745 572.725 572.665 572.633 572.573 572.518 572.45 572.378 572.358 572.383 572.48 572.618 572.8 572.905 573.018 573.14 573.308 573.595 573.67 573.765 573.848 574.348 574.528 574.298 573.838 573.813 573.765 573.84 574.055 574.325 574.543 574.57 574.575 574.563 574.513 574.468 574.438 574.49 574.508 574.5 574.5 574.505 574.515 574.493 574.37 574.293 574.255 574.235 574.178 573.905 573.673 573.865 573.84 573.783 573.735 573.673 573.56 573.468 573.358 573.278 573.193 573.11 573.038 572.918 572.86 572.858 572.853 572.828 572.805 572.77 572.758 572.743 572.6 572.403 572.29 572.188 572.188 572.17 572.113 572.268 572.395 572.145 571.93 571.828 571.78 571.78 571.743 571.723 571.615 571.483 571.378 571.26 571.205 571.13 571.065 571.143 570.99 570.83 570.818 570.815 570.758 570.653 570.518 570.46 570.47 570.59 570.548 570.543 570.563 570.415 570.323 570.2 569.935 569.648 569.508 569.315 569.073 568.943 568.925 568.855 568.668 568.473 568.413 568.278 568.1 567.913 567.84 567.708 567.593 567.465 567.268 566.78 566.483 566.415 565.985 565.77 565.658 565.503 564.93 564.485 564.253 563.968 563.678 563.535 563.39 563.135 563.193 563.425 563.463 563.31 562.985 562.88 562.855 562.63 562.348 562.005 561.62 561.265 560.893 560.558 560.313 559.985 559.685 559.48 559.293 559.04 558.738 558.38 558.018 557.793 557.505 557.388 557.438 557.46 557.488 557.283 557.095 556.848 556.57 556.293 556.02 555.683 555.458 555.41 555.303 555.158 554.868 554.385 554.27 554.41 554.425 554.338 554.098 553.83 553.583 553.375 553.22 553.088 552.953 552.678 552.383 551.915 551.513 551.153 550.658 550.055 549.413 548.558 547.9 547.73 547.65 547.648 547.48 547.258 547.133 547.018 546.763 546.64 546.473 546.328 546.24 546.015 545.893 545.75 545.66 545.515 545.298 545.18 545.14 544.973 544.86 544.69 544.493 544.31 544.27 544.183 544.093 544.023 543.938 543.833 543.85 543.878 543.885 543.82 543.773 543.735 543.705 543.658 543.555 543.47 543.463 543.4 543.3 543.335 543.363 543.348 543.38 543.45 543.495 543.568 543.615 543.648 543.56 543.365 543.163 543.1 543.065 543.123 543.12 543.088 543.048 542.963 542.813 542.728 542.555 542.41 542.215 542.013 541.858 541.73 541.613 541.435 541.078 540.755 540.398 540.168 540.103 539.965 539.843 539.773 539.63 539.57 539.413 539.225 539.03 538.793 538.703 538.693 538.575 538.308 538.053 537.81 537.593 537.473 537.363 537.243 537.07 536.933 536.813 536.848 536.888 536.763 536.485 536.323 536.103 536.013 535.89 535.655 535.398 535.248 534.933 534.875 534.725 534.55 534.365 534.3 534.11 533.953 533.713 533.51 533.278 533.188 533.233 533.288 533.525 533.79 534.063 534.165 534.19 534.363 534.43 534.42 534.42 534.415 534.383 534.353 534.34 534.475 534.453 534.435 534.383 534.378 534.365 534.218
571.82 571.805 571.883 571.89 571.925 572.188 572.393 572.185 572.14 572.018 572.058 572.14 572.178 572.185 572.225 572.37 572.528 572.72 572.925 573.045 573.228 573.118 573.11 573.188 573.03 573.073 573.138 573.105 573.008 572.935 572.865 572.848 572.81 572.818 572.785 572.738 572.64 572.61 572.563 572.545 572.488 572.523 572.703 572.855 572.98 573.105 573.313 573.565 573.678 573.753 573.843 574.31 574.653 574.475 574.158 574.16 574.058 574.085 574.203 574.36 574.53 574.593 574.603 574.578 574.575 574.565 574.53 574.495 574.47 574.48 574.475 574.498 574.478 574.463 574.388 574.33 574.288 574.275 574.228 573.92 573.93 574.075 574.058 574.008 573.925 573.823 573.708 573.543 573.463 573.383 573.338 573.243 573.155 573.08 573.053 573.005 572.975 572.923 572.915 572.94 572.953 572.83 572.66 572.535 572.393 572.235 572.275 572.25 572.19 572.325 572.365 572.183 572.02 571.963 572.003 572.015 572.005 571.905 571.77 571.635 571.503 571.325 571.268 571.233 571.29 571.278 571.208 571.09 571.083 571.098 571.043 570.938 570.803 570.76 570.858 570.938 570.91 570.905 570.823 570.705 570.645 570.465 570.198 569.935 569.923 569.798 569.55 569.378 569.383 569.235 569.04 568.9 568.728 568.728 568.558 568.303 568.225 568.125 567.985 567.863 567.715 567.283 567.048 566.968 566.633 566.383 565.82 565.763 565.45 565.023 564.925 564.725 564.415 564.09 563.76 563.633 563.66 563.77 563.68 563.61 563.495 563.405 563.288 563.058 562.838 562.643 562.38 562.028 561.653 561.29 560.995 560.655 560.25 560.015 559.705 559.373 558.963 558.643 558.408 558.273 558 557.955 557.945 558.078 558.003 557.83 557.653 557.425 557.168 556.9 556.593 556.26 556.113 556.028 555.813 555.533 555.268 554.908 554.883 554.953 554.938 554.868 554.68 554.453 554.213 553.988 553.795 553.675 553.578 553.338 553 552.515 552.1 551.725 551.348 550.84 550.353 549.675 548.71 548.4 548.255 548.19 548.243 548.038 547.773 547.638 547.383 547.173 547.048 546.79 546.663 546.488 546.328 546.18 546.158 545.983 545.768 545.633 545.53 545.385 545.155 544.988 544.748 544.553 544.503 544.43 544.365 544.33 544.233 544.188 544.188 544.133 544.148 544.158 544.108 544.023 543.973 543.908 543.795 543.763 543.758 543.623 543.585 543.605 543.623 543.653 543.645 543.69 543.758 543.848 543.875 543.928 543.988 543.758 543.475 543.39 543.343 543.398 543.4 543.383 543.32 543.213 543.07 542.933 542.75 542.543 542.358 542.19 542.063 541.93 541.768 541.608 541.28 540.78 540.683 540.513 540.37 540.285 540.18 540.12 540.063 539.948 539.8 539.608 539.425 539.145 539.113 539.043 538.903 538.67 538.498 538.233 537.943 537.838 537.743 537.533 537.32 537.225 537.145 537.06 537.038 536.898 536.645 536.63 536.468 536.415 536.168 535.948 535.69 535.445 535.188 535.093 534.925 534.74 534.505 534.493 534.3 534.198 533.94 533.773 533.595 533.503 533.643 533.768 534.105 534.228 534.373 534.54 534.615 534.688 534.743 534.738 534.75 534.77 534.66 534.59 534.628 534.643 534.67 534.635 534.63 534.655 534.768 534.575
572.183 572.175 572.218 572.168 572.225 572.388 572.7 572.68 572.663 572.398 572.253 572.245 572.268 572.36 572.455 572.6 573.05 573.36 573.515 573.31 573.48 573.375 573.143 573.123 573.25 573.34 573.27 573.14 573.118 573.05 572.99 572.94 572.938 572.903 572.91 572.863 572.813 572.765 572.753 572.783 572.785 572.865 572.89 572.8 572.908 573.03 573.31 573.543 573.67 573.768 573.833 574.045 574.383 574.39 574.31 574.303 574.345 574.333 574.358 574.385 574.47 574.56 574.588 574.62 574.615 574.628 574.588 574.558 574.533 574.523 574.523 574.515 574.503 574.458 574.423 574.398 574.355 574.315 574.3 574.18 574.17 574.198 574.223 574.158 574.118 574.083 573.95 573.783 573.668 573.57 573.468 573.463 573.405 573.278 573.2 573.178 573.118 573.105 573.063 573.058 573.033 572.923 572.773 572.678 572.525 572.363 572.335 572.28 572.23 572.37 572.368 572.26 572.265 572.3 572.248 572.243 572.213 572.148 571.98 571.798 571.543 571.418 571.318 571.438 571.553 571.395 571.408 571.468 571.445 571.423 571.315 571.238 571.208 571.205 571.183 571.13 571.108 571.095 571.088 571.01 570.833 570.678 570.498 570.425 570.335 570.173 569.97 569.855 569.7 569.533 569.305 569.06 568.96 568.95 568.795 568.648 568.64 568.52 568.263 568.16 567.988 567.73 567.278 566.95 567.04 566.848 566.433 566.195 565.783 565.635 565.43 565.223 565.013 564.743 564.455 564.403 564.293 564.18 564.023 563.915 563.91 563.84 563.61 563.378 563.208 563.135 562.94 562.585 562.22 561.918 561.598 561.243 560.83 560.503 560.053 559.52 559.14 558.94 558.723 558.445 558.35 558.478 558.428 558.598 558.38 558.278 558.19 557.96 557.745 557.495 557.205 556.943 556.693 556.573 556.28 555.958 555.743 555.5 555.445 555.443 555.41 555.373 555.198 555.08 554.88 554.59 554.355 554.2 554.075 553.793 553.41 552.99 552.688 552.278 551.883 551.478 551.033 550.348 549.395 548.993 548.855 548.745 548.845 548.708 548.443 548.143 547.813 547.66 547.48 547.255 547.088 546.998 546.93 546.825 546.65 546.483 546.303 546.058 545.963 545.785 545.46 545.308 545.083 544.863 544.768 544.715 544.618 544.57 544.503 544.49 544.478 544.465 544.438 544.445 544.378 544.283 544.245 544.215 544.193 544.135 544.04 543.938 543.918 543.85 543.865 543.97 543.99 544.03 544.063 544.148 544.205 544.155 544.243 544.175 544.028 543.765 543.708 543.753 543.73 543.668 543.578 543.465 543.31 543.16 542.935 542.675 542.49 542.355 542.23 542.118 541.973 541.76 541.378 541.103 541.03 540.73 540.58 540.578 540.525 540.46 540.41 540.273 540.163 540 539.87 539.655 539.555 539.435 539.3 539.093 538.905 538.713 538.373 538.178 538.115 537.875 537.663 537.578 537.53 537.45 537.4 537.278 537.015 536.873 536.798 536.583 536.31 536.095 535.908 535.723 535.518 535.303 535.153 534.83 534.658 534.655 534.558 534.378 534.18 534.06 533.913 533.82 533.868 534.503 534.603 534.673 534.808 534.94 535.013 535.073 535.083 535.075 535.085 535.095 534.94 534.873 534.945 534.983 534.973 534.93 534.875 534.878 534.893 534.805
572.498 572.42 572.538 572.69 572.715 572.788 573.045 573.105 573.008 572.645 572.465 572.433 572.55 572.635 572.82 573.108 573.315 573.56 573.413 573.273 573.375 573.558 573.263 573.46 573.47 573.548 573.41 573.138 573.105 573.13 573.035 573.053 573.035 572.975 572.95 572.955 572.943 572.935 572.91 573 573.048 573.225 573.295 573.195 572.93 572.878 573.26 573.493 573.668 573.813 573.915 574.048 574.283 574.348 574.39 574.475 574.675 574.545 574.473 574.47 574.5 574.53 574.593 574.64 574.675 574.683 574.66 574.625 574.585 574.538 574.52 574.51 574.52 574.495 574.463 574.438 574.415 574.395 574.36 574.333 574.28 574.268 574.275 574.225 574.203 574.135 574.113 574.023 573.895 573.798 573.68 573.635 573.57 573.46 573.37 573.353 573.285 573.293 573.29 573.218 573.128 573.063 572.938 572.795 572.658 572.608 572.5 572.37 572.318 572.403 572.485 572.538 572.553 572.608 572.57 572.538 572.485 572.375 572.175 572.008 571.715 571.62 571.673 571.793 571.73 571.673 571.7 571.703 571.758 571.713 571.565 571.488 571.425 571.433 571.415 571.345 571.273 571.25 571.225 571.12 571.033 570.908 570.77 570.703 570.635 570.483 570.308 570.178 569.98 569.81 569.578 569.483 569.43 569.283 569.075 569.14 568.963 568.835 568.665 568.393 568.15 567.888 567.36 567.065 567.138 567.053 566.69 566.283 566.068 566.083 565.905 565.755 565.615 565.51 565.268 565.113 565.015 564.83 564.475 564.33 564.373 564.28 564.005 563.76 563.698 563.563 563.34 563.048 562.735 562.45 561.998 561.663 561.295 560.89 560.455 559.89 559.368 559.008 558.858 558.72 558.703 558.78 558.683 558.74 558.685 558.688 558.625 558.463 558.273 558.088 557.803 557.558 557.233 557.008 556.665 556.405 556.248 556.085 555.955 555.835 555.908 555.858 555.733 555.578 555.395 555.038 554.798 554.56 554.475 554.248 553.875 553.488 553.115 552.8 552.393 551.988 551.525 550.878 549.878 549.438 549.34 549.285 549.323 549.158 548.993 548.573 548.273 548.015 547.928 547.835 547.728 547.645 547.565 547.378 547.155 546.99 546.75 546.498 546.328 546.195 545.888 545.685 545.52 545.328 545.19 545.06 544.963 544.878 544.808 544.813 544.843 544.798 544.753 544.693 544.65 544.583 544.558 544.53 544.553 544.44 544.348 544.293 544.27 544.155 544.175 544.303 544.308 544.358 544.353 544.35 544.435 544.41 544.478 544.58 544.533 544.305 544.093 544.05 544.008 543.943 543.878 543.7 543.533 543.345 543.148 542.905 542.733 542.615 542.453 542.313 542.155 541.845 541.35 541.343 541.13 540.978 541.015 541 540.888 540.768 540.755 540.67 540.5 540.318 540.178 540.045 539.963 539.82 539.698 539.56 539.435 539.26 538.843 538.49 538.443 538.223 537.97 537.888 537.885 537.878 537.698 537.523 537.343 537.243 537.098 536.858 536.548 536.36 536.208 536.003 535.778 535.528 535.365 535.135 534.89 534.77 534.695 534.648 534.525 534.385 534.235 534.215 534.423 535.23 535.06 535.115 535.278 535.378 535.45 535.405 535.465 535.47 535.45 535.433 535.278 535.223 535.253 535.348 535.285 535.215 535.09 535.075 535.088 535.088
572.668 572.618 572.725 572.935 573.07 573.235 573.385 573.373 573.185 572.748 572.878 572.983 573.043 573.24 573.35 573.26 573.32 573.388 573.363 573.29 573.253 573.313 573.43 573.805 573.793 573.698 573.475 573.24 573.218 573.163 573.1 573.055 573.015 573.133 573.138 573.088 573.06 573.065 573.053 573.095 573.185 573.398 573.435 573.463 573.453 573.245 573.12 573.4 573.645 573.843 573.968 574.103 574.24 574.37 574.4 574.513 574.603 574.585 574.56 574.555 574.575 574.578 574.585 574.64 574.673 574.7 574.708 574.675 574.655 574.613 574.545 574.525 574.528 574.503 574.5 574.485 574.518 574.445 574.368 574.37 574.365 574.385 574.295 574.263 574.23 574.215 574.175 574.138 574.113 574.023 573.943 573.913 573.82 573.718 573.593 573.508 573.45 573.4 573.405 573.373 573.268 573.11 573.028 572.935 572.858 572.823 572.678 572.543 572.363 572.435 572.525 572.64 572.705 572.743 572.758 572.778 572.68 572.608 572.4 572.165 571.918 571.89 572.013 571.978 571.843 571.885 571.938 571.948 571.985 571.903 571.78 571.698 571.71 571.748 571.62 571.498 571.47 571.438 571.405 571.305 571.233 571.138 571.02 570.985 570.883 570.76 570.618 570.428 570.27 569.983 569.778 569.763 569.718 569.51 569.365 569.425 569.3 569.13 568.97 568.575 568.328 568.168 567.928 567.615 567.365 567.055 566.67 566.383 566.34 566.36 566.275 566.165 566.053 566.048 565.965 565.855 565.72 565.503 565.133 564.85 564.735 564.563 564.418 564.365 564.143 563.905 563.583 563.248 563.018 562.718 562.365 562.043 561.718 561.3 560.788 560.39 559.935 559.275 559.138 559.26 559.373 559.32 559.173 559.108 558.978 559.053 559.065 558.938 558.783 558.595 558.428 558.148 557.788 557.445 557.17 556.945 556.785 556.545 556.398 556.4 556.475 556.398 556.273 556.04 555.818 555.563 555.268 554.945 554.813 554.615 554.3 553.903 553.513 553.16 552.773 552.388 551.908 551.378 550.548 549.973 549.78 549.668 549.53 549.44 549.328 548.888 548.595 548.435 548.355 548.273 548.215 548.175 548.14 547.995 547.72 547.48 547.275 546.993 546.78 546.615 546.393 546.098 545.968 545.853 545.665 545.493 545.313 545.233 545.245 545.303 545.17 545.075 545.018 544.965 544.97 544.948 544.858 544.825 544.803 544.723 544.67 544.615 544.638 544.575 544.645 544.638 544.645 544.63 544.648 544.675 544.655 544.693 544.753 544.918 544.925 544.773 544.503 544.36 544.293 544.21 544.11 543.98 543.795 543.62 543.438 543.23 542.988 542.793 542.698 542.538 542.325 541.885 541.503 541.42 541.39 541.368 541.388 541.325 541.22 541.105 541.07 540.993 540.81 540.635 540.5 540.35 540.345 540.223 540.123 539.97 539.86 539.735 539.305 538.925 538.803 538.573 538.303 538.225 538.105 538.063 537.965 537.873 537.743 537.503 537.363 537.178 537.035 536.72 536.54 536.305 536.07 535.898 535.78 535.59 535.415 535.175 535.075 535.048 534.888 534.76 534.698 534.653 534.913 535.365 535.503 535.593 535.76 535.84 535.835 535.835 535.898 535.863 535.81 535.725 535.62 535.553 535.618 535.63 535.588 535.47 535.36 535.365 535.325 535.355
572.94 572.898 573.018 573.13 573.43 573.618 573.723 573.655 573.305 572.87 573.298 573.643 573.61 573.585 573.588 573.618 573.618 573.703 573.825 573.743 573.665 573.72 574.008 574.338 574.29 573.88 573.52 573.313 573.26 573.215 573.208 573.12 573.15 573.143 573.148 573.135 573.155 573.143 573.158 573.15 573.233 573.38 573.508 573.568 573.6 573.553 573.328 573.308 573.465 573.728 573.928 574.113 574.228 574.35 574.458 574.57 574.558 574.608 574.595 574.585 574.628 574.633 574.655 574.653 574.703 574.695 574.665 574.675 574.69 574.678 574.625 574.595 574.573 574.553 574.535 574.53 574.553 574.478 574.433 574.375 574.373 574.388 574.338 574.32 574.305 574.283 574.255 574.238 574.205 574.19 574.153 574.128 574.08 573.998 573.855 573.733 573.625 573.503 573.51 573.513 573.41 573.313 573.17 573.108 573.055 573 572.84 572.648 572.433 572.4 572.435 572.588 572.668 572.753 572.828 572.935 572.755 572.77 572.525 572.31 572.173 572.148 572.098 571.998 572.005 572.125 572.093 572.133 572.163 572.055 571.965 571.803 571.883 571.928 571.853 571.758 571.658 571.573 571.555 571.48 571.375 571.335 571.283 571.225 571.123 571.015 570.865 570.693 570.448 570.21 570.065 570.003 569.898 569.753 569.665 569.708 569.533 569.358 569.108 568.833 568.66 568.423 568.228 567.913 567.555 567.183 566.858 566.735 566.618 566.563 566.495 566.425 566.358 566.438 566.423 566.018 566.078 566.03 565.9 565.61 565.428 565.103 564.82 564.738 564.668 564.4 564.11 563.785 563.433 563.093 562.785 562.488 562.143 561.733 561.32 560.883 560.233 559.73 559.81 560.028 560.045 560.045 560.008 559.81 559.483 559.505 559.46 559.4 559.328 559.118 558.895 558.595 558.318 558.02 557.635 557.328 557.178 556.94 556.865 556.893 556.89 556.91 556.828 556.598 556.245 556.05 555.663 555.338 555.188 554.995 554.733 554.333 553.955 553.493 553.165 552.66 552.32 551.943 551.398 550.745 550.225 549.93 549.795 549.768 549.67 549.51 549.198 549.05 548.875 548.805 548.72 548.653 548.613 548.408 548.138 547.983 547.723 547.4 547.1 546.923 546.823 546.668 546.485 546.323 546.128 545.948 545.683 545.583 545.613 545.643 545.58 545.473 545.34 545.228 545.243 545.25 545.198 545.143 545.118 545.045 544.99 544.978 544.97 544.975 544.985 544.933 544.93 544.908 544.95 545.028 545 545.023 545.088 545.19 545.298 545.338 544.968 544.723 544.618 544.48 544.393 544.278 544.065 543.92 543.73 543.575 543.343 543.113 542.908 542.7 542.475 542.158 541.905 541.845 541.8 541.745 541.7 541.673 541.505 541.373 541.363 541.253 541.128 540.975 540.86 540.705 540.648 540.585 540.473 540.295 540.09 539.92 539.773 539.348 539.063 538.853 538.575 538.573 538.46 538.358 538.358 538.263 538.098 537.82 537.655 537.345 537.168 536.928 536.793 536.63 536.433 536.22 535.995 535.88 535.778 535.568 535.43 535.3 535.228 535.148 535.053 535.138 535.403 536.39 536.023 536.168 536.315 536.37 536.345 536.345 536.328 536.243 536.123 536.103 536.038 535.968 535.923 535.923 535.875 535.728 535.73 535.775 535.66 535.618
573.278 573.188 573.08 573.31 573.598 573.853 574.118 574.15 573.64 573.223 573.668 573.94 573.888 573.858 573.823 573.833 573.88 574.068 574.283 574.37 574.38 574.428 574.325 574.285 574.173 573.805 573.455 573.338 573.255 573.243 573.32 573.445 573.535 573.588 573.483 573.368 573.278 573.255 573.275 573.253 573.33 573.425 573.528 573.58 573.685 573.715 573.693 573.713 573.523 573.573 573.905 574.098 574.258 574.413 574.478 574.575 574.615 574.598 574.575 574.603 574.653 574.673 574.685 574.695 574.698 574.713 574.645 574.708 574.685 574.63 574.658 574.675 574.59 574.553 574.573 574.555 574.54 574.493 574.428 574.373 574.398 574.423 574.405 574.38 574.375 574.38 574.275 574.283 574.285 574.278 574.253 574.248 574.255 574.163 574.07 573.98 573.803 573.693 573.655 573.608 573.543 573.493 573.383 573.418 573.318 573.168 572.988 572.758 572.56 572.455 572.435 572.513 572.625 572.598 572.588 572.688 572.79 572.763 572.543 572.365 572.253 572.185 572.098 572.053 572.188 572.223 572.16 572.195 572.288 572.235 572.063 571.958 572.083 572.085 572.018 571.975 571.863 571.723 571.663 571.59 571.515 571.47 571.4 571.378 571.303 571.22 571.038 570.775 570.553 570.44 570.328 570.23 570.113 570.033 569.843 569.893 569.795 569.568 569.328 569.075 568.87 568.618 568.513 568.145 567.885 567.583 567.343 567.1 566.928 566.858 566.868 566.745 566.658 566.735 566.685 566.393 566.415 566.485 566.323 566.128 565.848 565.755 565.393 564.948 564.808 564.588 564.405 564.285 563.913 563.645 563.283 562.975 562.608 562.225 561.843 561.49 560.858 560.61 560.705 560.838 560.775 560.698 560.655 560.435 560.173 560.088 559.953 559.905 559.808 559.62 559.395 559.158 558.85 558.528 558.188 557.74 557.5 557.288 557.205 557.278 557.385 557.338 557.198 556.885 556.678 556.443 556.075 555.738 555.503 555.328 555.005 554.75 554.44 553.985 553.553 553.143 552.878 552.563 552.25 551.775 551.223 551.028 550.673 550.403 550.373 549.97 549.75 549.698 549.455 549.298 549.193 549.053 548.968 548.723 548.48 548.258 547.993 547.73 547.515 547.413 547.318 547.14 546.97 546.835 546.59 546.428 546.228 546.043 545.98 545.968 545.913 545.798 545.68 545.563 545.588 545.6 545.578 545.533 545.405 545.375 545.413 545.37 545.325 545.325 545.343 545.288 545.273 545.253 545.308 545.378 545.373 545.373 545.333 545.385 545.55 545.645 545.455 545.143 544.968 544.828 544.718 544.578 544.375 544.208 544.045 543.868 543.63 543.355 543.103 542.88 542.655 542.298 542.145 542.19 542.075 542.04 542.023 541.868 541.708 541.613 541.605 541.56 541.425 541.303 541.205 541.033 540.98 540.903 540.778 540.64 540.435 540.255 540.02 539.758 539.465 539.273 538.963 538.93 538.86 538.7 538.77 538.525 538.233 537.963 537.903 537.65 537.518 537.318 537.14 537 536.778 536.53 536.415 536.253 535.925 535.89 535.795 535.788 535.788 535.65 535.505 535.518 535.82 536.778 536.603 536.725 536.825 536.843 536.853 536.83 536.833 536.673 536.595 536.54 536.42 536.363 536.32 536.203 536.098 536.003 536.105 536.193 536.023 535.96
573.803 573.433 573.145 573.323 573.698 573.885 574.308 574.383 573.848 573.558 573.638 574.003 574.11 574.115 574.103 574.038 574.073 574.5 574.715 574.805 574.79 574.69 573.953 573.883 573.825 573.593 573.39 573.33 573.295 573.315 573.545 573.718 574.083 574.155 574.013 573.878 573.723 573.523 573.46 573.403 573.403 573.528 573.605 573.685 573.665 573.678 573.818 573.823 573.805 573.763 573.92 574.035 574.22 574.42 574.53 574.61 574.645 574.635 574.603 574.623 574.66 574.705 574.72 574.715 574.74 574.765 574.728 574.745 574.715 574.648 574.63 574.685 574.638 574.593 574.645 574.613 574.575 574.575 574.558 574.513 574.475 574.453 574.448 574.458 574.428 574.458 574.378 574.353 574.35 574.335 574.338 574.353 574.363 574.295 574.23 574.168 574.028 573.938 573.858 573.79 573.748 573.678 573.643 573.665 573.575 573.24 573.008 572.883 572.67 572.523 572.493 572.518 572.553 572.585 572.528 572.595 572.618 572.51 572.358 572.238 572.198 572.193 572.11 572.135 572.235 572.288 572.24 572.3 572.375 572.303 572.153 572.083 572.218 572.173 572.08 572.065 572.01 571.918 571.793 571.633 571.553 571.568 571.545 571.525 571.398 571.225 571.08 570.885 570.708 570.618 570.558 570.435 570.318 570.128 570.053 570.093 569.98 569.723 569.49 569.435 569.258 569.018 568.858 568.618 568.32 567.983 567.775 567.565 567.365 567.23 567.195 567.1 566.975 567.005 567.028 566.955 566.838 566.715 566.593 566.51 566.393 566.185 565.898 565.59 565.353 565.008 564.725 564.58 564.543 564.38 563.873 563.508 563.125 562.765 562.46 562.175 561.658 561.408 561.525 561.59 561.475 561.283 561.208 561.003 560.753 560.62 560.43 560.37 560.223 560.088 559.875 559.59 559.395 559.05 558.763 558.378 558.073 557.738 557.548 557.768 557.805 557.72 557.57 557.225 556.96 556.773 556.428 556.118 555.83 555.553 555.323 555.14 554.853 554.375 554.025 553.723 553.408 553.175 552.823 552.515 552.073 551.835 551.56 551.29 551.085 550.595 550.415 550.29 550.065 549.945 549.763 549.528 549.365 549.138 548.86 548.548 548.258 548.06 547.928 547.915 547.753 547.62 547.47 547.228 546.995 546.88 546.763 546.595 546.488 546.353 546.285 546.11 546.025 545.975 545.898 545.83 545.85 545.878 545.785 545.715 545.745 545.72 545.698 545.685 545.693 545.7 545.628 545.598 545.645 545.675 545.635 545.535 545.515 545.578 545.738 545.865 545.833 545.593 545.405 545.213 545.04 544.9 544.758 544.543 544.375 544.133 543.828 543.54 543.305 542.993 542.66 542.543 542.588 542.475 542.435 542.378 542.233 542.033 541.91 541.888 541.788 541.723 541.688 541.515 541.38 541.248 541.173 541.175 541.113 540.948 540.79 540.665 540.325 539.998 539.793 539.64 539.453 539.375 539.333 539.065 539.005 538.823 538.423 538.298 538.175 537.96 537.865 537.623 537.493 537.345 537.07 536.875 536.743 536.613 536.375 536.293 536.223 536.328 536.34 536.163 536.103 535.98 536.328 536.8 537.033 537.213 537.278 537.358 537.38 537.368 537.343 537.275 537.19 537.068 536.885 536.8 536.758 536.59 536.498 536.568 536.635 536.56 536.438 536.45
574.35 573.893 573.28 573.545 573.975 574.178 574.43 574.335 573.895 573.758 573.688 573.945 574.315 574.388 574.398 574.413 574.6 574.788 574.868 574.913 574.878 574.818 574.618 574.238 573.708 573.628 573.58 573.323 573.323 573.435 573.745 574.023 574.685 574.895 574.89 574.628 574.213 574.085 573.915 573.803 573.73 573.77 573.86 573.76 573.753 573.753 573.885 573.93 573.98 574.02 574.01 574.073 574.21 574.478 574.618 574.663 574.705 574.713 574.655 574.63 574.693 574.743 574.758 574.783 574.778 574.788 574.785 574.773 574.72 574.693 574.698 574.7 574.643 574.635 574.64 574.64 574.603 574.615 574.64 574.635 574.54 574.508 574.525 574.503 574.503 574.485 574.463 574.425 574.42 574.405 574.405 574.435 574.393 574.36 574.315 574.255 574.175 574.058 574.04 574.053 574.055 573.925 573.888 573.865 573.603 573.268 573.02 572.943 572.823 572.685 572.565 572.653 572.655 572.643 572.535 572.505 572.438 572.365 572.255 572.205 572.235 572.263 572.205 572.218 572.223 572.29 572.335 572.485 572.618 572.51 572.25 572.163 572.243 572.268 572.095 572.045 572.065 572.003 571.935 571.748 571.623 571.643 571.683 571.59 571.45 571.305 571.158 570.953 570.823 570.735 570.678 570.533 570.37 570.218 570.223 570.16 570.06 569.883 569.745 569.685 569.54 569.458 569.113 568.835 568.54 568.205 568.083 567.945 567.788 567.683 567.538 567.398 567.32 567.363 567.413 567.368 567.238 567.085 567.05 566.993 566.808 566.585 566.35 566.163 565.973 565.778 565.518 565.225 565.24 565 564.543 564.258 563.898 563.583 563.28 562.938 562.488 562.255 562.275 562.265 562.133 561.89 561.775 561.63 561.318 561.12 560.905 560.728 560.608 560.56 560.378 560.073 559.83 559.573 559.27 558.98 558.658 558.318 558.105 558.223 558.24 558.1 557.885 557.573 557.298 557.11 556.845 556.668 556.235 555.955 555.795 555.52 555.128 554.753 554.543 554.263 553.878 553.645 553.408 553.125 552.79 552.565 552.318 552.008 551.658 551.25 551.01 550.89 550.69 550.493 550.273 550 549.815 549.593 549.175 548.853 548.718 548.535 548.383 548.295 548.153 548.03 547.83 547.61 547.358 547.343 547.22 547.015 546.89 546.738 546.685 546.555 546.435 546.365 546.258 546.218 546.243 546.25 546.195 546.12 546.098 546.043 546.053 546.015 545.973 546.025 545.993 545.973 545.983 546.048 545.988 545.81 545.76 545.828 545.928 546.073 546.13 546.028 545.908 545.713 545.468 545.233 545.038 544.835 544.605 544.335 544.015 543.76 543.405 542.995 543.063 543.008 542.803 542.7 542.623 542.56 542.375 542.248 542.183 542.12 542.015 541.92 541.923 541.765 541.605 541.473 541.45 541.37 541.305 541.24 541.188 540.883 540.628 540.263 540.103 539.928 539.84 539.753 539.615 539.43 539.208 539.028 538.755 538.605 538.463 538.248 538.095 537.983 537.81 537.62 537.378 537.21 537.028 536.918 536.838 536.758 536.768 536.845 536.858 536.688 536.458 536.458 536.803 537.38 537.443 537.663 537.77 537.805 537.845 537.885 537.855 537.883 537.883 537.625 537.523 537.415 537.208 537.08 537.123 537.175 537.118 537.003 536.935 536.98
574.673 574.455 574.155 574.25 574.358 574.53 574.488 574.293 573.96 573.845 573.778 574.053 574.498 574.623 574.67 574.683 574.808 574.885 574.91 574.938 574.928 574.878 574.81 574.385 573.77 573.728 573.76 573.373 573.41 573.805 574.06 574.655 574.998 575.243 575.343 575.225 575.01 574.71 574.383 574.263 574.218 574.145 574.175 574.025 573.873 573.845 574.013 574.065 574.1 574.118 574.143 574.19 574.335 574.528 574.68 574.703 574.75 574.833 574.885 574.748 574.765 574.818 574.813 574.85 574.835 574.835 574.838 574.818 574.795 574.74 574.723 574.735 574.695 574.683 574.713 574.678 574.623 574.645 574.66 574.658 574.605 574.603 574.58 574.553 574.558 574.535 574.528 574.5 574.505 574.478 574.473 574.465 574.42 574.395 574.383 574.288 574.238 574.183 574.223 574.225 574.225 574.173 574.088 573.908 573.618 573.228 573.003 573.015 572.945 572.848 572.683 572.648 572.608 572.618 572.51 572.41 572.388 572.365 572.223 572.235 572.288 572.345 572.32 572.423 572.26 572.278 572.39 572.52 572.558 572.45 572.33 572.373 572.538 572.338 572.033 571.983 572.04 572.018 571.97 571.888 571.823 571.718 571.628 571.593 571.495 571.345 571.2 571.023 570.895 570.758 570.65 570.505 570.393 570.308 570.278 570.213 570.11 569.978 569.903 569.688 569.203 569.055 569.228 569.06 568.805 568.528 568.398 568.38 568.345 568.215 567.975 567.788 567.745 567.77 567.785 567.79 567.645 567.555 567.46 567.338 567.12 566.87 566.695 566.59 566.475 566.293 566.15 565.768 565.47 565.47 565.203 564.81 564.493 564.23 563.96 563.695 563.333 563.085 562.998 562.96 562.748 562.423 562.29 562.11 561.89 561.75 561.618 561.38 561.148 561.065 560.848 560.565 560.363 560.07 559.815 559.525 559.203 558.835 558.685 558.775 558.693 558.54 558.293 557.938 557.71 557.485 557.233 556.95 556.665 556.428 556.218 555.853 555.55 555.2 555.03 554.74 554.395 554.165 553.978 553.69 553.275 553.123 552.755 552.458 552.073 551.753 551.59 551.383 551.115 550.978 550.785 550.558 550.24 549.905 549.56 549.233 548.955 548.86 548.828 548.738 548.638 548.463 548.28 548.05 547.9 547.755 547.695 547.508 547.288 547.228 547.06 546.953 546.875 546.835 546.715 546.655 546.635 546.61 546.56 546.525 546.458 546.435 546.43 546.415 546.36 546.34 546.363 546.385 546.388 546.378 546.303 546.093 545.973 545.98 546.198 546.288 546.378 546.363 546.288 546.043 545.743 545.505 545.273 544.998 544.745 544.46 544.175 543.875 543.403 543.465 543.518 543.283 543.143 542.978 542.873 542.758 542.585 542.5 542.468 542.41 542.268 542.16 542.115 542.043 541.915 541.77 541.708 541.633 541.553 541.548 541.465 541.273 541.133 540.7 540.453 540.343 540.235 540.088 539.963 539.84 539.618 539.378 539.15 538.98 538.823 538.535 538.473 538.298 538.168 538.055 537.733 537.455 537.403 537.365 537.288 537.088 537.148 537.373 537.543 537.248 536.905 536.928 537.333 538.115 537.89 538.135 538.288 538.333 538.36 538.445 538.388 538.373 538.365 538.268 538.248 538.085 537.89 537.81 537.853 537.85 537.728 537.658 537.535 537.623
574.91 574.825 574.533 574.44 574.518 574.47 574.358 574.228 573.935 573.893 573.883 574.215 574.753 574.855 574.885 574.875 574.94 574.963 574.943 574.94 574.943 574.945 574.873 574.508 573.998 573.733 573.788 573.493 573.498 573.913 574.4 574.99 575.243 575.423 575.488 575.505 575.46 575.418 575.263 575.078 574.628 574.298 574.24 574.07 573.93 573.91 574.095 574.175 574.173 574.195 574.27 574.333 574.473 574.658 574.755 574.75 574.785 574.793 574.868 574.87 574.855 574.863 574.838 574.843 574.833 574.913 574.878 574.86 574.85 574.833 574.883 574.783 574.798 574.768 574.793 574.745 574.685 574.705 574.72 574.663 574.628 574.628 574.65 574.595 574.545 574.558 574.538 574.533 574.523 574.528 574.543 574.493 574.468 574.423 574.365 574.29 574.215 574.2 574.225 574.193 574.205 574.15 573.905 573.558 573.295 573.05 572.975 572.873 572.775 572.703 572.655 572.663 572.698 572.64 572.53 572.46 572.388 572.325 572.278 572.255 572.308 572.308 572.255 572.213 572.143 572.198 572.193 572.225 572.29 572.338 572.428 572.56 572.415 572.243 572.058 572.033 572.023 571.983 571.928 571.828 571.745 571.625 571.503 571.445 571.375 571.275 571.12 571.045 570.895 570.675 570.565 570.583 570.528 570.408 570.325 570.248 570.145 570.038 569.955 569.735 569.423 569.258 569.355 569.32 569.16 568.97 568.78 568.74 568.87 568.613 568.343 568.248 568.268 568.2 568.2 568.168 568.018 567.883 567.71 567.535 567.295 567.088 566.978 566.92 566.818 566.73 566.565 566.303 566.058 565.878 565.603 565.253 564.98 564.745 564.52 564.323 564.073 563.873 563.703 563.508 563.29 563.028 562.773 562.573 562.48 562.395 562.278 562.058 561.835 561.635 561.44 561.203 560.95 560.648 560.273 560.025 559.785 559.423 559.29 559.265 559.15 558.948 558.665 558.433 558.195 557.873 557.6 557.36 557.065 556.845 556.545 556.168 555.928 555.735 555.498 555.218 554.883 554.698 554.468 554.11 553.813 553.513 553.18 552.823 552.453 552.18 552.043 551.845 551.615 551.385 551.2 550.935 550.595 550.34 550.093 549.803 549.435 549.315 549.24 549.153 549.06 548.91 548.725 548.555 548.418 548.223 548.065 547.903 547.685 547.625 547.463 547.38 547.355 547.333 547.26 547.183 547.085 547.005 546.953 546.925 546.833 546.845 546.875 546.87 546.783 546.705 546.69 546.703 546.68 546.635 546.528 546.34 546.34 546.36 546.525 546.55 546.605 546.623 546.5 546.22 545.96 545.683 545.458 545.243 544.92 544.585 544.37 543.923 543.743 543.94 543.85 543.698 543.53 543.405 543.248 542.97 542.798 542.763 542.76 542.675 542.558 542.415 542.35 542.238 542.153 542.088 542.023 541.918 541.84 541.79 541.695 541.545 541.383 540.993 540.81 540.67 540.52 540.395 540.198 540.08 539.915 539.698 539.45 539.295 539.233 539.005 538.838 538.673 538.5 538.39 538.135 538.043 537.89 537.75 537.645 537.658 537.71 537.933 538.08 537.773 537.318 537.343 537.785 538.27 538.34 538.683 538.828 538.95 538.968 539.013 539.003 538.905 538.883 538.885 538.775 538.698 538.553 538.458 538.508 538.51 538.418 538.283 538.185 538.385
575.183 575.145 574.935 574.758 574.768 574.743 574.658 574.328 574.055 573.993 574.088 574.375 574.935 575.018 574.998 574.963 575.003 575.01 574.975 574.92 574.908 574.903 574.74 574.4 574.043 573.838 573.678 573.48 573.508 573.813 574.183 574.873 575.255 575.46 575.55 575.568 575.55 575.543 575.515 575.483 575.225 574.663 574.48 574.205 574.05 574.015 574.133 574.255 574.293 574.333 574.358 574.468 574.628 574.72 574.788 574.815 574.828 574.863 574.863 574.903 574.97 574.968 575 575.118 574.983 574.943 574.915 574.975 574.925 574.843 574.788 574.818 574.873 574.84 574.803 574.79 574.878 574.845 574.785 574.738 574.708 574.695 574.743 574.64 574.595 574.605 574.575 574.56 574.548 574.515 574.575 574.528 574.468 574.46 574.403 574.31 574.223 574.155 574.133 574.058 574.063 573.84 573.563 573.275 572.98 572.903 572.853 572.823 572.795 572.743 572.673 572.7 572.598 572.483 572.48 572.485 572.415 572.358 572.32 572.308 572.32 572.308 572.185 572.08 572.078 572.13 572.138 572.138 572.193 572.275 572.558 572.323 572.095 572.04 572.005 571.993 571.975 571.893 571.83 571.718 571.515 571.433 571.393 571.338 571.323 571.268 571.118 570.958 570.798 570.655 570.648 570.665 570.598 570.508 570.415 570.3 570.208 570.1 570.023 569.945 569.838 569.59 569.57 569.443 569.203 569.02 568.945 569.013 569.003 568.82 568.685 568.63 568.655 568.71 568.635 568.508 568.268 568.068 567.805 567.605 567.463 567.33 567.263 567.195 567.125 567.008 566.875 566.693 566.535 566.228 565.94 565.678 565.403 565.213 565.078 564.91 564.748 564.513 564.265 564.028 563.753 563.503 563.215 563.028 563.113 563.005 562.873 562.715 562.398 562.21 561.99 561.76 561.42 561.123 560.803 560.528 560.243 559.935 559.865 559.825 559.645 559.408 559.135 558.993 558.675 558.353 558.005 557.753 557.513 557.26 557.063 556.62 556.363 556.19 556.088 555.713 555.498 555.17 554.773 554.615 554.3 553.945 553.483 553.138 552.853 552.643 552.48 552.28 552.043 551.853 551.555 551.258 550.955 550.758 550.568 550.298 549.988 549.843 549.728 549.62 549.478 549.315 549.193 549.05 548.843 548.665 548.478 548.315 548.08 547.983 547.883 547.79 547.8 547.81 547.8 547.63 547.525 547.443 547.383 547.333 547.285 547.273 547.28 547.205 547.133 546.988 546.978 546.965 546.97 546.895 546.755 546.67 546.725 546.783 546.828 546.863 546.815 546.778 546.733 546.45 546.105 545.91 545.67 545.395 545.048 544.803 544.548 544.358 544.278 544.123 544.058 544.015 543.885 543.735 543.523 543.255 543.098 543.083 543.053 543 542.813 542.685 542.47 542.428 542.403 542.343 542.215 542.148 542.065 541.983 541.903 541.828 541.623 541.363 541.188 541.008 540.87 540.673 540.44 540.375 540.205 540.013 539.903 539.718 539.568 539.253 539.138 538.953 538.835 538.63 538.44 538.458 538.358 538.153 538.158 538.218 538.313 538.608 538.675 538.313 537.78 537.838 538.403 538.603 538.835 539.163 539.293 539.39 539.503 539.575 539.615 539.525 539.575 539.563 539.353 539.16 539.015 539.018 538.948 538.968 538.895 538.723 538.72 538.768
575.41 575.425 575.275 574.943 574.953 574.94 574.845 574.595 574.335 574.168 574.305 574.803 575.173 575.188 575.125 575.055 575.038 575.038 574.998 574.92 574.85 574.735 574.383 574.033 574.048 574.11 573.823 573.508 573.453 573.718 574.13 574.585 575.145 575.458 575.54 575.563 575.57 575.648 575.665 575.605 575.41 574.96 574.718 574.538 574.198 574.053 574.145 574.31 574.385 574.348 574.425 574.578 574.688 574.803 574.825 574.845 574.863 574.895 574.935 575.14 575.435 575.393 575.543 575.753 575.708 575.528 575.288 575.125 575.058 575.023 574.903 574.895 574.868 574.978 574.87 574.843 574.95 574.895 574.778 574.783 574.775 574.78 574.75 574.703 574.64 574.638 574.628 574.613 574.615 574.543 574.523 574.535 574.555 574.478 574.45 574.365 574.258 574.145 574.088 573.93 573.678 573.423 573.3 573.13 573 572.928 572.923 572.883 572.98 573.005 572.825 572.77 572.625 572.475 572.38 572.308 572.338 572.328 572.3 572.295 572.313 572.308 572.16 572.078 572.068 572.093 572.058 572.143 572.195 572.305 572.503 572.22 572.07 572.035 571.998 571.97 571.948 571.89 571.79 571.655 571.54 571.45 571.423 571.35 571.328 571.24 571.143 571.02 570.825 570.75 570.745 570.728 570.66 570.593 570.505 570.383 570.205 570.043 570.008 569.903 569.73 569.72 569.77 569.533 569.323 569.36 569.338 569.223 569.188 569.063 569.013 569.03 569.103 569.038 568.973 568.763 568.463 568.215 567.87 567.688 567.568 567.51 567.47 567.445 567.403 567.243 567.128 566.993 566.813 566.56 566.263 565.993 565.775 565.613 565.533 565.373 565.185 564.908 564.69 564.428 564.125 563.82 563.523 563.405 563.53 563.36 563.383 563.19 562.85 562.708 562.49 562.168 561.87 561.598 561.27 560.988 560.758 560.515 560.465 560.298 560.038 559.785 559.555 559.323 559.04 558.713 558.51 558.26 557.968 557.725 557.46 557.095 556.815 556.63 556.553 556.288 555.963 555.67 555.36 554.973 554.735 554.418 553.86 553.468 553.333 553.113 552.928 552.645 552.443 552.223 551.933 551.663 551.42 551.288 551.093 550.81 550.508 550.328 550.173 550.065 549.84 549.693 549.613 549.493 549.295 549.095 548.9 548.725 548.528 548.47 548.41 548.26 548.243 548.25 548.205 548.068 547.953 547.923 547.78 547.725 547.715 547.703 547.718 547.593 547.44 547.363 547.308 547.265 547.255 547.19 547.07 547.113 547.185 547.148 547.11 547.088 546.98 546.985 546.963 546.758 546.46 546.188 545.908 545.61 545.295 545.18 545.008 544.81 544.698 544.513 544.445 544.415 544.228 544.02 543.845 543.595 543.465 543.423 543.355 543.275 543.15 542.993 542.795 542.695 542.683 542.628 542.595 542.458 542.325 542.245 542.183 542.175 541.973 541.715 541.5 541.293 541.18 540.993 540.765 540.685 540.498 540.328 540.208 540.035 539.92 539.665 539.44 539.303 539.083 538.975 538.883 538.835 538.75 538.71 538.698 538.813 539.043 539.293 539.253 538.95 538.41 538.585 539.173 539.195 539.413 539.688 539.848 539.95 540.05 540.09 540.115 540.135 540.165 540.133 539.975 539.803 539.663 539.623 539.58 539.62 539.565 539.51 539.378 539.303
575.588 575.578 575.48 575.17 575.11 575.03 574.94 574.78 574.663 574.488 574.763 575.273 575.32 575.285 575.253 575.18 575.143 575.08 575.02 574.97 574.893 574.633 574.088 574.07 574.38 574.27 573.95 573.59 573.543 573.685 573.993 574.383 574.858 575.243 575.293 575.443 575.625 575.678 575.695 575.663 575.543 575.36 574.995 574.53 574.28 574.103 574.205 574.303 574.483 574.52 574.553 574.67 574.778 574.778 574.82 574.853 574.923 575.02 575.183 575.653 575.783 575.818 575.858 575.883 575.918 575.915 575.77 575.303 575.065 575.093 574.953 574.93 575.15 575.213 574.993 574.885 574.988 574.965 574.928 574.933 574.883 574.818 574.79 574.743 574.703 574.695 574.693 574.688 574.678 574.6 574.63 574.613 574.618 574.563 574.533 574.463 574.345 574.233 574.043 573.833 573.563 573.353 573.21 573.165 573.05 572.978 572.943 572.92 573.05 573.045 572.975 572.83 572.713 572.535 572.39 572.325 572.315 572.313 572.318 572.29 572.2 572.185 572.11 572.133 572.143 572.135 572.118 572.158 572.188 572.245 572.35 572.098 572.015 571.93 571.913 571.948 571.9 571.83 571.793 571.66 571.575 571.505 571.455 571.433 571.373 571.3 571.213 571.003 570.87 570.77 570.733 570.718 570.68 570.573 570.473 570.37 570.193 569.953 569.978 569.805 569.755 569.89 569.733 569.618 569.745 569.635 569.425 569.218 569.128 569.135 569.183 569.28 569.288 569.18 569.163 569.008 568.7 568.445 568.1 567.9 567.903 567.905 567.825 567.753 567.598 567.453 567.353 567.223 567.048 566.788 566.508 566.233 566.098 566.053 565.9 565.755 565.523 565.325 565.08 564.79 564.49 564.22 563.87 563.778 563.665 563.658 563.655 563.553 563.418 563.133 562.945 562.633 562.328 562.038 561.748 561.465 561.268 561.158 561.018 560.778 560.525 560.13 559.823 559.62 559.35 559.153 558.898 558.668 558.355 558.04 557.828 557.593 557.378 557.143 557.08 556.93 556.67 556.248 555.818 555.478 555.088 554.778 554.19 553.92 553.818 553.555 553.393 553.138 552.863 552.615 552.358 552.158 551.938 551.735 551.538 551.315 551.018 550.845 550.673 550.473 550.3 550.205 550.12 549.925 549.748 549.59 549.368 549.24 549.083 549.01 548.9 548.778 548.738 548.673 548.675 548.62 548.423 548.373 548.268 548.168 548.145 548.103 548.053 547.975 547.828 547.73 547.633 547.553 547.558 547.538 547.49 547.46 547.415 547.4 547.383 547.36 547.225 547.188 547.153 547 546.773 546.423 546.158 545.848 545.733 545.528 545.298 545.128 544.988 544.928 544.798 544.69 544.518 544.325 544.12 543.945 543.845 543.815 543.725 543.63 543.52 543.378 543.13 542.97 543.04 542.99 542.893 542.78 542.67 542.518 542.438 542.393 542.25 542.103 541.815 541.64 541.473 541.28 541.095 541.005 540.908 540.795 540.655 540.513 540.273 540.033 539.745 539.648 539.555 539.505 539.458 539.323 539.268 539.215 539.3 539.468 539.623 539.825 539.79 539.603 539.255 539.34 539.74 539.85 540.053 540.245 540.428 540.518 540.568 540.63 540.66 540.725 540.68 540.623 540.553 540.475 540.355 540.328 540.358 540.428 540.375 540.29 540.143 540.055
575.773 575.7 575.58 575.353 575.225 575.155 575.13 575.17 575.175 575.303 575.43 575.42 575.423 575.41 575.4 575.273 575.185 575.143 575.083 575.023 574.92 574.778 574.64 574.418 574.453 574.333 573.858 573.628 573.598 573.723 574.105 574.318 574.513 574.965 575.063 575.373 575.573 575.618 575.63 575.608 575.523 575.328 574.918 574.478 574.313 574.425 574.44 574.495 574.643 574.698 574.678 574.735 574.76 574.808 574.903 574.915 574.988 575.223 575.585 575.738 575.823 575.883 575.933 575.955 575.993 576.003 575.913 575.573 575.113 575.108 575.073 575.11 575.43 575.273 575.04 575.028 575.22 575.185 574.968 574.965 574.923 574.885 574.843 574.815 574.785 574.75 574.738 574.748 574.758 574.67 574.618 574.593 574.638 574.64 574.615 574.608 574.513 574.208 573.848 573.6 573.483 573.338 573.198 573.163 573.125 573.113 573.113 573.038 573.093 573.005 573.003 572.963 572.828 572.555 572.388 572.318 572.318 572.293 572.205 572.16 572.125 572.11 572.14 572.155 572.14 572.185 572.243 572.285 572.273 572.273 572.208 572.045 571.98 571.923 571.805 571.675 571.683 571.553 571.473 571.518 571.528 571.41 571.433 571.433 571.325 571.248 571.138 570.988 570.855 570.843 570.773 570.695 570.623 570.52 570.415 570.333 570.24 570.115 570.053 570.018 569.978 569.845 569.693 569.655 569.62 569.518 569.348 569.318 569.308 569.425 569.483 569.488 569.518 569.408 569.403 569.343 569 568.655 568.403 568.265 568.263 568.168 568.08 568.07 567.92 567.755 567.663 567.493 567.295 567.088 566.84 566.538 566.403 566.338 566.228 566.05 565.81 565.608 565.358 565.02 564.773 564.54 564.358 564.293 564.22 564.155 564.103 564.02 563.903 563.638 563.383 563.063 562.805 562.485 562.215 562.015 561.878 561.785 561.585 561.323 560.97 560.51 560.253 560.145 559.865 559.55 559.26 559.038 558.788 558.443 558.275 558.138 557.918 557.708 557.553 557.385 557.085 556.638 556.31 555.973 555.628 555.23 554.715 554.413 554.238 554.083 553.855 553.653 553.318 553.035 552.848 552.638 552.413 552.175 551.935 551.783 551.578 551.323 551.115 550.95 550.803 550.653 550.535 550.42 550.253 550.02 549.835 549.778 549.663 549.548 549.38 549.253 549.213 549.208 549.193 549.095 548.91 548.793 548.693 548.59 548.525 548.46 548.408 548.295 548.24 548.163 548.018 547.923 547.905 547.883 547.895 547.81 547.728 547.683 547.593 547.61 547.518 547.4 547.378 547.28 547.068 546.715 546.418 546.073 546.015 545.855 545.658 545.445 545.313 545.285 545.175 544.993 544.823 544.64 544.498 544.348 544.268 544.183 544.085 544.013 543.943 543.82 543.553 543.358 543.243 543.178 543.103 542.965 542.89 542.735 542.688 542.575 542.473 542.318 542.135 541.975 541.778 541.58 541.44 541.348 541.293 541.195 541.008 540.843 540.608 540.383 540.135 540.058 540.02 539.915 539.838 539.818 539.798 539.705 539.868 540.023 540.223 540.308 540.295 540.228 540.078 539.813 540.203 540.338 540.528 540.755 541.033 541.068 541.145 541.195 541.193 541.258 541.283 541.245 541.203 541.118 541.04 541.085 541.135 541.203 541.115 541.063 540.955 540.783
575.883 575.823 575.72 575.558 575.303 575.295 575.383 575.578 575.593 575.578 575.568 575.573 575.545 575.545 575.508 575.42 575.313 575.258 575.17 575.07 574.97 574.875 574.778 574.66 574.615 574.45 573.968 573.793 573.69 573.743 573.97 574.275 574.548 574.9 575.03 575.153 575.415 575.54 575.598 575.585 575.49 575.25 574.988 574.588 574.453 574.733 574.858 574.79 574.763 574.773 574.8 574.838 574.855 574.898 574.943 574.983 575.053 575.238 575.523 575.61 575.55 575.735 575.965 576.033 576.038 576.045 575.905 575.525 575.105 575.075 575.305 575.238 575.245 575.143 575.068 575.065 575.33 575.19 575.085 575.005 574.97 574.93 574.888 574.858 574.843 574.843 574.848 574.835 574.835 574.74 574.653 574.675 574.67 574.68 574.683 574.625 574.338 573.97 573.75 573.505 573.41 573.358 573.235 573.213 573.235 573.243 573.238 573.158 573.083 573.035 573.008 573.015 572.918 572.688 572.43 572.373 572.34 572.27 572.208 572.178 572.123 572.193 572.2 572.198 572.163 572.093 572.163 572.273 572.288 572.175 572.095 571.895 571.803 571.66 571.518 571.473 571.45 571.41 571.385 571.35 571.323 571.215 571.248 571.23 571.218 571.2 571.075 570.983 570.873 570.83 570.748 570.633 570.543 570.473 570.423 570.405 570.34 570.295 570.248 570.135 569.935 569.848 569.79 569.79 569.683 569.598 569.645 569.658 569.763 569.788 569.84 569.853 569.843 569.875 569.845 569.565 569.23 568.918 568.78 568.528 568.54 568.325 568.245 568.285 568.15 568.01 567.85 567.745 567.54 567.353 567.133 566.828 566.575 566.435 566.295 566.078 565.778 565.628 565.4 565.208 565.053 564.845 564.948 564.825 564.718 564.648 564.555 564.42 564.278 564.06 563.76 563.453 563.245 562.99 562.758 562.548 562.455 562.333 562.115 561.828 561.378 560.945 560.67 560.553 560.26 559.84 559.585 559.398 559.198 558.855 558.625 558.495 558.33 558.158 558.105 557.885 557.405 557.053 556.878 556.6 556.245 555.698 555.265 554.913 554.7 554.513 554.258 554.063 553.763 553.548 553.408 553.18 552.98 552.635 552.428 552.203 551.993 551.79 551.59 551.433 551.25 551.08 550.978 550.87 550.753 550.528 550.42 550.24 550.16 550.02 549.858 549.69 549.675 549.63 549.568 549.54 549.385 549.235 549.128 549.02 548.973 548.938 548.813 548.71 548.623 548.55 548.388 548.308 548.24 548.215 548.205 548.123 548.038 547.97 547.863 547.845 547.835 547.735 547.738 547.628 547.393 547.063 546.748 546.415 546.403 546.218 546.003 545.82 545.745 545.653 545.533 545.333 545.138 544.963 544.85 544.723 544.655 544.518 544.418 544.343 544.23 544.068 543.858 543.628 543.44 543.363 543.265 543.095 542.995 542.89 542.855 542.78 542.7 542.558 542.413 542.24 542.118 541.955 541.86 541.733 541.605 541.528 541.33 541.188 540.98 540.968 540.808 540.608 540.5 540.425 540.273 540.428 540.433 540.33 540.58 540.735 540.875 540.89 540.863 540.843 540.703 540.205 540.705 540.925 540.998 541.258 541.495 541.553 541.72 541.78 541.788 541.81 541.84 541.855 541.888 541.85 541.76 541.755 541.83 541.863 541.878 541.84 541.718 541.438
575.988 575.933 575.798 575.67 575.485 575.438 575.528 575.685 575.733 575.675 575.66 575.66 575.645 575.65 575.6 575.55 575.52 575.38 575.228 575.178 575.193 575.168 574.993 574.828 574.723 574.648 574.553 574.435 574.078 573.803 573.868 574.045 574.458 575.013 575.17 575.15 575.228 575.47 575.55 575.565 575.538 575.515 575.375 574.92 574.503 574.543 574.77 574.843 574.888 574.97 575.13 575.025 574.95 574.995 575.033 575.055 575.053 575.135 575.403 575.458 575.48 575.453 575.665 575.95 576.103 576.043 575.855 575.535 575.183 575.065 575.185 575.26 575.233 575.17 575.165 575.188 575.205 575.2 575.11 575.058 575.03 574.98 574.953 574.925 574.935 574.928 574.888 574.88 574.88 574.873 574.788 574.735 574.718 574.785 574.725 574.615 574.288 573.918 573.655 573.483 573.438 573.455 573.383 573.315 573.228 573.18 573.213 573.19 573.163 573.13 573.085 573.013 572.968 572.905 572.55 572.405 572.35 572.313 572.263 572.205 572.25 572.315 572.333 572.318 572.275 572.14 572.11 572.08 571.973 571.903 571.895 571.775 571.685 571.563 571.493 571.455 571.438 571.373 571.298 571.215 571.185 571.08 571.06 571.055 571.015 570.955 570.893 570.843 570.735 570.733 570.685 570.613 570.6 570.513 570.43 570.413 570.405 570.383 570.308 570.163 570.02 569.985 569.938 569.87 569.89 569.845 569.838 569.923 569.998 570.038 570.153 570.21 570.17 570.083 569.935 569.718 569.405 569.173 569.04 568.93 568.81 568.62 568.45 568.335 568.228 568.12 567.915 567.863 567.688 567.533 567.328 566.985 566.673 566.503 566.323 566.06 565.885 565.668 565.525 565.458 565.333 565.268 565.29 565.218 565.213 565.13 564.988 564.813 564.718 564.518 564.218 563.905 563.64 563.433 563.2 563.128 563.03 562.883 562.645 562.255 561.76 561.418 561.093 560.915 560.62 560.238 559.905 559.72 559.535 559.23 558.97 558.853 558.753 558.535 558.44 558.208 557.828 557.403 557.28 556.993 556.723 556.248 555.748 555.345 555.123 554.89 554.693 554.57 554.365 554.135 553.983 553.815 553.578 553.325 553.075 552.775 552.49 552.238 552 551.765 551.66 551.52 551.41 551.368 551.268 551.03 550.905 550.765 550.623 550.48 550.325 550.218 550.133 549.978 550.015 549.985 549.888 549.715 549.525 549.478 549.433 549.318 549.23 549.133 549.025 548.93 548.745 548.648 548.605 548.6 548.563 548.46 548.345 548.263 548.213 548.26 548.238 548.13 548.083 547.955 547.753 547.488 547.26 546.955 546.85 546.658 546.475 546.35 546.248 546.095 545.908 545.683 545.515 545.37 545.22 545.12 545.028 544.89 544.743 544.623 544.47 544.27 544.018 543.85 543.69 543.555 543.39 543.21 543.163 543.013 542.953 542.92 542.845 542.76 542.718 542.618 542.485 542.358 542.258 542.093 541.993 541.93 541.693 541.525 541.445 541.358 541.36 541.208 540.988 540.89 540.94 541.09 541.01 541.063 541.285 541.435 541.495 541.583 541.488 541.378 541.003 540.578 541.168 541.42 541.523 541.78 541.913 542.043 542.19 542.265 542.283 542.403 542.42 542.463 542.523 542.55 542.53 542.52 542.55 542.468 542.54 542.575 542.488 542.323
576.073 575.995 575.868 575.698 575.57 575.573 575.663 575.755 575.793 575.83 575.798 575.803 575.795 575.758 575.71 575.663 575.593 575.508 575.41 575.428 575.478 575.38 575.14 574.978 574.853 574.785 574.675 574.625 574.415 574.075 573.928 573.96 574.288 574.668 575.265 575.303 575.285 575.408 575.53 575.578 575.585 575.598 575.528 575.115 574.718 574.595 574.728 574.918 575.05 575.248 575.513 575.31 575.148 575.058 575.04 575.098 575.088 575.03 575.193 575.368 575.393 575.423 575.485 575.678 575.925 576.085 576.035 575.73 575.398 575.158 575.203 575.263 575.26 575.303 575.24 575.203 575.215 575.203 575.13 575.123 575.095 575.025 574.993 574.99 574.99 574.99 574.998 574.998 574.985 574.915 574.855 574.865 574.948 574.928 574.665 574.388 574.058 573.77 573.618 573.523 573.49 573.548 573.513 573.465 573.325 573.203 573.21 573.198 573.165 573.133 573.083 573.028 572.968 572.928 572.683 572.543 572.46 572.375 572.35 572.298 572.348 572.36 572.415 572.468 572.408 572.338 572.128 571.975 571.903 571.87 571.828 571.82 571.703 571.62 571.568 571.54 571.473 571.418 571.338 571.235 571.153 571.03 570.97 570.903 570.855 570.785 570.715 570.67 570.655 570.67 570.658 570.63 570.633 570.588 570.41 570.35 570.358 570.36 570.345 570.255 570.16 570.075 570.038 570.06 570.063 570.01 570.035 570.063 570.1 570.295 570.513 570.475 570.298 570.153 570.005 569.825 569.638 569.468 569.258 569.095 568.953 568.878 568.723 568.525 568.388 568.275 568.113 567.995 567.818 567.628 567.455 567.173 566.863 566.65 566.363 566.193 566.07 565.938 565.868 565.748 565.638 565.59 565.605 565.51 565.568 565.568 565.36 565.203 565.15 564.83 564.535 564.318 564.12 563.865 563.77 563.703 563.545 563.328 563.088 562.668 562.248 561.89 561.593 561.31 560.953 560.583 560.28 560.098 559.8 559.57 559.408 559.235 559.11 558.993 558.825 558.57 558.313 557.85 557.595 557.355 557.128 556.73 556.2 555.838 555.545 555.29 555.145 555.055 554.93 554.778 554.668 554.508 554.35 554.113 553.848 553.443 553.08 552.803 552.533 552.29 552.163 552.095 552.025 551.903 551.768 551.658 551.483 551.283 551.125 550.92 550.753 550.615 550.485 550.48 550.52 550.448 550.428 550.265 550.075 549.923 549.835 549.79 549.635 549.563 549.525 549.385 549.193 549.04 548.965 548.928 548.86 548.743 548.703 548.645 548.573 548.555 548.5 548.455 548.373 548.228 548.07 547.935 547.79 547.583 547.36 547.098 546.875 546.775 546.635 546.473 546.258 546.103 545.938 545.76 545.643 545.525 545.38 545.193 545.02 544.9 544.738 544.505 544.22 544.055 543.928 543.805 543.693 543.49 543.32 543.205 543.19 543.115 543.08 543.13 543.088 543.048 542.923 542.748 542.578 542.588 542.408 542.358 542.29 542.133 542.09 542.043 541.973 541.9 541.925 541.858 541.783 541.755 541.775 541.875 542.055 542.113 542.048 542.153 542.175 542.013 541.603 541.213 541.673 541.95 542.038 542.193 542.393 542.56 542.745 542.788 542.895 542.968 542.955 543.02 543.1 543.14 543.168 543.205 543.193 543.125 543.178 543.205 543.113 542.98
576.133 576.043 575.92 575.698 575.648 575.67 575.798 575.885 575.928 575.985 575.985 575.963 575.893 575.845 575.818 575.743 575.688 575.668 575.685 575.675 575.68 575.663 575.47 575.385 575.1 574.873 574.685 574.92 574.86 574.29 574.025 574.175 574.37 574.615 575.063 575.358 575.47 575.51 575.558 575.63 575.628 575.653 575.668 575.595 575.423 574.863 574.805 575.048 575.175 575.523 575.758 575.513 575.393 575.243 575.11 575.168 575.188 575.103 575.185 575.305 575.43 575.58 575.585 575.543 575.69 575.943 575.993 575.708 575.395 575.26 575.275 575.27 575.335 575.61 575.47 575.245 575.203 575.203 575.215 575.185 575.165 575.123 575.078 575.063 575.06 575.095 575.1 575.125 575.065 575.003 574.95 575.093 575.008 574.643 574.395 574.19 573.97 573.76 573.668 573.58 573.64 573.73 573.77 573.775 573.595 573.355 573.255 573.213 573.173 573.098 573.055 573.04 573.028 573.02 572.833 572.648 572.523 572.458 572.395 572.37 572.34 572.45 572.495 572.513 572.693 572.54 572.188 571.98 571.855 571.833 571.863 571.85 571.72 571.605 571.593 571.523 571.533 571.453 571.293 571.24 571.173 571.065 570.95 570.8 570.768 570.67 570.663 570.688 570.69 570.66 570.64 570.62 570.59 570.433 570.403 570.45 570.51 570.523 570.435 570.323 570.238 570.13 570.125 570.213 570.165 570.04 570.048 570.09 570.213 570.505 570.563 570.463 570.295 570.21 570.053 569.94 569.795 569.598 569.415 569.303 569.213 569.083 568.88 568.69 568.51 568.38 568.25 568.088 567.93 567.75 567.55 567.32 567.083 566.893 566.583 566.398 566.335 566.255 566.22 566.048 565.985 565.943 565.85 565.745 565.778 565.785 565.688 565.395 565.37 565.245 564.86 564.66 564.523 564.35 564.27 564.198 564.013 563.803 563.48 563.038 562.648 562.373 562.095 561.638 561.28 560.985 560.713 560.488 560.175 559.953 559.79 559.648 559.43 559.358 559.213 558.985 558.708 558.405 557.998 557.703 557.44 557.165 556.608 556.255 556.005 555.823 555.643 555.61 555.58 555.475 555.393 555.315 555.053 554.755 554.473 554.175 553.785 553.533 553.463 553.22 552.84 552.748 552.745 552.61 552.443 552.278 552.1 551.858 551.65 551.435 551.21 551.13 551.048 550.975 550.925 550.928 550.875 550.713 550.495 550.4 550.263 550.21 550.113 550.003 549.915 549.735 549.563 549.483 549.378 549.26 549.195 549.13 549.065 548.988 548.87 548.77 548.763 548.745 548.708 548.528 548.468 548.388 548.265 548.053 547.838 547.578 547.388 547.268 547.053 546.815 546.633 546.475 546.298 546.128 545.963 545.875 545.675 545.435 545.283 545.243 545.078 544.845 544.658 544.383 544.25 544.135 544.043 543.933 543.803 543.62 543.49 543.463 543.408 543.44 543.535 543.48 543.345 543.155 543.02 543.025 542.99 542.935 542.975 542.943 542.865 542.73 542.608 542.513 542.65 542.595 542.523 542.47 542.493 542.585 542.76 542.74 542.543 542.833 542.81 542.58 542.178 541.848 542.28 542.493 542.633 542.68 542.825 543.05 543.278 543.318 543.365 543.448 543.51 543.668 543.615 543.608 543.6 543.723 543.783 543.7 543.748 543.775 543.738 543.615
576.223 576.1 575.908 575.703 575.66 575.675 575.93 576.033 576.113 576.143 576.085 576.065 575.995 575.943 575.893 575.865 575.875 575.888 575.89 575.875 575.853 575.82 575.768 575.708 575.485 575.043 574.935 575.15 575.11 574.333 574.315 574.66 575.023 575.208 575.008 575.068 575.28 575.468 575.54 575.643 575.7 575.733 575.743 575.693 575.558 575.28 575.038 575.228 575.298 575.51 575.873 575.61 575.373 575.29 575.245 575.238 575.268 575.115 575.233 575.348 575.508 575.69 575.78 575.643 575.623 575.748 575.803 575.578 575.295 575.355 575.383 575.54 575.9 575.96 575.728 575.32 575.21 575.25 575.298 575.25 575.215 575.213 575.19 575.175 575.148 575.175 575.163 575.12 575.05 575.043 574.983 574.908 574.675 574.385 574.238 574.19 574.158 573.993 573.898 573.948 573.938 573.98 574.05 574.123 573.92 573.495 573.328 573.23 573.185 573.168 573.103 573.11 573.088 573.128 572.965 572.748 572.64 572.518 572.505 572.49 572.54 572.798 572.77 572.593 572.615 572.363 572.128 572.07 571.87 571.883 571.968 571.805 571.673 571.618 571.618 571.598 571.595 571.505 571.33 571.265 571.19 571.155 571.088 570.933 570.863 570.785 570.793 570.915 570.883 570.818 570.7 570.625 570.583 570.54 570.585 570.585 570.533 570.543 570.578 570.635 570.53 570.448 570.618 570.673 570.515 570.365 570.268 570.258 570.453 570.615 570.578 570.47 570.33 570.215 570.143 570.018 569.878 569.763 569.628 569.518 569.403 569.21 569.043 568.853 568.63 568.57 568.36 568.218 568.013 567.813 567.66 567.443 567.233 567.01 566.808 566.785 566.685 566.628 566.46 566.388 566.29 566.188 566.133 566.065 565.895 565.79 565.755 565.625 565.48 565.448 565.083 564.988 564.873 564.713 564.6 564.525 564.398 564.135 563.798 563.44 562.988 562.685 562.38 561.868 561.598 561.39 561.163 560.968 560.628 560.408 560.19 560.093 559.98 559.895 559.743 559.535 559.248 558.898 558.483 558.353 558.033 557.64 557.348 557.058 556.79 556.7 556.475 556.353 556.313 556.215 556.225 556.075 555.815 555.555 555.27 555.108 554.775 554.498 554.435 554.213 553.91 553.643 553.528 553.43 553.233 552.92 552.695 552.49 552.248 552.045 551.8 551.675 551.555 551.498 551.41 551.37 551.328 551.2 551.048 550.865 550.803 550.695 550.633 550.46 550.328 550.12 549.988 549.915 549.828 549.715 549.678 549.553 549.393 549.358 549.333 549.18 549.135 549.095 549.038 548.96 548.803 548.665 548.58 548.44 548.278 548.073 547.905 547.738 547.465 547.218 546.993 546.838 546.69 546.485 546.343 546.165 545.928 545.755 545.623 545.528 545.365 545.313 545.218 544.803 544.608 544.48 544.358 544.218 544.195 544.003 543.915 543.995 543.913 543.845 543.873 543.788 543.825 543.588 543.48 543.485 543.415 543.43 543.445 543.49 543.423 543.35 543.288 543.165 543.208 543.305 543.315 543.235 543.213 543.335 543.443 543.415 543.34 543.508 543.403 543.158 542.66 542.46 543.078 543.203 543.293 543.293 543.378 543.58 543.83 543.888 543.878 543.903 544.003 544.123 544.185 544.07 544.123 544.183 544.283 544.21 544.22 544.305 544.338 544.258
576.303 576.223 576.178 575.928 575.723 575.783 575.97 576.23 576.298 576.29 576.305 576.268 576.198 576.123 576.065 576.058 576.088 576.073 576.088 576.06 575.993 575.985 575.96 575.905 575.81 575.6 575.33 575.338 575.085 574.493 574.53 575.08 575.568 575.545 575.255 575.035 575.068 575.228 575.473 575.68 575.778 575.808 575.843 575.818 575.735 575.52 575.243 575.39 575.36 575.528 575.688 575.628 575.428 575.365 575.395 575.388 575.395 575.478 575.52 575.51 575.558 575.55 575.658 575.928 575.74 575.653 575.62 575.375 575.398 575.513 575.81 576.145 576.118 576.05 575.803 575.445 575.32 575.325 575.335 575.295 575.3 575.265 575.24 575.21 575.213 575.155 575.24 575.435 575.273 575.083 574.743 574.6 574.513 574.38 574.408 574.54 574.51 574.363 574.388 574.533 574.31 574.215 574.083 574.16 573.963 573.663 573.443 573.378 573.35 573.238 573.118 573.125 573.168 573.213 573.188 573.015 572.848 572.665 572.69 572.903 573.16 573.49 573.408 573.068 572.688 572.325 572.298 572.448 572.453 572.408 572.12 571.87 571.738 571.64 571.635 571.655 571.655 571.49 571.368 571.285 571.218 571.218 571.225 571.193 571.068 570.96 570.998 571.073 570.988 570.838 570.748 570.675 570.598 570.638 570.605 570.63 570.588 570.665 570.813 570.943 570.958 570.925 570.97 570.995 570.903 570.793 570.785 570.775 570.703 570.7 570.625 570.505 570.38 570.303 570.225 570.123 570.008 569.923 569.823 569.68 569.535 569.393 569.263 569.02 568.775 568.665 568.52 568.35 568.205 567.995 567.753 567.558 567.368 567.168 567.058 567.035 566.95 566.85 566.763 566.638 566.46 566.403 566.35 566.228 566.165 566.023 565.893 565.858 565.753 565.59 565.448 565.273 565.175 565.065 564.99 565 564.775 564.413 564.015 563.635 563.24 562.918 562.565 562.23 562.023 561.785 561.76 561.453 561.068 560.815 560.615 560.483 560.6 560.64 560.443 560.158 559.71 559.443 559.278 559.12 558.903 558.653 558.33 558.065 557.79 557.633 557.428 557.263 557.185 557.078 556.96 556.805 556.628 556.358 556.13 556.025 555.808 555.478 555.263 555.125 554.91 554.665 554.345 554.278 554.02 553.598 553.298 553.13 552.878 552.623 552.32 552.205 552.115 552.008 551.925 551.833 551.78 551.675 551.548 551.43 551.328 551.203 551.118 550.983 550.833 550.645 550.47 550.38 550.26 550.148 550.078 549.988 549.84 549.73 549.695 549.623 549.518 549.4 549.37 549.325 549.163 549.035 548.978 548.835 548.735 548.54 548.365 548.14 547.868 547.615 547.4 547.245 547.045 546.823 546.67 546.485 546.26 546.035 545.943 545.818 545.755 545.73 545.633 545.283 545.04 544.878 544.765 544.755 544.67 544.56 544.465 544.443 544.373 544.248 544.198 544.22 544.17 543.99 543.958 543.92 543.89 543.853 543.863 543.92 543.935 543.79 543.75 543.815 543.828 543.845 544.02 543.928 543.975 544.105 544.205 544.043 543.883 544.118 543.988 543.478 543.035 543.093 543.473 543.738 543.838 543.823 543.853 544.02 544.27 544.363 544.408 544.418 544.54 544.615 544.713 544.763 544.865 544.703 544.698 544.785 544.868 544.893 544.898 544.858
576.438 576.305 576.285 576.08 575.848 575.958 576.135 576.533 576.55 576.543 576.655 576.558 576.393 576.298 576.308 576.355 576.315 576.29 576.245 576.185 576.12 576.11 576.075 576.068 576.01 575.935 575.83 575.66 575.293 574.758 574.775 575.433 575.688 575.55 575.23 575.288 575.31 575.14 575.428 575.795 575.885 575.933 575.96 575.945 575.87 575.715 575.423 575.453 575.41 575.59 575.645 575.708 575.508 575.448 575.48 575.458 575.538 575.69 575.673 575.608 575.578 575.633 575.658 576.048 576.065 575.908 575.765 575.745 575.893 575.808 575.988 576.28 576.273 576.198 576.01 575.655 575.375 575.358 575.34 575.298 575.295 575.295 575.305 575.245 575.258 575.39 575.67 576.068 575.96 575.673 575.188 574.923 574.815 574.66 574.78 574.765 574.598 574.59 574.61 574.498 574.293 574.093 573.968 574.088 573.918 573.753 573.755 573.858 573.68 573.375 573.193 573.215 573.318 573.373 573.463 573.393 573.053 572.89 572.895 573.23 573.63 573.935 573.605 573.055 572.558 572.36 572.433 572.65 572.838 572.753 572.37 572.073 571.835 571.72 571.655 571.785 571.863 571.68 571.568 571.525 571.335 571.313 571.398 571.565 571.36 571.3 571.373 571.31 571.048 570.81 570.713 570.655 570.618 570.633 570.68 570.695 570.648 570.798 570.97 571.03 571.053 571.048 571.033 571.013 571.003 570.983 570.943 570.91 570.793 570.738 570.665 570.52 570.43 570.348 570.273 570.19 570.1 570.045 569.978 569.905 569.735 569.593 569.423 569.215 569.01 568.865 568.72 568.553 568.415 568.183 567.863 567.648 567.463 567.288 567.205 567.22 567.18 567.055 567.003 566.885 566.715 566.573 566.543 566.483 566.423 566.36 566.248 566.185 566.045 565.985 565.848 565.62 565.525 565.393 565.325 565.265 565.058 564.68 564.233 563.88 563.54 563.185 563.038 562.795 562.518 562.61 562.398 562.05 561.658 561.305 561.023 561.238 561.313 561.045 560.813 560.565 560.323 560.308 560.108 559.76 559.568 559.318 559.023 558.855 558.678 558.485 558.323 558.183 558.053 557.888 557.725 557.643 557.393 557.233 557.118 556.963 556.823 556.518 556.19 556.048 555.83 555.565 555.223 554.99 554.775 554.305 553.955 553.72 553.465 553.21 552.968 552.733 552.623 552.533 552.485 552.385 552.355 552.238 552.105 552.025 551.89 551.67 551.533 551.463 551.388 551.275 551.045 550.858 550.705 550.593 550.46 550.413 550.195 550.068 550.06 550.028 549.88 549.765 549.725 549.693 549.465 549.405 549.388 549.268 549.17 549.005 548.798 548.518 548.27 548.06 547.835 547.658 547.46 547.23 547.06 546.82 546.593 546.48 546.325 546.228 546.195 546.1 546.01 545.79 545.55 545.393 545.29 545.238 545.253 545.143 545.038 544.94 544.813 544.74 544.598 544.538 544.473 544.443 544.48 544.363 544.33 544.405 544.425 544.44 544.455 544.365 544.24 544.398 544.365 544.368 544.305 544.583 544.69 544.758 544.793 544.75 544.545 544.645 544.53 543.92 543.615 543.673 543.99 544.203 544.258 544.253 544.308 544.535 544.725 544.79 544.903 544.995 545.113 545.183 545.265 545.315 545.278 545.203 545.178 545.3 545.453 545.47 545.47 545.448
576.575 576.54 576.593 576.3 576.015 576.298 576.65 576.773 576.86 576.92 576.935 576.795 576.64 576.68 576.608 576.595 576.563 576.508 576.428 576.35 576.22 576.193 576.198 576.15 576.125 576.09 576.06 575.995 575.78 575.433 575.393 575.563 575.698 575.418 575.335 575.668 575.745 575.675 575.78 575.93 576.013 576.075 576.085 576.065 576.013 575.835 575.438 575.483 575.545 575.808 575.745 575.648 575.623 575.545 575.51 575.523 575.653 575.745 575.715 575.788 575.768 575.808 575.858 576.19 576.238 576.165 576.115 576.21 576.205 576.095 576.175 576.333 576.343 576.295 576.155 575.783 575.438 575.418 575.378 575.343 575.37 575.363 575.33 575.36 575.49 575.955 576.233 576.19 576.15 576.078 575.933 575.66 575.515 575.2 574.94 574.893 574.773 574.725 574.515 574.278 574.138 574.085 574.03 573.983 573.888 573.91 573.975 573.988 573.745 573.423 573.285 573.303 573.37 573.455 573.595 573.745 573.413 573.188 573.115 573.358 573.57 573.698 573.513 573.015 572.57 572.493 572.53 572.703 572.813 572.688 572.335 572.24 572.148 571.998 571.788 571.805 571.943 571.973 571.893 571.845 571.585 571.54 571.673 571.863 571.945 571.878 571.943 571.71 571.308 570.878 570.695 570.695 570.723 570.673 570.73 570.753 570.76 570.873 570.983 571.04 571.068 571.058 571.073 571.088 571.113 571.12 571.058 570.983 570.875 570.828 570.738 570.623 570.535 570.445 570.343 570.258 570.19 570.23 570.19 570.065 569.908 569.715 569.505 569.348 569.19 569.075 568.918 568.743 568.503 568.238 568.03 567.77 567.53 567.438 567.41 567.483 567.343 567.225 567.153 567.035 566.903 566.808 566.73 566.73 566.785 566.653 566.53 566.503 566.385 566.268 566.153 566.048 565.948 565.81 565.53 565.513 565.37 564.888 564.463 564.218 564.005 563.845 563.67 563.365 563.298 563.195 562.963 562.543 562.26 561.833 561.64 561.878 561.775 561.495 561.338 561.11 561.018 561.053 560.82 560.573 560.268 559.983 559.645 559.42 559.328 559.19 559.113 559.11 558.858 558.678 558.495 558.4 558.165 557.93 557.76 557.72 557.68 557.525 557.123 556.9 556.553 556.195 555.905 555.578 555.325 555.11 554.86 554.478 554.17 553.908 553.683 553.363 553.185 553.138 553.078 552.888 552.863 552.77 552.628 552.515 552.37 552.148 552.068 551.983 551.938 551.69 551.43 551.305 551.12 551.028 550.94 550.83 550.675 550.468 550.45 550.378 550.233 550.215 550.133 549.998 549.725 549.75 549.76 549.678 549.57 549.495 549.233 548.953 548.735 548.53 548.308 548.143 547.905 547.745 547.525 547.343 547.115 546.965 546.78 546.75 546.715 546.63 546.485 546.315 546.145 546.035 545.995 545.88 545.843 545.693 545.495 545.415 545.51 545.385 545.195 545.188 545.053 544.988 544.943 544.905 544.765 544.85 544.995 544.99 544.965 544.943 544.863 544.97 544.868 545.003 545.203 545.27 545.29 545.315 545.355 545.4 545.258 545.145 545.038 544.548 544.295 544.263 544.63 544.703 544.718 544.79 544.823 544.92 545.098 545.32 545.455 545.583 545.69 545.688 545.688 545.648 545.66 545.698 545.768 545.853 545.958 546.05 546.083 545.968
576.82 576.828 576.845 576.465 576.278 576.553 576.99 577.065 577.155 577.26 577.24 577.125 577.153 577.18 577.028 576.935 576.835 576.725 576.61 576.455 576.338 576.245 576.198 576.135 576.01 576.085 576.158 576.128 576.098 575.87 575.73 575.59 575.568 575.588 575.765 575.945 576.04 576.02 576.035 576.09 576.143 576.205 576.263 576.22 576.12 575.858 575.568 575.623 575.528 575.68 575.725 575.628 575.605 575.645 575.598 575.58 575.673 575.828 575.925 575.933 575.95 576.033 576.183 576.36 576.398 576.418 576.475 576.458 576.418 576.325 576.24 576.365 576.46 576.405 576.295 575.993 575.613 575.495 575.438 575.41 575.42 575.488 575.64 575.83 576.053 576.233 576.318 576.29 576.278 576.223 576.14 576.035 575.91 575.65 575.378 575.38 575.35 575.283 574.915 574.658 574.625 574.43 574.23 574.078 574.065 574.133 574.29 574.22 574.015 573.54 573.35 573.398 573.495 573.468 573.533 573.778 573.69 573.373 573.32 573.458 573.435 573.403 573.235 572.883 572.608 572.563 572.72 572.843 572.833 572.768 572.508 572.443 572.475 572.458 572.215 572.023 572.238 572.495 572.543 572.34 571.783 571.69 572.123 572.485 572.408 572.223 572.04 571.78 571.475 571.18 570.87 570.75 570.8 570.703 570.798 570.85 570.885 570.955 570.983 571.033 571.068 571.11 571.083 571.12 571.215 571.335 571.303 571.303 571.208 570.973 570.823 570.708 570.568 570.503 570.42 570.355 570.318 570.335 570.318 570.165 569.97 569.808 569.623 569.525 569.373 569.215 569.033 568.82 568.61 568.398 568.153 567.958 567.788 567.675 567.625 567.693 567.54 567.395 567.34 567.253 567.245 567.18 567.068 567.073 567.073 566.958 566.873 566.88 566.743 566.593 566.503 566.51 566.433 566.273 565.875 565.795 565.54 565.17 564.86 564.673 564.583 564.465 564.49 564.5 563.943 563.535 563.14 562.773 562.733 562.683 562.53 562.39 562.138 561.948 561.818 561.665 561.613 561.555 561.525 561.325 561.063 560.68 560.298 560.128 559.98 559.898 559.893 559.843 559.845 559.565 559.343 559.205 558.928 558.765 558.54 558.433 558.355 558.215 557.883 557.548 557.203 556.798 556.458 556.228 556.095 555.978 555.58 555.203 554.793 554.568 554.365 554.055 553.75 553.695 553.615 553.525 553.423 553.22 553.09 552.98 552.833 552.758 552.66 552.54 552.4 552.153 551.865 551.728 551.53 551.458 551.373 551.233 551.11 550.875 550.765 550.745 550.713 550.718 550.543 550.3 550.13 550.118 550.12 550.103 550.018 549.898 549.65 549.42 549.218 548.998 548.805 548.713 548.608 548.36 548.215 548.04 547.725 547.458 547.353 547.323 547.3 547.18 546.978 546.973 546.853 546.653 546.588 546.43 546.313 546.305 546.23 546.06 545.973 545.938 545.73 545.633 545.753 545.7 545.613 545.49 545.403 545.388 545.53 545.598 545.685 545.54 545.555 545.588 545.685 545.663 545.693 545.905 545.908 545.935 545.95 545.903 545.803 545.603 545.448 545.19 545.053 544.913 545.175 545.213 545.228 545.29 545.355 545.433 545.498 545.75 546.005 546.035 546.078 546.195 546.128 546.098 546.175 546.273 546.313 546.39 546.483 546.58 546.528 546.478
577.123 577.068 576.913 576.54 576.645 577.06 577.37 577.358 577.385 577.528 577.653 577.593 577.703 577.66 577.548 577.45 577.23 577.02 576.83 576.638 576.47 576.328 576.123 575.478 575.448 575.68 576 576.29 576.268 576.188 576.098 575.89 575.73 576.023 576.188 576.225 576.193 576.2 576.2 576.22 576.3 576.368 576.398 576.368 576.218 575.975 575.748 575.82 575.63 575.53 575.65 575.843 575.81 575.675 575.635 575.653 575.673 575.858 575.973 576.008 576.058 576.208 576.35 576.473 576.54 576.583 576.598 576.59 576.543 576.473 576.353 576.443 576.593 576.51 576.423 576.243 575.808 575.66 575.68 575.7 575.748 575.985 576.22 576.36 576.408 576.403 576.41 576.383 576.343 576.278 576.218 576.13 576.038 575.913 575.83 575.773 575.613 575.445 575.27 575.305 575.16 574.808 574.72 574.393 574.15 574.363 574.338 574.17 573.985 573.685 573.36 573.513 573.733 573.655 573.56 573.71 573.718 573.44 573.438 573.648 573.708 573.588 573.195 572.76 572.628 572.683 572.9 572.945 572.978 572.878 572.655 572.903 573.128 572.95 572.878 572.623 572.625 572.888 572.738 572.533 572.118 572.013 572.28 572.483 572.328 572.19 571.973 571.728 571.45 571.22 570.985 570.888 570.855 570.78 570.893 570.925 570.943 571.01 571.088 571.045 571.103 571.093 571.115 571.13 571.1 571.13 571.088 571.178 571.155 571.023 570.905 570.74 570.635 570.523 570.465 570.428 570.395 570.393 570.35 570.21 570.04 569.9 569.753 569.623 569.455 569.258 569.073 568.883 568.705 568.495 568.315 568.098 567.978 567.955 567.903 567.868 567.698 567.6 567.478 567.353 567.375 567.378 567.388 567.34 567.305 567.26 567.163 567.065 566.963 566.92 566.795 566.858 566.91 566.708 566.415 566.2 565.798 565.478 565.318 565.403 565.265 565.178 565.288 565.088 564.695 563.893 563.283 563.113 563.1 563.095 563.078 562.87 562.61 562.523 562.355 562.275 562.225 562.113 562.105 561.975 561.828 561.558 561.068 560.793 560.725 560.645 560.598 560.523 560.468 560.278 559.983 559.795 559.613 559.523 559.438 559.223 558.953 558.715 558.425 558.158 557.84 557.485 557.093 556.903 556.923 556.685 556.3 555.835 555.483 555.245 555.035 554.698 554.34 554.2 554.08 553.975 553.825 553.773 553.668 553.53 553.485 553.405 553.25 552.965 552.813 552.66 552.348 552.165 551.98 551.863 551.793 551.633 551.535 551.34 551.258 551.195 551.163 551.063 550.873 550.67 550.388 550.553 550.62 550.59 550.518 550.355 550.118 549.933 549.745 549.615 549.47 549.348 549.21 549.025 548.768 548.548 548.31 548.015 547.9 547.91 547.858 547.773 547.713 547.595 547.478 547.343 547.298 547.108 546.968 546.848 546.893 546.775 546.65 546.52 546.385 546.46 546.498 546.39 546.318 546.21 546.11 546.063 546.155 546.128 546.243 546.34 546.465 546.475 546.308 546.165 546.18 546.303 546.393 546.513 546.553 546.423 546.26 546.133 545.858 545.663 545.603 545.558 545.703 545.723 545.778 545.833 545.92 545.973 545.99 546.073 546.315 546.45 546.563 546.508 546.58 546.558 546.62 546.698 546.665 546.753 547.005 547.053 546.833 546.748
577.44 577.323 576.985 576.973 577.215 577.72 578.013 577.855 577.588 577.703 578.018 578.163 578.258 578.198 578.103 577.963 577.703 577.453 577.098 576.83 576.593 576.39 576.008 574.998 574.65 575.258 575.83 576.323 576.475 576.413 576.355 576.19 575.878 576.158 576.363 576.41 576.4 576.393 576.38 576.435 576.48 576.525 576.48 576.48 576.383 576.22 575.893 575.795 575.725 575.638 575.86 576.018 575.945 575.76 575.703 575.67 575.655 575.85 576.045 576.188 576.06 576.278 576.46 576.543 576.618 576.685 576.688 576.685 576.638 576.555 576.44 576.563 576.73 576.648 576.533 576.355 575.943 575.793 575.975 576.208 576.315 576.475 576.55 576.563 576.558 576.493 576.48 576.455 576.363 576.3 576.215 576.148 576.055 575.963 575.893 575.703 575.52 575.51 575.51 575.46 575.428 575.303 575.19 574.61 574.228 574.468 574.383 574.11 573.818 573.64 573.398 573.545 573.84 573.73 573.713 573.815 573.715 573.49 573.38 573.635 573.785 573.6 573.008 572.718 572.695 572.825 572.983 573.028 573.148 572.863 572.995 573.33 573.388 573.295 573.253 573.15 573.108 573.045 572.85 572.618 572.443 572.32 572.17 572.235 572.188 572.038 571.845 571.615 571.36 571.248 571.16 571.053 570.935 570.89 571 571.038 571.05 571.085 571.093 571.115 571.103 571.11 571.095 571.11 571.12 571.14 571.058 571.143 571.098 570.995 570.943 570.793 570.73 570.623 570.535 570.53 570.485 570.468 570.378 570.263 570.138 570.01 569.865 569.695 569.483 569.325 569.09 568.89 568.665 568.523 568.39 568.235 568.145 568.133 568.053 567.955 567.848 567.78 567.618 567.448 567.62 567.688 567.668 567.613 567.6 567.51 567.425 567.363 567.253 567.223 567.168 567.143 567.168 566.87 566.653 566.453 566.093 565.778 565.64 565.77 565.745 565.803 565.675 565.178 564.943 564.113 563.88 563.588 563.485 563.42 563.513 563.37 563.228 563.023 562.88 562.75 562.72 562.82 562.703 562.583 562.47 562.228 561.875 561.58 561.413 561.403 561.47 561.265 561.185 561.095 560.818 560.548 560.313 560.135 559.978 559.975 559.685 559.263 559 558.858 558.46 558.178 557.96 557.595 557.415 557.255 557.083 556.68 556.183 555.94 555.633 555.23 554.865 554.635 554.478 554.33 554.303 554.255 554.228 554.123 554.088 553.88 553.668 553.38 553.155 552.985 552.768 552.68 552.54 552.348 552.195 552.053 551.99 551.81 551.74 551.72 551.65 551.51 551.338 551.108 550.928 551.06 551.075 551.07 551.058 550.84 550.64 550.528 550.395 550.335 550.18 549.973 549.793 549.618 549.438 549.225 548.93 548.65 548.575 548.475 548.37 548.39 548.313 548.24 548.065 547.963 547.903 547.77 547.508 547.395 547.378 547.35 547.195 547.085 547.133 547.07 547.033 547.108 546.965 546.863 546.765 546.663 546.528 546.498 546.74 546.908 547.023 546.94 546.823 546.813 546.75 546.765 546.923 547.08 547.095 546.865 546.585 546.533 546.388 546.155 546.108 546.128 546.505 546.303 546.285 546.375 546.423 546.443 546.41 546.52 546.66 546.858 546.83 546.81 546.885 546.92 546.983 547.098 547.135 547.25 547.505 547.505 547.338 547.245
577.655 577.583 577.508 577.553 577.893 578.393 578.52 578.193 577.84 578.125 578.65 578.825 578.88 578.78 578.698 578.51 578.253 577.968 577.528 577.078 576.725 576.428 576.033 575.058 574.813 575.415 576.03 576.508 576.648 576.673 576.66 576.538 576.143 576.198 576.515 576.628 576.61 576.575 576.615 576.648 576.678 576.675 576.653 576.62 576.565 576.43 576.143 575.973 575.905 575.753 575.958 576.065 576.068 576.025 575.835 575.588 575.585 575.828 576.078 576.255 576.15 576.36 576.553 576.645 576.718 576.788 576.788 576.783 576.74 576.635 576.588 576.71 576.813 576.728 576.623 576.463 576.14 576.03 576.298 576.47 576.533 576.61 576.633 576.633 576.635 576.585 576.51 576.44 576.39 576.26 576.115 576.085 575.993 575.928 575.808 575.545 575.673 575.678 575.603 575.555 575.518 575.408 575.1 574.565 574.23 574.415 574.308 574.04 573.753 573.508 573.415 573.493 573.723 573.748 573.845 573.825 573.6 573.373 573.28 573.405 573.553 573.245 572.835 572.763 572.81 573.043 573.07 573.125 573.213 573.01 573.3 573.483 573.625 573.54 573.473 573.365 573.288 573.19 573.033 572.878 572.718 572.528 572.16 571.97 571.928 571.785 571.658 571.525 571.388 571.28 571.215 571.175 571.1 571.063 571.103 571.128 571.105 571.125 571.128 571.133 571.178 571.15 571.158 571.14 571.173 571.173 571.073 571.095 571.05 571 570.918 570.85 570.81 570.768 570.693 570.643 570.595 570.563 570.443 570.355 570.253 570.125 569.96 569.725 569.53 569.273 569.025 568.87 568.73 568.583 568.503 568.383 568.245 568.175 568.095 568.075 568.04 568.005 567.785 567.595 567.88 567.968 567.93 567.855 567.828 567.733 567.65 567.608 567.518 567.45 567.45 567.328 567.205 567.005 566.823 566.768 566.543 566.29 566.265 566.215 566.058 566.038 565.68 565.05 564.838 564.33 564.16 564.135 563.878 563.793 563.848 563.865 563.745 563.593 563.583 563.485 563.39 563.313 563.155 563.158 563.175 562.95 562.565 562.388 562.138 562.05 562.135 561.993 561.945 561.958 561.755 561.37 561.143 560.908 560.685 560.488 560.213 559.833 559.615 559.418 559.17 558.823 558.653 558.313 558.088 557.855 557.833 557.303 556.8 556.533 556.258 555.808 555.388 555.05 554.91 554.76 554.75 554.773 554.688 554.655 554.565 554.315 554.033 553.82 553.63 553.453 553.258 553.063 552.995 552.818 552.735 552.605 552.433 552.303 552.155 552.18 552.118 551.918 551.763 551.58 551.605 551.608 551.578 551.598 551.573 551.425 551.308 551.243 551.13 551.028 550.94 550.733 550.513 550.313 550.16 549.933 549.64 549.4 549.28 549.063 548.933 548.875 548.833 548.785 548.733 548.6 548.508 548.448 548.245 548.1 548.03 548.013 547.778 547.77 547.705 547.623 547.528 547.653 547.445 547.305 547.273 547.22 547.048 547.05 547.263 547.315 547.345 547.393 547.31 547.233 547.18 547.218 547.298 547.395 547.375 547.27 547.093 546.968 546.905 546.735 546.668 546.63 546.793 546.66 546.78 546.9 546.948 546.98 546.92 546.945 547.045 547.158 547.14 547.185 547.278 547.348 547.388 547.485 547.498 547.68 547.755 547.798 547.83 547.783
578.05 578.133 578.173 578.273 578.7 578.935 578.908 578.403 578.253 578.598 579.128 579.388 579.5 579.373 579.29 579.113 578.84 578.433 578.025 577.598 577.145 576.66 576.178 575.53 575.355 575.98 576.478 576.745 576.92 576.963 576.953 576.885 576.625 576.46 576.75 576.838 576.845 576.815 576.813 576.808 576.843 576.825 576.793 576.735 576.643 576.525 576.34 576.2 576.215 575.915 576.005 576.218 576.18 576.083 575.998 575.923 575.875 575.955 576.17 576.235 576.155 576.388 576.618 576.73 576.81 576.873 576.865 576.853 576.838 576.755 576.745 576.833 576.865 576.8 576.728 576.595 576.393 576.408 576.465 576.58 576.638 576.703 576.713 576.69 576.705 576.67 576.608 576.463 576.378 576.22 575.89 575.865 575.83 575.648 575.428 575.503 575.73 575.668 575.585 575.518 575.445 575.328 574.965 574.478 574.213 574.435 574.278 574.008 573.915 573.718 573.57 573.565 573.68 573.878 573.81 573.65 573.418 573.328 573.21 573.168 573.185 572.95 572.835 572.843 573.078 573.255 573.173 573.283 573.13 573.21 573.3 573.575 573.71 573.643 573.538 573.433 573.348 573.265 573.1 572.948 572.815 572.608 572.04 571.84 571.755 571.693 571.65 571.53 571.455 571.345 571.27 571.198 571.193 571.138 571.125 571.143 571.125 571.148 571.135 571.15 571.19 571.14 571.21 571.188 571.185 571.265 571.128 571.128 571.118 571.023 570.97 570.928 570.958 570.975 570.848 570.715 570.658 570.61 570.495 570.438 570.35 570.23 570.068 569.838 569.578 569.318 569.063 568.915 568.81 568.713 568.648 568.513 568.348 568.3 568.26 568.21 568.23 568.168 568.005 567.888 568.145 568.243 568.218 568.168 567.998 567.97 567.915 567.848 567.773 567.628 567.583 567.54 567.425 567.135 566.97 567.11 567.013 566.865 566.79 566.573 566.458 566.248 565.67 565.258 565.12 564.885 564.73 564.438 564.285 564.218 564.248 564.348 564.298 564.173 564.185 564.018 563.88 563.768 563.7 563.615 563.643 563.495 563.225 562.933 563.05 562.945 562.77 562.72 562.47 562.338 562.3 562.17 562.105 561.888 561.543 561.155 560.905 560.575 560.133 560.003 559.745 559.345 559.115 558.948 558.755 558.568 558.4 557.848 557.48 557.218 557.043 556.75 556.318 555.965 555.738 555.605 555.39 555.333 555.253 555.18 554.965 554.72 554.445 554.253 554.09 553.92 553.773 553.56 553.468 553.358 553.19 553.053 552.898 552.763 552.605 552.623 552.615 552.433 552.283 552.073 552.093 552.103 552.095 552.203 552.163 552.053 552.028 551.96 551.893 551.708 551.61 551.463 551.255 551.145 550.883 550.673 550.598 550.365 550.093 549.77 549.568 549.46 549.495 549.518 549.418 549.285 549.135 549.003 548.885 548.713 548.658 548.573 548.455 548.345 548.153 548.08 548.05 548.105 547.943 547.825 547.723 547.66 547.66 547.63 547.533 547.56 547.708 547.765 547.695 547.663 547.655 547.633 547.653 547.685 547.67 547.555 547.483 547.383 547.258 547.158 547.21 547.08 547.263 547.208 547.295 547.388 547.47 547.45 547.42 547.368 547.423 547.465 547.48 547.64 547.805 547.783 547.728 547.928 547.878 548.02 548.043 548.108 548.168 548.175
578.603 578.703 578.915 579.195 579.465 579.663 579.468 578.773 578.708 579.403 579.798 579.933 579.998 579.965 579.865 579.675 579.385 578.94 578.473 578.065 577.683 577.31 576.975 576.6 576.273 576.308 576.655 576.913 577.11 577.23 577.26 577.165 576.963 576.825 577.033 577.098 577.125 577.093 577.038 577 576.998 576.953 576.898 576.86 576.795 576.648 576.483 576.438 576.473 576.133 576.008 576.21 576.24 576.13 576.065 576.053 576.078 576.14 576.29 576.338 576.225 576.398 576.64 576.8 576.903 576.953 576.973 576.97 576.963 576.883 576.84 576.905 576.938 576.9 576.793 576.693 576.57 576.55 576.588 576.673 576.798 576.84 576.818 576.793 576.738 576.698 576.615 576.493 576.348 576.228 575.878 575.598 575.535 575.385 575.178 575.138 575.423 575.573 575.503 575.408 575.335 574.945 574.683 574.398 574.198 574.358 574.243 574.05 574.023 573.845 573.883 573.69 573.668 573.783 573.69 573.43 573.27 573.183 573.068 572.973 572.938 572.85 572.865 572.865 572.873 573.043 573.265 573.333 573.26 573.27 573.253 573.298 573.36 573.435 573.433 573.368 573.283 573.2 573.04 572.883 572.77 572.278 571.933 571.875 571.773 571.668 571.598 571.523 571.43 571.37 571.31 571.24 571.21 571.215 571.183 571.14 571.14 571.135 571.125 571.143 571.16 571.16 571.213 571.223 571.178 571.13 571.15 571.113 571.09 571.053 571.018 571.035 571.005 570.97 570.89 570.798 570.728 570.683 570.553 570.528 570.443 570.363 570.203 569.97 569.728 569.393 569.245 569.093 568.973 568.93 568.873 568.693 568.495 568.598 568.535 568.465 568.473 568.39 568.273 568.18 568.425 568.543 568.53 568.383 568.29 568.245 568.19 568.078 567.965 567.92 567.933 567.898 567.815 567.468 567.273 567.518 567.495 567.27 567.133 566.853 566.515 566.348 565.925 565.843 565.583 565.533 565.283 564.828 564.71 564.803 564.895 564.863 564.82 564.71 564.71 564.533 564.42 564.235 564.09 564.048 563.988 563.835 563.745 563.675 563.673 563.56 563.388 563.33 563.125 563.15 563.01 562.91 562.745 562.433 562.165 561.933 561.635 561.325 560.97 560.688 560.553 560.018 559.68 559.488 559.495 559.503 559.025 558.475 558.128 557.99 557.82 557.608 557.15 556.958 556.663 556.373 556.065 555.913 555.803 555.598 555.428 555.198 554.968 554.71 554.55 554.345 554.18 554.018 553.943 553.895 553.743 553.543 553.4 553.255 553.14 553.135 553.153 552.948 552.733 552.658 552.573 552.548 552.725 552.865 552.8 552.758 552.773 552.73 552.633 552.438 552.188 552.155 551.985 551.803 551.598 551.418 551.323 551.083 550.778 550.53 550.323 550.24 550.225 550.233 550.218 550.063 549.883 549.625 549.5 549.523 549.363 549.075 548.96 548.825 548.725 548.543 548.458 548.393 548.323 548.283 548.183 548.08 548.005 547.908 547.958 548.083 548.138 548.165 548.08 547.92 547.92 547.878 547.918 547.965 547.958 547.923 547.825 547.75 547.628 547.555 547.528 547.46 548.013 547.813 547.915 547.928 547.983 547.89 547.815 547.758 547.698 547.75 547.825 547.995 548.078 548.015 548.038 548.118 548.09 548.245 548.298 548.355 548.39 548.428
579.258 579.605 579.84 580.003 580.223 580.36 580.098 579.488 578.99 579.91 580.268 580.42 580.453 580.413 580.358 580.21 579.945 579.61 579.053 578.573 578.228 577.945 577.723 577.453 577.145 576.83 576.873 577.13 577.383 577.535 577.58 577.51 577.33 577.205 577.338 577.403 577.433 577.34 577.24 577.175 577.153 577.153 577.088 577.06 576.963 576.77 576.638 576.655 576.605 576.263 576.138 576.158 576.133 576.148 576.285 576.203 576.18 576.248 576.298 576.353 576.255 576.265 576.688 576.89 576.998 577.03 577.083 577.098 577.105 577 576.953 576.988 577.025 576.983 576.89 576.79 576.728 576.725 576.75 576.855 576.918 576.945 576.92 576.87 576.798 576.705 576.605 576.44 576.315 576.083 575.783 575.588 575.565 575.495 575.263 574.998 575.018 575.36 575.4 575.238 574.955 574.653 574.44 574.208 574.125 574.273 574.215 574.153 573.99 573.82 573.87 573.758 573.708 573.69 573.368 573.105 573.025 572.983 572.948 572.933 572.908 572.92 572.93 572.875 572.845 572.893 573.11 573.438 573.538 573.425 573.375 573.26 573.173 573.125 573.185 573.113 573.02 572.938 572.903 572.808 572.593 572.115 571.975 571.903 571.75 571.618 571.513 571.448 571.423 571.35 571.328 571.358 571.293 571.28 571.26 571.243 571.23 571.203 571.17 571.17 571.168 571.2 571.17 571.168 571.15 571.128 571.125 571.115 571.105 571.085 571.118 571.13 571.045 570.968 570.923 570.89 570.81 570.773 570.74 570.688 570.603 570.515 570.343 570.113 569.908 569.663 569.503 569.333 569.195 569.223 569.048 568.708 568.715 568.883 568.843 568.788 568.758 568.685 568.438 568.428 568.68 568.793 568.768 568.67 568.628 568.493 568.43 568.313 568.278 568.29 568.225 568.155 568.03 567.783 567.745 567.838 567.68 567.448 567.425 567.178 566.838 566.72 566.635 566.545 566.313 566.073 565.92 565.328 565.413 565.433 565.403 565.343 565.288 565.188 565.073 564.958 564.758 564.648 564.68 564.67 564.538 564.475 564.368 564.293 564.17 564.005 563.863 563.905 563.795 563.763 563.77 563.615 563.285 562.93 562.768 562.55 562.368 562.088 561.705 561.39 561.118 560.613 560.223 560.075 560.178 560.158 559.713 559.185 558.745 558.68 558.648 558.4 558.038 557.623 557.223 557.01 556.71 556.473 556.268 556.048 555.795 555.66 555.543 555.298 555.078 555.025 554.785 554.523 554.36 554.31 554.24 554.085 553.868 553.755 553.68 553.658 553.503 553.355 553.235 553.09 553.07 553.195 553.375 553.51 553.498 553.465 553.47 553.428 553.303 553.093 552.828 552.773 552.618 552.495 552.288 552.135 552.023 551.74 551.44 551.143 551.01 550.895 550.935 550.953 550.895 550.788 550.643 550.373 550.25 550.2 550.068 549.695 549.413 549.3 549.223 549.098 548.888 548.763 548.665 548.678 548.618 548.503 548.483 548.568 548.54 548.508 548.485 548.67 548.475 548.263 548.17 548.19 548.21 548.27 548.243 548.228 548.118 547.943 547.858 547.88 547.785 547.75 548.478 548.183 548.345 548.385 548.32 548.318 548.253 548.22 548.165 548.108 548.08 548.283 548.38 548.37 548.36 548.353 548.4 548.49 548.61 548.623 548.583 548.595
