ncols 378
nrows 31
xllcorner    388176
yllcorner    475210
cellsize     2
NODATA_value -9999
326.741 326.323 326.143 325.908 325.236 324.586 323.731 322.991 322.191 321.166 320.473 319.931 319.068 318.388 318.013 317.401 316.916 316.541 316.238 315.853 315.671 315.371 314.721 314.118 313.691 313.126 312.656 312.311 312.206 312.216 312.161 312.036 311.906 311.783 311.718 311.756 312.308 311.718 311.786 313.981 319.268 317.476 314.021 310.756 310.331 310.018 309.703 309.406 311.223 321.036 319.066 308.768 310.928 317.436 317.756 310.951 306.758 306.091 305.693 305.336 304.936 304.498 304.133 303.771 303.443 303.111 302.796 302.493 302.236 302.008 301.813 301.578 301.356 301.191 301.038 300.853 300.718 300.583 300.413 300.253 300.118 299.936 299.796 299.613 299.426 299.271 298.986 298.621 298.161 297.701 297.153 296.578 296.148 295.846 295.566 295.313 295.128 294.916 294.688 294.476 294.321 294.143 294.003 293.836 293.681 293.498 293.336 293.196 293.021 292.843 292.683 292.531 292.376 292.231 292.073 291.906 291.756 291.611 291.468 291.341 291.216 291.093 290.998 290.846 290.706 290.596 290.503 290.416 290.386 290.306 290.286 290.211 290.083 289.988 289.868 289.741 289.628 289.538 289.426 289.348 289.248 289.118 288.971 288.838 288.701 288.578 288.401 288.241 288.123 288.023 287.856 287.701 287.523 287.361 287.256 287.171 287.093 287.016 286.926 286.843 286.768 286.646 286.541 286.461 286.338 286.276 286.191 286.093 285.991 285.828 285.691 285.593 285.486 285.393 285.303 285.243 285.143 285.076 284.938 284.848 284.756 284.608 284.546 284.463 284.393 284.346 284.298 284.228 284.181 284.111 284.033 283.951 283.891 283.871 283.831 283.766 283.728 283.706 283.706 283.691 283.683 283.628 283.651 283.611 283.558 283.526 283.523 283.511 283.391 283.458 283.698 283.753 283.776 283.404 283.379 283.406 283.381 283.364 283.379 283.381 283.368 283.289 283.211 283.129 283.018 282.928 282.743 282.616 282.464 282.246 282.099 281.949 281.806 281.684 281.578 281.306 280.991 280.784 280.566 280.401 280.281 279.969 279.676 279.406 279.271 279.161 279.034 278.886 278.661 278.461 278.406 278.273 278.141 277.979 277.846 277.721 277.569 277.401 277.273 277.051 276.841 276.664 276.414 276.071 275.806 275.569 275.349 275.134 274.941 274.806 274.686 274.596 274.519 274.426 274.269 274.121 273.876 273.686 273.534 273.436 273.404 273.366 273.296 273.211 273.164 273.124 273.124 272.994 272.911 272.849 272.761 272.666 272.691 272.856 272.951 272.951 272.726 272.536 272.519 272.529 272.741 272.896 272.939 272.964 272.876 272.641 272.449 272.381 272.304 272.279 272.396 272.506 272.571 272.593 272.663 272.726 272.788 272.838 272.776 272.648 272.688 272.718 272.741 272.793 272.821 272.786 272.486 271.933 271.561 271.561 271.433 271.533 271.498 271.496 271.551 271.726 271.731 271.738 271.823 271.871 271.786 271.796 271.833 271.813 271.726 271.866 272.293 272.383 272.458 272.451 272.458 272.448 272.683 273.026 273.423 274.151 274.691 275.323 276.043 277.373 278.691 278.843 278.968 279.926 279.778 280.286 280.668 281.083 281.388 281.616 281.981 282.356 282.761 283.048 283.373 283.678 283.963 284.213
327.061 326.513 326.261 326.043 325.531 324.738 323.751 322.956 322.021 321.123 320.453 320.001 319.328 318.586 318.076 317.181 316.633 316.198 315.803 315.546 315.216 314.843 314.406 313.893 313.508 313.023 312.696 312.593 312.638 312.563 312.501 312.396 312.328 312.396 312.431 312.421 312.631 313.603 312.918 317.173 317.908 312.376 311.533 310.983 310.568 310.226 309.928 310.426 311.313 316.376 320.556 315.471 312.813 312.823 311.731 307.223 306.683 306.291 305.911 305.491 305.091 304.698 304.301 303.966 303.626 303.308 302.963 302.656 302.406 302.183 301.926 301.708 301.486 301.293 301.133 300.973 300.826 300.698 300.543 300.366 300.238 300.098 300.008 299.896 299.686 299.238 298.741 298.203 297.643 297.168 296.756 296.411 296.143 295.883 295.636 295.408 295.193 295.006 294.791 294.596 294.431 294.271 294.081 293.901 293.743 293.583 293.421 293.278 293.083 292.918 292.793 292.638 292.446 292.271 292.101 291.968 291.823 291.706 291.548 291.438 291.353 291.198 291.106 291.003 290.936 290.881 290.801 290.758 290.701 290.573 290.471 290.323 290.216 290.101 289.958 289.833 289.763 289.666 289.561 289.458 289.341 289.241 289.106 288.938 288.808 288.666 288.508 288.391 288.281 288.156 288.041 287.858 287.703 287.543 287.403 287.266 287.176 287.108 286.998 286.941 286.873 286.791 286.696 286.628 286.528 286.428 286.331 286.183 286.073 285.946 285.828 285.728 285.598 285.501 285.456 285.378 285.236 285.123 285.026 284.878 284.768 284.671 284.586 284.521 284.463 284.388 284.336 284.283 284.226 284.143 284.043 284.008 283.986 283.946 283.873 283.801 283.793 283.771 283.761 283.766 283.751 283.743 283.766 283.713 283.643 283.651 283.688 283.656 283.583 283.893 283.816 283.831 283.606 283.573 283.591 283.596 283.601 283.594 283.611 283.589 283.514 283.501 283.411 283.366 283.279 283.143 282.924 282.833 282.706 282.474 282.336 282.161 282.041 281.846 281.659 281.461 281.243 281.023 280.821 280.621 280.484 280.221 279.939 279.751 279.488 279.261 279.151 279.036 278.868 278.661 278.436 278.256 278.191 278.099 277.926 277.781 277.611 277.469 277.276 277.099 276.881 276.621 276.381 276.161 275.861 275.589 275.439 275.254 275.026 274.941 274.764 274.674 274.476 274.386 274.299 274.206 274.034 273.766 273.566 273.466 273.414 273.356 273.301 273.211 273.171 273.136 273.104 273.049 272.979 272.826 272.731 272.646 272.621 272.679 272.796 272.839 272.686 272.541 272.499 272.551 272.701 272.874 272.886 272.824 272.751 272.659 272.466 272.369 272.259 272.224 272.344 272.449 272.521 272.603 272.673 272.731 272.791 272.786 272.691 272.598 272.618 272.688 272.723 272.741 272.813 272.793 272.726 272.303 271.783 271.488 271.511 271.491 271.506 271.506 271.413 271.483 271.691 271.868 271.843 271.836 271.796 271.791 271.718 271.743 271.823 271.728 271.761 272.258 272.346 272.416 272.408 272.398 272.538 272.953 273.251 273.768 274.253 274.943 275.578 276.306 277.926 278.763 278.803 279.223 279.443 279.893 280.448 280.873 281.273 281.556 281.808 282.203 282.606 282.923 283.181 283.488 283.758 284.061
327.406 326.703 326.301 326.046 325.351 324.691 323.746 322.821 321.806 321.026 320.538 320.128 319.678 318.958 318.341 317.166 316.448 316.016 315.486 315.131 314.756 314.496 314.146 313.678 313.383 313.166 313.036 312.981 312.953 312.933 312.888 312.903 313.026 313.168 313.283 313.378 313.338 313.441 314.108 314.023 313.411 312.711 311.846 311.233 310.838 310.478 310.203 314.536 318.543 318.131 322.873 314.506 309.988 308.613 307.943 307.333 306.946 306.486 306.071 305.671 305.293 304.926 304.551 304.178 303.826 303.483 303.171 302.843 302.528 302.296 302.081 301.851 301.576 301.398 301.253 301.076 300.916 300.771 300.653 300.506 300.343 300.176 300.056 299.906 299.403 298.831 298.286 297.788 297.346 297.018 296.718 296.453 296.231 295.963 295.726 295.501 295.308 295.118 294.903 294.668 294.501 294.333 294.183 294.026 293.841 293.651 293.506 293.371 293.218 293.031 292.843 292.653 292.508 292.383 292.228 292.056 291.938 291.836 291.688 291.578 291.508 291.406 291.361 291.298 291.326 291.268 291.126 291.003 290.868 290.701 290.568 290.423 290.308 290.181 290.048 289.961 289.881 289.768 289.671 289.543 289.426 289.288 289.106 288.938 288.816 288.706 288.651 288.591 288.483 288.361 288.203 288.063 287.888 287.741 287.536 287.406 287.301 287.166 287.108 287.071 287.043 286.981 286.873 286.796 286.688 286.561 286.416 286.283 286.168 286.043 285.938 285.828 285.733 285.651 285.533 285.433 285.318 285.168 285.036 284.908 284.823 284.746 284.668 284.603 284.531 284.453 284.371 284.318 284.253 284.176 284.121 284.076 284.026 283.963 283.923 283.883 283.841 283.823 283.841 283.856 283.861 283.876 283.833 283.793 283.886 283.918 283.923 283.888 284.378 284.186 283.778 283.798 283.841 283.749 283.806 283.846 283.839 283.831 283.841 283.803 283.711 283.626 283.589 283.609 283.504 283.301 283.169 283.083 282.901 282.719 282.576 282.376 282.214 281.993 281.779 281.601 281.466 281.236 281.026 280.806 280.624 280.439 280.261 280.031 279.686 279.374 279.214 279.124 278.961 278.784 278.589 278.406 278.236 278.104 277.984 277.868 277.706 277.556 277.311 277.118 276.934 276.671 276.426 276.231 275.966 275.704 275.474 275.321 275.119 274.929 274.759 274.669 274.559 274.544 274.356 274.249 274.129 273.916 273.621 273.459 273.429 273.339 273.311 273.254 273.179 273.126 273.079 273.039 272.989 272.909 272.776 272.641 272.591 272.616 272.624 272.631 272.576 272.531 272.519 272.524 272.636 272.744 272.724 272.696 272.654 272.584 272.419 272.329 272.199 272.206 272.346 272.459 272.546 272.636 272.706 272.728 272.758 272.751 272.598 272.523 272.598 272.663 272.713 272.751 272.778 272.741 272.751 272.663 272.213 271.858 271.508 271.486 271.556 271.508 271.396 271.398 271.383 271.438 271.541 271.816 271.753 271.848 271.781 271.706 271.673 271.646 271.563 271.648 272.076 272.273 272.401 272.361 272.468 272.751 273.078 273.481 274.068 274.621 275.218 275.781 276.608 278.456 278.728 278.843 279.338 279.553 280.271 280.763 281.126 281.458 281.758 282.056 282.396 282.658 282.923 283.221 283.526 283.828
327.551 326.801 326.293 325.941 325.436 324.641 323.718 322.876 321.958 321.163 320.678 320.251 319.741 319.146 318.603 317.488 316.506 316.008 315.581 315.193 314.823 314.513 314.181 313.976 313.761 313.593 313.478 313.386 313.391 313.473 313.558 313.686 313.903 314.101 314.236 314.381 314.421 314.341 314.126 314.618 313.956 313.488 312.146 311.511 311.086 310.941 310.861 321.986 319.593 316.008 314.676 312.993 309.416 308.368 307.991 307.586 307.123 306.643 306.266 305.873 305.506 305.106 304.751 304.391 304.031 303.671 303.356 302.996 302.693 302.438 302.173 301.933 301.753 301.553 301.381 301.176 301.023 300.893 300.756 300.556 300.301 300.031 299.788 299.523 298.958 298.446 297.961 297.591 297.313 297.036 296.771 296.513 296.268 296.038 295.846 295.606 295.398 295.193 294.988 294.771 294.616 294.446 294.278 294.093 293.928 293.766 293.596 293.421 293.248 293.086 292.941 292.766 292.641 292.483 292.338 292.228 292.108 291.991 291.873 291.811 291.786 291.758 291.698 291.608 291.556 291.443 291.263 291.113 290.963 290.813 290.698 290.566 290.406 290.281 290.161 290.051 289.951 289.846 289.721 289.573 289.438 289.286 289.101 288.976 288.953 288.876 288.791 288.756 288.671 288.528 288.378 288.213 288.081 287.911 287.723 287.556 287.401 287.308 287.253 287.261 287.238 287.116 286.988 286.853 286.756 286.621 286.506 286.383 286.278 286.141 286.051 285.938 285.871 285.758 285.636 285.516 285.361 285.226 285.101 285.006 284.911 284.826 284.743 284.661 284.581 284.511 284.446 284.381 284.313 284.261 284.206 284.118 284.056 284.031 283.988 283.926 283.868 283.876 283.913 283.923 283.953 283.966 283.976 284.016 284.156 284.166 284.286 285.088 284.426 284.066 283.983 283.993 283.971 283.914 283.996 284.089 284.056 284.056 284.034 284.011 283.934 283.849 283.823 283.791 283.654 283.458 283.389 283.306 283.101 282.934 282.749 282.578 282.396 282.178 281.969 281.816 281.656 281.434 281.206 280.984 280.823 280.674 280.474 280.206 279.898 279.606 279.349 279.276 279.029 278.861 278.686 278.514 278.323 278.154 277.979 277.904 277.806 277.613 277.441 277.261 277.023 276.816 276.546 276.269 276.041 275.781 275.521 275.369 275.241 275.074 274.831 274.781 274.614 274.486 274.381 274.264 274.151 273.994 273.694 273.521 273.394 273.336 273.276 273.236 273.199 273.101 273.041 273.004 272.984 272.924 272.784 272.639 272.611 272.586 272.564 272.579 272.564 272.534 272.524 272.529 272.596 272.629 272.609 272.611 272.561 272.501 272.346 272.304 272.204 272.231 272.349 272.484 272.523 272.611 272.696 272.716 272.736 272.691 272.553 272.483 272.588 272.656 272.696 272.713 272.716 272.708 272.691 272.653 272.526 272.226 271.791 271.456 271.538 271.478 271.438 271.416 271.401 271.341 271.273 271.283 271.268 271.443 271.516 271.671 271.631 271.516 271.526 271.311 271.513 271.906 272.198 272.343 272.436 272.536 272.831 273.178 273.686 274.311 274.946 275.641 276.276 277.573 278.671 278.751 278.921 279.538 280.181 280.673 281.103 281.446 281.711 281.876 282.186 282.441 282.766 282.991 283.301 283.643
327.666 326.953 326.288 325.936 325.486 324.708 323.941 323.203 322.471 321.666 321.016 320.518 320.101 319.591 318.878 317.896 316.781 316.198 315.818 315.446 315.166 314.876 314.653 314.531 314.426 314.298 314.331 314.406 314.198 314.283 314.446 314.701 314.828 315.046 315.241 315.386 315.333 315.096 314.653 314.183 314.283 312.906 312.301 311.773 311.398 311.711 314.288 321.628 316.551 312.143 310.403 309.291 309.176 308.663 308.233 307.803 307.346 306.901 306.511 306.118 305.728 305.346 304.976 304.571 304.241 303.858 303.511 303.146 302.833 302.526 302.308 302.108 301.898 301.721 301.526 301.323 301.131 300.973 300.743 300.428 300.061 299.673 299.386 299.046 298.601 298.236 297.916 297.638 297.361 297.083 296.841 296.578 296.368 296.128 295.948 295.701 295.488 295.298 295.063 294.888 294.711 294.543 294.371 294.201 294.018 293.813 293.646 293.516 293.366 293.206 293.046 292.893 292.763 292.651 292.526 292.403 292.338 292.336 292.313 292.251 292.203 292.098 291.938 291.798 291.651 291.528 291.396 291.233 291.081 290.951 290.813 290.638 290.551 290.398 290.288 290.148 290.041 289.928 289.778 289.676 289.598 289.416 289.211 289.106 289.091 289.056 288.916 288.811 288.781 288.683 288.533 288.356 288.213 288.051 287.853 287.706 287.573 287.506 287.521 287.436 287.313 287.193 287.076 286.941 286.831 286.726 286.618 286.491 286.371 286.261 286.171 286.056 285.943 285.851 285.711 285.553 285.413 285.286 285.193 285.113 284.968 284.921 284.816 284.761 284.683 284.588 284.466 284.446 284.406 284.306 284.213 284.131 284.116 284.088 283.986 283.961 283.963 283.951 283.968 284.011 284.036 284.056 284.153 284.273 284.383 284.663 284.846 284.538 284.366 284.258 284.156 284.158 284.141 284.083 284.189 284.271 284.331 284.314 284.284 284.259 284.201 284.124 284.039 283.919 283.741 283.633 283.566 283.436 283.311 283.151 282.988 282.811 282.564 282.319 282.169 282.046 281.824 281.583 281.401 281.219 281.051 280.828 280.626 280.393 280.134 279.854 279.621 279.451 279.181 278.949 278.801 278.616 278.416 278.191 278.004 277.909 277.839 277.656 277.521 277.374 277.121 276.844 276.664 276.396 276.134 275.829 275.599 275.514 275.391 275.084 274.871 274.774 274.664 274.544 274.429 274.266 274.156 274.024 273.841 273.559 273.386 273.324 273.289 273.216 273.209 273.121 273.021 272.986 272.969 272.919 272.776 272.639 272.626 272.636 272.589 272.544 272.559 272.531 272.526 272.531 272.541 272.549 272.554 272.576 272.549 272.464 272.304 272.259 272.239 272.309 272.394 272.446 272.498 272.566 272.636 272.691 272.723 272.641 272.463 272.468 272.556 272.608 272.663 272.673 272.638 272.621 272.598 272.571 272.596 272.551 272.233 271.808 271.653 271.576 271.421 271.433 271.391 271.378 271.356 271.236 271.323 271.283 271.238 271.198 271.183 271.226 271.183 271.151 271.226 271.681 271.933 272.188 272.301 272.391 272.586 272.913 273.336 273.976 274.681 275.386 276.041 276.708 278.026 278.686 278.903 279.326 280.096 280.538 280.891 281.253 281.516 281.773 282.003 282.278 282.523 282.781 283.063 283.406
327.658 326.976 326.333 325.951 325.681 325.018 324.343 323.718 322.998 322.008 321.143 320.748 320.426 319.998 319.261 318.431 317.161 316.606 316.136 315.806 315.561 315.381 315.188 315.191 315.158 315.161 315.248 315.303 315.301 315.373 315.451 315.653 315.901 316.071 316.041 315.923 315.681 315.223 314.676 314.116 313.861 313.343 312.571 312.513 312.313 311.368 311.583 316.161 312.253 310.181 309.863 309.601 309.298 308.888 308.451 308.016 307.606 307.178 306.781 306.406 305.986 305.593 305.161 304.768 304.413 304.058 303.698 303.321 302.996 302.711 302.488 302.276 302.078 301.851 301.631 301.411 301.121 300.866 300.501 300.111 299.726 299.396 299.118 298.816 298.511 298.251 297.963 297.711 297.453 297.181 296.938 296.668 296.456 296.196 296.023 295.803 295.591 295.393 295.178 294.996 294.808 294.648 294.403 294.236 294.068 293.923 293.756 293.641 293.486 293.358 293.198 293.061 292.926 292.823 292.798 292.816 292.858 292.841 292.708 292.578 292.406 292.298 292.133 291.943 291.786 291.636 291.526 291.371 291.201 291.041 290.906 290.793 290.666 290.521 290.381 290.246 290.141 290.016 289.933 289.861 289.831 289.706 289.371 289.198 289.116 289.071 288.956 288.873 288.863 288.803 288.671 288.508 288.353 288.213 288.076 287.931 287.811 287.766 287.631 287.506 287.366 287.223 287.148 287.026 286.956 286.831 286.723 286.596 286.476 286.363 286.266 286.151 286.041 285.896 285.771 285.628 285.538 285.411 285.306 285.196 285.096 285.001 284.938 284.821 284.733 284.656 284.591 284.531 284.448 284.353 284.276 284.236 284.153 284.091 284.063 284.026 284.021 284.011 284.018 284.071 284.181 284.233 284.351 284.456 285.081 285.301 284.693 284.581 284.596 284.471 284.376 284.303 284.323 284.333 284.406 284.499 284.551 284.529 284.516 284.511 284.426 284.371 284.246 284.108 283.919 283.819 283.703 283.646 283.458 283.349 283.201 282.999 282.736 282.516 282.414 282.249 282.048 281.771 281.553 281.388 281.216 280.999 280.799 280.544 280.273 280.053 279.803 279.613 279.349 279.086 278.881 278.686 278.486 278.316 278.106 277.981 277.888 277.721 277.559 277.366 277.156 276.861 276.679 276.546 276.264 275.921 275.704 275.514 275.411 275.096 274.931 274.866 274.754 274.559 274.421 274.286 274.161 274.074 273.921 273.624 273.409 273.266 273.279 273.236 273.204 273.171 273.056 272.981 272.964 272.894 272.784 272.659 272.581 272.576 272.676 272.626 272.566 272.531 272.504 272.459 272.504 272.671 272.816 272.879 272.849 272.504 272.256 272.201 272.236 272.364 272.424 272.386 272.386 272.466 272.548 272.603 272.658 272.543 272.421 272.461 272.536 272.606 272.596 272.596 272.588 272.573 272.538 272.531 272.581 272.596 272.521 272.203 271.863 271.581 271.391 271.391 271.406 271.358 271.306 271.393 271.353 271.273 271.153 271.178 271.191 271.103 271.091 271.036 270.988 271.208 271.461 271.881 272.191 272.283 272.351 272.606 273.018 273.691 274.433 275.108 275.686 276.353 277.156 278.526 278.866 278.936 280.103 280.421 280.731 281.011 281.346 281.581 281.741 282.026 282.313 282.573 282.826 283.198
327.591 326.938 326.378 326.036 325.778 325.476 324.918 324.231 323.666 322.798 321.903 320.856 320.638 320.321 319.588 318.748 317.811 317.126 316.618 316.153 315.886 315.726 315.646 315.623 315.621 315.716 316.046 316.183 316.248 316.328 316.441 316.616 316.698 316.586 316.198 315.931 315.616 315.118 314.581 314.073 313.676 313.983 313.291 312.303 312.228 312.398 311.746 311.058 310.841 310.518 310.261 309.896 309.506 309.118 308.696 308.271 307.901 307.466 307.058 306.608 306.228 305.783 305.356 305.001 304.618 304.246 303.886 303.536 303.208 302.896 302.688 302.466 302.266 301.983 301.623 301.246 300.863 300.518 300.168 299.858 299.578 299.321 299.078 298.818 298.536 298.291 298.038 297.773 297.538 297.263 296.998 296.723 296.516 296.303 296.101 295.903 295.706 295.478 295.293 295.051 294.888 294.673 294.513 294.326 294.188 294.033 293.893 293.761 293.623 293.496 293.383 293.321 293.313 293.258 293.226 293.256 293.166 293.018 292.886 292.703 292.526 292.368 292.223 292.083 291.936 291.831 291.653 291.493 291.326 291.188 291.058 290.908 290.736 290.593 290.471 290.363 290.251 290.156 290.061 289.988 289.893 289.746 289.541 289.368 289.238 289.148 289.026 288.973 288.951 288.878 288.796 288.631 288.493 288.391 288.291 288.141 287.988 287.848 287.688 287.548 287.423 287.301 287.226 287.141 287.043 286.933 286.821 286.743 286.596 286.473 286.366 286.223 286.098 285.976 285.856 285.761 285.658 285.541 285.408 285.298 285.188 285.103 285.033 284.921 284.818 284.796 284.711 284.588 284.486 284.443 284.386 284.291 284.233 284.168 284.078 284.081 284.106 284.098 284.098 284.238 284.418 284.536 285.028 285.963 285.566 284.963 284.821 284.773 284.766 284.646 284.541 284.511 284.539 284.604 284.686 284.736 284.746 284.749 284.711 284.734 284.613 284.504 284.458 284.316 284.124 284.021 283.926 283.816 283.631 283.491 283.363 283.118 282.893 282.806 282.664 282.469 282.234 282.013 281.773 281.591 281.366 281.154 280.924 280.691 280.479 280.243 279.948 279.691 279.421 279.259 279.074 278.811 278.613 278.456 278.226 278.078 277.974 277.811 277.634 277.371 277.154 276.886 276.784 276.574 276.306 276.036 275.829 275.571 275.351 275.199 275.041 274.884 274.736 274.636 274.509 274.351 274.201 274.046 273.929 273.761 273.489 273.324 273.299 273.244 273.176 273.159 273.059 272.941 272.916 272.904 272.819 272.664 272.596 272.661 272.801 272.761 272.556 272.546 272.484 272.449 272.549 272.771 272.914 272.971 272.956 272.576 272.304 272.189 272.189 272.271 272.286 272.309 272.356 272.436 272.466 272.496 272.526 272.438 272.396 272.443 272.496 272.543 272.546 272.536 272.513 272.506 272.513 272.541 272.586 272.583 272.561 272.483 272.243 271.991 271.776 271.653 271.561 271.478 271.416 271.318 271.331 271.278 271.246 271.158 271.133 271.128 271.091 270.948 270.863 270.798 270.823 271.418 271.948 272.103 272.201 272.411 272.821 273.476 274.058 274.816 275.363 275.763 276.393 277.721 278.888 279.013 279.676 280.443 280.511 280.776 281.113 281.416 281.621 281.901 282.113 282.413 282.663 282.988
327.621 326.978 326.446 326.113 325.933 325.723 325.308 324.793 324.211 323.643 322.946 321.321 320.678 320.528 320.288 319.483 318.676 317.658 317.088 316.653 316.348 316.113 316.036 316.003 316.071 316.408 316.716 317.036 317.208 317.283 317.321 317.281 316.873 316.456 316.126 315.896 315.591 315.116 314.598 314.076 313.676 313.793 313.278 313.233 312.836 312.028 311.701 311.423 311.138 310.858 310.533 310.113 309.748 309.376 308.956 308.563 308.166 307.738 307.288 306.853 306.461 306.066 305.583 305.213 304.806 304.418 304.103 303.768 303.436 303.123 302.883 302.721 302.326 301.913 301.436 301.021 300.678 300.356 300.056 299.818 299.566 299.353 299.088 298.841 298.606 298.356 298.118 297.861 297.608 297.351 297.063 296.818 296.606 296.391 296.198 295.991 295.758 295.533 295.336 295.143 294.996 294.781 294.626 294.478 294.333 294.193 294.058 293.931 293.816 293.786 293.821 293.828 293.778 293.688 293.596 293.443 293.278 293.113 292.943 292.781 292.638 292.493 292.351 292.223 292.066 291.916 291.761 291.636 291.478 291.301 291.151 290.996 290.828 290.686 290.608 290.551 290.461 290.363 290.183 290.106 289.966 289.798 289.691 289.581 289.456 289.291 289.208 289.103 289.046 288.973 288.876 288.776 288.651 288.528 288.441 288.313 288.121 287.923 287.786 287.653 287.493 287.398 287.281 287.213 287.123 287.056 286.966 286.851 286.726 286.561 286.448 286.323 286.206 286.081 285.988 285.908 285.763 285.633 285.543 285.428 285.306 285.198 285.083 285.031 284.951 284.871 284.743 284.661 284.598 284.513 284.453 284.338 284.306 284.248 284.181 284.168 284.188 284.188 284.246 284.371 284.521 284.941 288.821 288.761 285.031 285.288 285.046 284.973 284.886 284.821 284.713 284.718 284.771 284.884 284.926 285.031 285.016 284.969 284.926 284.964 284.814 284.684 284.656 284.564 284.381 284.286 284.141 283.974 283.836 283.656 283.526 283.299 283.178 283.034 282.816 282.624 282.431 282.246 282.029 281.789 281.518 281.299 281.016 280.814 280.659 280.406 280.096 279.826 279.571 279.441 279.254 278.944 278.734 278.568 278.374 278.171 278.018 277.893 277.731 277.516 277.246 277.031 276.809 276.651 276.434 276.161 275.956 275.701 275.416 275.229 275.106 274.886 274.769 274.659 274.606 274.391 274.194 274.086 273.954 273.834 273.651 273.404 273.304 273.239 273.169 273.139 273.091 272.974 272.944 272.941 272.834 272.681 272.606 272.714 272.904 272.846 272.589 272.516 272.454 272.426 272.529 272.776 272.854 272.879 272.814 272.491 272.224 272.126 272.151 272.186 272.251 272.314 272.346 272.378 272.458 272.483 272.421 272.353 272.383 272.443 272.463 272.511 272.491 272.458 272.463 272.461 272.508 272.498 272.583 272.551 272.506 272.498 272.483 272.336 272.113 271.996 271.831 271.596 271.478 271.438 271.323 271.248 271.186 271.201 271.178 271.078 271.041 271.043 270.888 270.843 270.916 270.993 271.396 271.821 271.936 272.123 272.616 273.256 273.843 274.431 274.953 275.441 275.991 277.001 278.501 279.078 279.211 280.271 280.208 280.563 280.921 281.276 281.548 281.731 281.946 282.216 282.478 282.841
327.786 327.141 326.643 326.323 326.151 325.998 325.663 325.231 324.681 324.091 323.558 322.566 321.156 320.766 320.653 319.933 319.188 318.441 317.566 317.123 316.871 316.581 316.488 316.453 316.576 316.868 317.356 317.751 317.991 317.993 317.676 317.213 316.803 316.441 316.148 315.911 315.623 315.188 314.691 314.186 313.741 313.461 314.038 312.928 312.573 312.301 312.028 311.748 311.451 311.108 310.743 310.388 310.033 309.636 309.253 308.848 308.411 307.961 307.558 307.106 306.653 306.261 305.848 305.421 305.026 304.628 304.271 303.998 303.623 303.278 302.983 302.788 302.453 301.963 301.363 300.948 300.631 300.336 300.053 299.828 299.598 299.351 299.158 298.931 298.693 298.473 298.221 297.928 297.653 297.426 297.168 296.933 296.673 296.476 296.253 296.016 295.856 295.658 295.456 295.251 295.086 294.908 294.758 294.626 294.468 294.341 294.256 294.236 294.348 294.323 294.273 294.216 294.041 293.881 293.698 293.571 293.358 293.193 293.023 292.896 292.776 292.623 292.523 292.336 292.178 292.063 291.913 291.748 291.578 291.413 291.268 291.126 291.006 290.871 290.786 290.713 290.593 290.496 290.363 290.256 290.153 289.986 289.881 289.766 289.671 289.531 289.431 289.311 289.191 289.086 288.963 288.903 288.771 288.653 288.548 288.411 288.246 288.041 287.881 287.718 287.541 287.448 287.373 287.306 287.251 287.171 287.076 286.953 286.816 286.703 286.553 286.446 286.358 286.246 286.136 286.001 285.876 285.753 285.668 285.571 285.433 285.343 285.248 285.148 285.028 284.921 284.836 284.741 284.631 284.563 284.528 284.433 284.361 284.331 284.281 284.271 284.306 284.333 284.426 284.543 285.231 285.573 286.168 285.448 285.048 285.516 285.091 285.143 285.091 284.981 284.906 284.933 285.018 285.111 285.164 285.201 285.229 285.191 285.148 285.104 285.016 284.951 284.896 284.759 284.574 284.521 284.388 284.176 284.049 283.876 283.698 283.553 283.423 283.279 282.996 282.794 282.609 282.444 282.191 281.909 281.661 281.458 281.166 280.941 280.759 280.523 280.279 280.056 279.831 279.629 279.381 279.073 278.839 278.609 278.479 278.279 278.066 277.921 277.786 277.611 277.384 277.141 276.881 276.714 276.444 276.204 276.041 275.834 275.494 275.324 275.149 274.909 274.861 274.726 274.581 274.489 274.269 274.101 273.949 273.866 273.776 273.556 273.324 273.189 273.159 273.114 273.124 273.076 272.934 272.956 272.879 272.644 272.589 272.694 272.911 272.944 272.779 272.584 272.451 272.391 272.454 272.619 272.759 272.759 272.649 272.454 272.166 272.081 272.151 272.236 272.289 272.299 272.376 272.428 272.471 272.478 272.391 272.283 272.316 272.408 272.463 272.478 272.456 272.426 272.433 272.463 272.483 272.526 272.551 272.521 272.478 272.481 272.478 272.546 272.543 272.391 272.186 272.063 271.811 271.603 271.496 271.348 271.431 271.378 271.436 271.188 270.998 270.936 270.816 270.746 270.763 270.798 270.896 271.463 271.648 271.821 272.338 273.121 273.623 274.056 274.588 274.966 275.586 276.648 277.681 279.121 279.183 279.796 280.196 280.446 280.711 281.091 281.376 281.603 281.841 282.071 282.373 282.643
328.081 327.463 327.006 326.731 326.436 326.238 325.973 325.616 325.086 324.566 324.053 323.436 322.218 321.226 320.941 320.673 319.711 319.136 318.303 317.633 317.358 317.136 316.983 316.963 317.106 317.466 318.033 318.411 318.286 317.973 317.546 317.148 316.818 316.538 316.243 316.013 315.718 315.336 314.811 314.323 313.956 313.636 313.768 313.816 313.223 313.078 313.003 312.076 311.716 311.371 311.038 310.668 310.278 309.888 309.516 309.078 308.663 308.221 307.786 307.391 306.938 306.516 306.106 305.698 305.278 304.921 304.451 304.023 303.596 303.246 303.041 302.876 302.701 302.188 301.453 300.956 300.621 300.346 300.086 299.846 299.633 299.398 299.186 298.976 298.733 298.526 298.263 298.023 297.751 297.526 297.283 297.016 296.751 296.538 296.351 296.161 295.988 295.773 295.591 295.398 295.223 295.058 294.933 294.806 294.706 294.681 294.661 294.698 294.808 294.648 294.471 294.321 294.141 293.966 293.773 293.611 293.458 293.353 293.178 292.996 292.863 292.736 292.606 292.486 292.321 292.168 291.993 291.813 291.676 291.551 291.411 291.288 291.163 291.061 290.971 290.836 290.691 290.611 290.486 290.378 290.296 290.143 290.033 289.981 289.896 289.843 289.743 289.598 289.386 289.256 289.221 289.106 288.918 288.781 288.643 288.536 288.393 288.176 287.958 287.806 287.668 287.546 287.498 287.451 287.363 287.251 287.191 287.056 286.936 286.798 286.681 286.596 286.486 286.378 286.233 286.118 286.056 285.946 285.826 285.703 285.616 285.508 285.361 285.208 285.086 284.996 284.896 284.791 284.738 284.668 284.596 284.523 284.443 284.393 284.348 284.431 284.551 284.578 284.816 285.328 285.036 284.851 285.133 285.223 285.243 286.468 285.143 285.171 285.208 285.138 285.096 285.078 285.159 285.219 285.299 285.351 285.398 285.376 285.314 285.281 285.224 285.173 285.091 284.901 284.789 284.708 284.536 284.344 284.208 284.083 283.871 283.768 283.631 283.448 283.229 282.976 282.811 282.591 282.336 282.051 281.841 281.601 281.281 281.011 280.849 280.659 280.434 280.226 280.001 279.738 279.484 279.214 278.951 278.741 278.604 278.349 278.111 277.928 277.809 277.676 277.516 277.286 277.051 276.746 276.436 276.299 276.096 275.781 275.629 275.546 275.374 275.066 274.891 274.796 274.664 274.559 274.369 274.161 273.986 273.874 273.771 273.676 273.411 273.186 273.169 273.101 273.116 273.114 272.979 272.941 272.939 272.694 272.609 272.689 272.949 272.951 272.876 272.739 272.494 272.401 272.381 272.436 272.521 272.529 272.421 272.266 272.116 272.054 272.139 272.241 272.276 272.341 272.401 272.466 272.523 272.461 272.321 272.241 272.346 272.411 272.423 272.408 272.431 272.426 272.456 272.478 272.506 272.501 272.526 272.481 272.418 272.436 272.453 272.541 272.603 272.671 272.446 272.131 272.051 272.028 271.943 271.916 271.911 271.838 271.781 271.623 271.526 271.368 271.233 270.916 270.791 270.806 270.831 270.913 271.173 271.548 271.991 272.763 273.246 273.581 274.023 274.571 275.411 276.323 277.548 279.226 279.281 279.286 280.186 280.301 280.538 280.826 281.271 281.561 281.806 281.973 282.213 282.473
328.538 328.096 327.638 327.208 326.811 326.486 326.258 326.056 325.641 325.043 324.553 323.888 323.223 322.161 321.138 321.008 320.658 319.653 319.113 318.353 317.978 317.691 317.593 317.578 317.668 318.128 318.693 318.743 318.318 317.913 317.541 317.263 316.946 316.633 316.386 316.136 315.828 315.346 314.886 314.521 314.188 313.893 313.721 314.288 313.436 312.956 313.033 312.371 311.996 311.646 311.296 310.938 310.556 310.163 309.748 309.346 308.938 308.491 308.071 307.638 307.236 306.838 306.481 306.046 305.586 304.991 304.363 303.871 303.518 303.256 303.091 302.963 302.806 302.466 301.691 301.076 300.681 300.401 300.108 299.928 299.698 299.493 299.238 299.011 298.781 298.598 298.363 298.128 297.883 297.633 297.358 297.091 296.883 296.686 296.476 296.303 296.126 295.933 295.756 295.591 295.446 295.338 295.293 295.333 295.233 295.201 295.078 295.048 294.958 294.768 294.553 294.396 294.218 294.033 293.896 293.753 293.608 293.463 293.281 293.126 292.953 292.816 292.673 292.606 292.438 292.243 292.093 291.976 291.811 291.701 291.576 291.466 291.336 291.231 291.103 290.943 290.811 290.706 290.598 290.496 290.401 290.336 290.191 290.113 290.126 290.101 290.053 289.858 289.646 289.443 289.413 289.311 289.106 288.943 288.798 288.648 288.493 288.301 288.091 287.913 287.786 287.688 287.628 287.556 287.466 287.376 287.276 287.181 287.046 286.926 286.841 286.736 286.598 286.473 286.363 286.311 286.206 286.096 285.958 285.876 285.758 285.583 285.436 285.288 285.206 285.076 284.986 284.898 284.813 284.751 284.693 284.596 284.546 284.518 284.566 284.671 284.791 285.058 285.286 284.938 284.901 284.893 285.178 285.481 285.216 285.831 285.248 285.278 285.313 285.253 285.183 285.191 285.241 285.326 285.398 285.484 285.534 285.551 285.506 285.493 285.451 285.401 285.263 285.101 285.018 284.891 284.724 284.526 284.349 284.219 284.078 283.939 283.784 283.613 283.436 283.256 283.004 282.799 282.484 282.196 281.911 281.656 281.448 281.199 280.974 280.799 280.626 280.384 280.026 279.861 279.541 279.229 279.001 278.859 278.661 278.419 278.186 277.964 277.789 277.666 277.546 277.366 277.124 276.919 276.569 276.364 276.144 275.849 275.654 275.469 275.289 275.111 274.961 274.836 274.721 274.629 274.451 274.224 274.071 273.934 273.814 273.744 273.556 273.324 273.169 273.096 273.096 273.109 273.046 272.889 272.906 272.754 272.596 272.639 272.881 272.949 272.909 272.841 272.636 272.426 272.356 272.324 272.319 272.284 272.204 272.121 272.096 272.096 272.151 272.229 272.271 272.334 272.408 272.488 272.521 272.486 272.286 272.241 272.338 272.381 272.371 272.381 272.393 272.423 272.456 272.448 272.501 272.471 272.483 272.436 272.421 272.443 272.446 272.541 272.611 272.686 272.628 272.333 272.048 272.008 271.936 271.873 271.876 271.863 271.813 271.763 271.701 271.601 271.466 271.238 270.943 270.806 270.886 270.878 270.906 271.446 271.776 272.358 272.861 273.066 273.473 274.213 274.891 276.746 277.183 278.543 279.578 279.348 279.803 280.503 280.246 280.663 281.068 281.356 281.656 281.861 282.103 282.373
329.186 328.841 328.203 327.688 327.203 326.823 326.541 326.348 326.106 325.656 324.986 324.373 323.741 323.083 321.698 321.283 321.061 320.011 319.616 319.096 318.621 318.331 318.208 318.161 318.298 318.691 319.166 319.003 318.386 317.961 317.626 317.366 317.096 316.773 316.531 316.321 316.038 315.593 315.181 314.736 314.436 314.201 314.001 314.058 314.193 313.268 312.953 312.636 312.266 311.931 311.573 311.213 310.828 310.428 310.018 309.591 309.191 308.783 308.413 307.991 307.643 307.188 306.688 306.068 305.401 304.723 304.191 303.818 303.543 303.358 303.193 303.048 302.876 302.663 302.068 301.373 300.833 300.481 300.193 299.963 299.743 299.506 299.266 299.083 298.893 298.703 298.468 298.196 297.941 297.746 297.496 297.258 297.018 296.828 296.641 296.473 296.278 296.111 296.021 295.948 295.911 295.971 296.021 295.893 295.766 295.606 295.361 295.228 295.058 294.873 294.641 294.486 294.316 294.156 294.023 293.868 293.706 293.531 293.401 293.228 293.056 292.903 292.786 292.658 292.536 292.401 292.276 292.128 292.003 291.843 291.733 291.606 291.471 291.328 291.196 291.063 290.933 290.803 290.706 290.591 290.538 290.473 290.423 290.416 290.438 290.428 290.401 290.226 289.971 289.668 289.543 289.476 289.311 289.101 288.936 288.771 288.683 288.518 288.288 288.088 287.901 287.803 287.751 287.641 287.561 287.478 287.366 287.261 287.176 287.073 286.983 286.858 286.771 286.671 286.568 286.441 286.351 286.226 286.116 285.978 285.818 285.683 285.566 285.416 285.288 285.198 285.083 284.976 284.901 284.821 284.753 284.691 284.681 284.711 284.841 284.973 285.526 285.231 285.091 285.048 285.013 284.996 285.368 288.301 285.453 286.473 285.948 285.436 286.928 285.348 285.283 285.253 285.301 285.383 285.518 285.596 285.643 285.673 285.676 285.616 285.624 285.591 285.464 285.361 285.256 285.099 284.891 284.686 284.531 284.379 284.219 284.076 283.898 283.738 283.604 283.419 283.201 282.983 282.624 282.316 282.041 281.776 281.591 281.416 281.181 280.939 280.781 280.496 280.064 279.819 279.671 279.416 279.089 278.934 278.661 278.436 278.374 278.056 277.888 277.729 277.539 277.341 277.241 277.086 276.776 276.534 276.259 275.996 275.766 275.511 275.331 275.174 275.011 274.906 274.789 274.634 274.509 274.314 274.119 273.959 273.801 273.736 273.666 273.521 273.206 273.066 273.046 273.069 273.014 272.879 272.756 272.726 272.611 272.589 272.794 272.916 272.901 272.849 272.764 272.631 272.486 272.384 272.339 272.284 272.219 272.111 272.074 272.094 272.176 272.214 272.284 272.364 272.418 272.478 272.463 272.428 272.221 272.226 272.301 272.318 272.356 272.391 272.386 272.436 272.461 272.443 272.456 272.438 272.453 272.416 272.411 272.446 272.478 272.571 272.623 272.641 272.653 272.523 272.128 271.951 271.931 271.868 271.828 271.803 271.821 271.788 271.728 271.673 271.608 271.486 271.251 270.868 270.826 270.781 270.948 271.023 271.533 271.983 272.371 272.588 273.056 273.703 274.563 275.786 277.036 277.961 279.296 279.443 279.391 280.601 280.143 280.526 280.863 281.266 281.573 281.731 281.968 282.241
329.516 329.296 328.871 328.236 327.726 327.286 326.871 326.576 326.346 326.111 325.593 324.896 324.331 323.543 322.541 321.646 321.301 320.823 319.871 319.671 319.288 319.051 318.871 318.758 318.906 319.328 319.518 319.143 318.561 318.133 317.761 317.491 317.248 316.968 316.716 316.521 316.233 315.776 315.381 315.026 314.768 314.526 314.311 314.078 314.268 313.716 313.198 312.878 312.533 312.201 311.831 311.458 311.088 310.718 310.323 309.906 309.443 309.126 308.781 308.368 307.803 307.168 306.403 305.688 305.063 304.538 304.163 303.938 303.698 303.496 303.313 303.163 302.966 302.706 302.266 301.558 300.986 300.608 300.311 300.051 299.786 299.576 299.363 299.166 298.931 298.748 298.518 298.321 298.086 297.878 297.613 297.426 297.223 297.026 296.873 296.678 296.578 296.523 296.571 296.636 296.553 296.541 296.371 296.196 295.988 295.781 295.558 295.373 295.156 295.008 294.801 294.586 294.456 294.273 294.128 293.961 293.831 293.643 293.468 293.301 293.148 293.038 292.923 292.773 292.658 292.563 292.451 292.306 292.156 291.968 291.881 291.723 291.541 291.426 291.326 291.198 291.073 290.978 290.883 290.783 290.751 290.701 290.676 290.656 291.398 293.226 295.403 290.281 290.061 289.778 289.656 289.503 289.403 289.236 289.108 288.968 288.836 288.671 288.448 288.251 288.083 287.961 287.846 287.748 287.646 287.538 287.448 287.386 287.298 287.243 287.148 287.061 286.963 286.851 286.726 286.603 286.531 286.406 286.251 286.051 285.931 285.798 285.633 285.491 285.388 285.293 285.213 285.083 284.981 284.921 284.866 284.851 284.866 284.941 285.131 285.738 285.428 285.148 285.156 285.176 285.191 285.216 285.393 287.773 285.718 288.331 286.773 285.593 285.521 285.468 285.378 285.343 285.396 285.504 285.618 285.738 285.786 285.816 285.751 285.761 285.754 285.684 285.611 285.526 285.398 285.211 285.013 284.881 284.771 284.566 284.398 284.246 284.039 283.861 283.721 283.569 283.291 283.044 282.803 282.529 282.284 281.964 281.751 281.599 281.383 281.113 280.881 280.609 280.291 279.936 279.776 279.606 279.276 279.021 278.694 278.393 278.341 278.231 278.023 277.761 277.581 277.401 277.281 277.101 276.891 276.609 276.324 276.106 275.914 275.591 275.431 275.204 275.104 274.946 274.836 274.701 274.521 274.374 274.194 273.976 273.794 273.736 273.694 273.624 273.421 273.141 273.049 272.999 272.954 272.911 272.756 272.709 272.636 272.591 272.779 272.931 272.916 272.856 272.839 272.776 272.681 272.646 272.576 272.396 272.274 272.114 272.046 272.121 272.161 272.201 272.266 272.339 272.398 272.436 272.393 272.301 272.223 272.283 272.286 272.303 272.348 272.393 272.428 272.461 272.431 272.448 272.428 272.411 272.393 272.356 272.393 272.433 272.516 272.551 272.566 272.568 272.621 272.593 272.163 271.946 271.921 271.841 271.796 271.793 271.808 271.758 271.718 271.663 271.618 271.636 271.511 271.128 270.813 270.761 270.826 270.981 271.443 271.728 272.008 272.298 272.693 273.211 274.108 275.211 276.566 277.596 278.456 279.533 279.403 279.958 280.616 280.338 280.756 281.101 281.383 281.608 281.871 282.128
330.001 329.598 329.328 328.853 328.306 327.791 327.256 326.828 326.573 326.393 326.101 325.488 324.783 324.186 323.541 322.483 321.616 321.188 320.673 320.266 319.971 319.631 319.456 319.393 319.506 319.636 319.443 319.038 318.711 318.316 317.996 317.731 317.448 317.173 316.943 316.733 316.466 316.036 315.648 315.331 315.093 314.831 314.603 314.316 314.166 314.376 313.446 313.128 312.806 312.446 312.098 311.698 311.338 310.961 310.588 310.186 309.478 309.296 309.126 308.488 307.681 307.041 306.218 305.456 304.946 304.591 304.303 304.088 303.861 303.646 303.471 303.281 303.086 302.826 302.471 301.831 301.198 300.783 300.438 300.143 299.876 299.631 299.438 299.226 299.028 298.843 298.666 298.448 298.218 298.021 297.801 297.618 297.441 297.348 297.233 297.273 297.201 297.223 297.256 297.193 297.013 296.821 296.586 296.398 296.156 295.928 295.731 295.526 295.323 295.146 294.946 294.716 294.561 294.406 294.228 294.068 293.896 293.746 293.583 293.433 293.251 293.161 293.048 292.956 292.813 292.706 292.606 292.438 292.336 292.141 291.966 291.851 291.726 291.581 291.498 291.418 291.333 291.208 291.136 291.153 291.156 291.023 290.856 291.751 295.596 296.326 296.938 291.778 290.048 289.993 289.691 289.603 289.503 289.423 289.293 289.096 288.956 288.778 288.591 288.411 288.233 288.033 287.921 287.821 287.708 287.636 287.571 287.526 287.428 287.393 287.348 287.241 287.103 286.968 286.901 286.768 286.631 286.496 286.331 286.201 286.068 285.873 285.726 285.603 285.491 285.393 285.266 285.188 285.088 285.038 285.001 285.051 285.101 285.408 285.823 285.308 285.251 285.248 285.238 285.251 285.346 285.398 285.911 287.841 285.548 288.643 286.348 285.638 285.671 285.576 285.451 285.438 285.499 285.606 285.731 285.854 285.956 285.949 285.901 285.863 285.863 285.821 285.701 285.624 285.518 285.319 285.174 285.061 284.928 284.736 284.556 284.383 284.169 284.021 283.886 283.706 283.354 283.131 282.966 282.756 282.461 282.083 281.941 281.743 281.496 281.243 280.948 280.671 280.421 280.173 279.906 279.706 279.439 279.194 278.854 278.511 278.256 278.256 278.124 277.814 277.631 277.461 277.299 277.101 276.989 276.666 276.409 276.221 275.994 275.719 275.489 275.271 275.119 274.946 274.846 274.721 274.596 274.439 274.254 274.034 273.851 273.731 273.696 273.651 273.561 273.301 273.076 272.941 272.931 272.906 272.734 272.679 272.624 272.616 272.774 272.899 272.896 272.856 272.821 272.826 272.749 272.749 272.726 272.516 272.291 272.134 272.064 272.144 272.174 272.199 272.229 272.304 272.353 272.388 272.346 272.178 272.198 272.226 272.261 272.321 272.388 272.428 272.463 272.408 272.366 272.308 272.301 272.318 272.308 272.298 272.373 272.418 272.428 272.468 272.486 272.516 272.548 272.588 272.438 271.923 271.891 271.823 271.761 271.751 271.746 271.723 271.741 271.626 271.636 271.628 271.588 271.451 270.916 270.741 270.936 270.796 271.213 271.616 271.781 272.071 272.316 272.771 273.501 274.456 276.071 277.168 277.996 279.071 279.493 279.371 280.551 280.306 280.528 280.836 281.263 281.536 281.778 282.046
330.461 330.001 329.646 329.393 328.903 328.273 327.721 327.188 326.791 326.638 326.438 326.021 325.396 324.708 324.123 323.458 322.496 321.543 321.048 320.748 320.471 320.221 320.048 319.878 319.821 319.643 319.408 319.096 318.801 318.483 318.198 317.953 317.706 317.396 317.118 316.871 316.733 316.421 315.963 315.636 315.356 315.071 314.851 314.546 314.311 314.456 314.093 313.358 313.063 312.721 312.371 311.983 311.638 311.286 310.823 310.236 309.738 309.501 309.053 308.308 307.566 307.008 306.283 305.501 305.058 304.728 304.486 304.238 304.003 303.823 303.633 303.418 303.186 302.976 302.701 302.168 301.471 300.961 300.561 300.203 299.946 299.741 299.523 299.326 299.156 298.976 298.793 298.586 298.383 298.188 298.028 297.986 297.931 297.953 297.951 297.861 297.893 297.796 297.578 297.456 297.231 296.998 296.771 296.531 296.313 296.093 295.873 295.656 295.441 295.241 295.063 294.858 294.671 294.471 294.308 294.151 293.966 293.841 293.706 293.533 293.403 293.311 293.181 293.108 292.983 292.858 292.716 292.621 292.503 292.311 292.131 292.038 291.948 291.896 291.808 291.773 291.723 291.591 291.413 291.556 291.453 291.256 293.706 292.071 293.413 294.138 295.623 296.293 290.086 290.008 289.896 289.766 289.611 289.536 289.408 289.226 289.048 288.866 288.728 288.551 288.386 288.188 288.008 287.908 287.838 287.776 287.716 287.661 287.623 287.548 287.548 287.418 287.266 287.141 287.066 286.868 286.731 286.561 286.481 286.311 286.148 285.988 285.843 285.738 285.621 285.501 285.383 285.281 285.223 285.171 285.213 285.296 285.776 286.043 285.391 285.346 285.306 285.298 285.318 285.358 285.423 285.503 285.638 285.883 285.676 285.673 286.416 285.791 285.778 285.641 285.583 285.533 285.574 285.703 285.796 285.911 285.993 286.001 286.018 285.996 285.969 285.914 285.781 285.606 285.514 285.383 285.316 285.186 285.096 284.909 284.703 284.489 284.326 284.169 284.029 283.854 283.554 283.363 283.178 282.919 282.643 282.349 282.064 281.824 281.509 281.273 281.004 280.754 280.526 280.256 280.018 279.791 279.556 279.233 278.898 278.609 278.354 278.169 278.106 277.881 277.696 277.529 277.371 277.156 276.981 276.714 276.456 276.306 276.056 275.854 275.556 275.374 275.196 274.976 274.851 274.751 274.631 274.524 274.331 274.144 273.961 273.781 273.704 273.659 273.589 273.484 273.181 272.949 272.896 272.841 272.756 272.686 272.621 272.644 272.766 272.854 272.896 272.874 272.854 272.849 272.771 272.726 272.719 272.546 272.281 272.149 272.029 272.091 272.176 272.219 272.216 272.229 272.348 272.373 272.258 272.038 272.076 272.218 272.268 272.351 272.403 272.431 272.341 272.263 272.248 272.273 272.283 272.268 272.266 272.276 272.306 272.346 272.378 272.433 272.418 272.481 272.548 272.628 272.548 272.086 271.891 271.831 271.733 271.698 271.703 271.681 271.731 271.621 271.586 271.591 271.588 271.533 271.146 270.776 270.833 270.828 270.888 271.263 271.648 272.016 272.151 272.471 273.066 273.843 275.211 276.573 277.481 278.181 279.708 279.348 279.763 280.396 280.371 280.736 281.076 281.441 281.658 281.926
331.006 330.501 329.986 329.688 329.413 328.726 328.136 327.618 327.188 326.898 326.706 326.466 326.066 325.433 324.651 323.953 323.191 322.143 321.561 321.176 320.896 320.718 320.521 320.283 319.956 319.651 319.418 319.161 318.916 318.638 318.393 318.128 317.883 317.548 317.313 317.086 316.978 316.638 316.228 315.876 315.591 315.368 315.103 314.783 314.516 314.348 314.511 313.661 313.343 312.976 312.633 312.283 312.013 311.721 310.871 310.343 310.048 309.508 308.696 308.078 307.478 306.861 306.163 305.566 305.211 304.911 304.658 304.423 304.208 303.998 303.786 303.573 303.358 303.113 302.888 302.503 301.906 301.221 300.783 300.373 300.078 299.871 299.673 299.491 299.318 299.128 298.951 298.828 298.723 298.658 298.561 298.663 298.673 298.651 298.631 298.398 298.228 298.063 297.838 297.611 297.373 297.121 296.933 296.713 296.461 296.213 295.968 295.743 295.523 295.333 295.151 294.943 294.743 294.568 294.368 294.231 294.026 293.938 293.808 293.693 293.553 293.431 293.343 293.258 293.153 293.001 292.858 292.718 292.611 292.516 292.403 292.363 292.303 292.301 292.283 292.233 292.146 291.968 291.681 291.611 293.093 293.658 291.728 290.878 291.976 292.753 293.316 294.391 293.033 289.921 289.843 289.828 289.753 289.588 289.401 289.336 289.183 289.041 288.881 288.691 288.518 288.301 288.151 288.061 287.966 287.893 287.891 287.891 287.836 287.768 287.641 287.541 287.466 287.341 287.146 286.956 286.858 286.743 286.583 286.398 286.261 286.131 285.998 285.846 285.736 285.603 285.501 285.446 285.366 285.353 285.456 286.026 285.863 285.496 285.436 285.413 285.381 285.371 285.403 285.431 285.461 285.501 285.621 285.811 285.856 285.841 286.558 286.528 286.193 285.721 285.568 285.506 285.611 285.756 285.851 285.911 285.949 286.026 286.041 286.039 286.021 286.001 285.883 285.659 285.516 285.466 285.406 285.341 285.176 285.011 284.844 284.648 284.458 284.291 284.111 283.919 283.784 283.583 283.333 283.099 282.801 282.471 282.154 281.821 281.539 281.326 281.089 280.816 280.553 280.301 280.039 279.846 279.636 279.261 278.898 278.609 278.386 278.226 278.026 277.911 277.751 277.539 277.351 277.211 277.066 276.824 276.509 276.409 276.204 275.929 275.656 275.419 275.221 275.046 274.879 274.784 274.656 274.529 274.381 274.184 274.041 273.846 273.729 273.661 273.601 273.531 273.386 273.106 272.934 272.834 272.769 272.666 272.596 272.644 272.724 272.846 272.919 272.871 272.841 272.839 272.776 272.741 272.701 272.516 272.271 272.111 272.014 272.069 272.156 272.176 272.246 272.279 272.331 272.346 272.116 271.938 272.126 272.253 272.318 272.351 272.353 272.261 272.173 272.218 272.288 272.313 272.328 272.351 272.356 272.366 272.336 272.333 272.363 272.396 272.413 272.473 272.553 272.623 272.636 272.153 271.881 271.833 271.708 271.651 271.678 271.696 271.666 271.623 271.588 271.541 271.561 271.531 271.413 270.843 270.793 270.803 270.888 271.001 271.588 271.943 272.048 272.213 272.663 273.133 274.396 275.783 277.011 277.656 278.873 279.443 279.438 280.103 280.103 280.563 280.963 281.321 281.566 281.806
331.331 330.796 330.306 329.881 329.651 329.101 328.506 328.016 327.558 327.096 326.891 326.753 326.491 325.948 325.121 324.316 323.503 322.641 322.118 321.738 321.356 321.103 320.946 320.563 320.108 319.691 319.438 319.211 318.983 318.761 318.533 318.261 317.983 317.718 317.521 317.346 317.173 316.808 316.423 316.111 315.846 315.616 315.361 315.076 314.808 314.516 314.466 314.433 313.606 313.321 313.011 312.793 312.403 311.638 310.688 310.206 309.861 309.143 308.371 307.808 307.298 306.748 306.166 305.726 305.381 305.061 304.836 304.621 304.386 304.191 303.983 303.721 303.528 303.303 303.041 302.771 302.418 301.848 301.251 300.738 300.358 300.083 299.863 299.681 299.533 299.423 299.373 299.406 299.418 299.483 299.433 299.473 299.378 299.166 298.926 298.706 298.481 298.246 298.038 297.758 297.521 297.278 297.038 296.818 296.571 296.328 296.093 295.863 295.611 295.408 295.218 295.066 294.861 294.646 294.493 294.353 294.183 294.056 293.933 293.843 293.723 293.628 293.471 293.408 293.311 293.141 293.001 292.888 292.786 292.708 292.763 292.736 292.708 292.666 292.581 292.421 292.266 292.106 291.908 291.793 295.146 293.523 291.031 290.958 290.908 292.253 295.563 295.021 293.251 290.396 289.851 289.836 289.783 289.626 289.563 289.498 289.378 289.163 288.996 288.863 288.658 288.486 288.346 288.236 288.163 288.098 288.103 288.071 288.001 287.891 287.801 287.693 287.553 287.433 287.271 287.113 286.961 286.808 286.703 286.551 286.403 286.276 286.141 285.971 285.853 285.763 285.668 285.606 285.563 285.756 286.131 285.856 285.608 285.563 285.536 285.498 285.493 285.466 285.473 285.491 285.493 285.528 285.658 285.866 286.033 285.896 286.121 287.311 285.826 285.756 285.626 285.568 285.608 285.729 285.816 285.856 285.896 285.896 285.944 285.988 286.013 286.048 286.036 285.849 285.724 285.634 285.499 285.429 285.281 285.118 284.931 284.801 284.621 284.444 284.254 284.011 283.891 283.678 283.426 283.236 282.928 282.553 282.243 281.939 281.684 281.391 281.154 280.911 280.611 280.333 280.081 279.884 279.636 279.316 278.956 278.601 278.363 278.259 278.096 277.906 277.746 277.566 277.389 277.244 277.121 276.956 276.674 276.501 276.326 276.089 275.829 275.559 275.276 275.106 274.979 274.796 274.694 274.559 274.414 274.269 274.084 273.946 273.776 273.654 273.579 273.544 273.466 273.381 273.069 272.854 272.754 272.651 272.564 272.596 272.604 272.759 272.876 272.901 272.841 272.796 272.799 272.781 272.754 272.574 272.304 272.164 272.026 272.041 272.126 272.201 272.264 272.311 272.291 272.203 271.978 272.016 272.208 272.266 272.313 272.303 272.218 272.151 272.148 272.193 272.241 272.243 272.281 272.361 272.398 272.398 272.391 272.371 272.373 272.378 272.426 272.461 272.516 272.613 272.616 272.343 271.856 271.813 271.698 271.626 271.661 271.638 271.623 271.601 271.558 271.501 271.508 271.521 271.426 270.991 270.818 270.841 270.861 270.848 271.511 271.798 271.898 272.013 272.221 272.783 273.491 274.896 276.216 277.053 278.081 279.428 279.293 279.798 280.116 280.323 280.798 281.168 281.423 281.713
331.838 331.286 330.683 330.113 329.803 329.466 328.793 328.256 327.798 327.356 327.096 326.906 326.716 326.296 325.471 324.673 323.968 323.311 322.698 322.366 321.913 321.451 321.221 320.941 320.361 319.833 319.456 319.231 319.033 318.853 318.586 318.326 318.083 317.881 317.693 317.548 317.356 317.036 316.668 316.346 316.096 315.843 315.601 315.353 315.061 314.748 314.493 314.946 314.076 313.761 313.493 313.078 312.418 311.403 310.633 310.093 309.586 308.956 308.406 307.926 307.396 306.798 306.251 305.868 305.573 305.293 305.068 304.831 304.593 304.368 304.128 303.906 303.653 303.446 303.223 302.983 302.723 302.403 301.826 301.313 300.851 300.476 300.228 300.066 300.001 300.043 300.163 300.251 300.318 300.258 300.171 299.976 299.698 299.381 299.161 298.916 298.658 298.423 298.191 297.941 297.696 297.438 297.171 296.966 296.661 296.466 296.246 295.981 295.741 295.548 295.323 295.141 294.948 294.746 294.588 294.418 294.278 294.166 294.056 293.938 293.856 293.721 293.588 293.513 293.426 293.271 293.161 293.071 293.041 293.073 293.131 293.086 292.978 292.783 292.578 292.393 292.223 292.091 291.948 291.873 292.628 293.381 291.151 292.266 292.538 291.886 294.286 293.778 291.488 290.023 289.866 289.731 289.786 289.806 289.733 289.646 289.493 289.301 289.158 289.016 288.858 288.698 288.518 288.438 288.373 288.333 288.258 288.178 288.111 288.023 287.926 287.813 287.658 287.551 287.413 287.243 287.098 286.961 286.856 286.683 286.576 286.413 286.266 286.131 286.023 285.901 285.821 285.858 286.111 286.331 285.836 285.746 285.683 285.626 285.593 285.583 285.561 285.541 285.513 285.521 285.576 285.611 285.688 285.846 286.166 285.976 285.936 286.511 285.861 285.746 285.671 285.603 285.604 285.684 285.781 285.811 285.794 285.798 285.844 285.906 285.991 286.051 286.078 285.999 285.866 285.809 285.629 285.484 285.333 285.196 285.056 284.916 284.741 284.544 284.366 284.143 283.931 283.731 283.521 283.301 283.009 282.719 282.356 282.046 281.726 281.456 281.161 280.876 280.616 280.339 280.091 279.886 279.694 279.364 278.981 278.681 278.416 278.249 278.106 277.893 277.676 277.646 277.536 277.356 277.144 277.016 276.759 276.566 276.436 276.256 275.929 275.609 275.354 275.166 275.004 274.876 274.749 274.586 274.454 274.354 274.206 274.024 273.866 273.666 273.556 273.516 273.491 273.404 273.196 272.959 272.774 272.619 272.571 272.549 272.561 272.664 272.826 272.851 272.846 272.816 272.794 272.776 272.764 272.646 272.349 272.161 272.036 271.986 272.081 272.171 272.246 272.256 272.178 272.023 271.941 272.116 272.221 272.261 272.218 272.168 272.116 272.156 272.148 272.188 272.251 272.238 272.263 272.348 272.401 272.416 272.446 272.416 272.416 272.446 272.413 272.436 272.548 272.546 272.551 272.318 271.848 271.778 271.723 271.623 271.623 271.631 271.643 271.583 271.536 271.468 271.443 271.456 271.503 271.123 270.733 270.738 270.743 270.778 271.183 271.746 271.841 271.876 272.021 272.411 273.021 273.941 275.126 276.398 277.163 278.856 279.336 279.258 280.211 280.316 280.531 280.996 281.266 281.526
332.378 331.801 331.066 330.411 329.986 329.748 329.031 328.458 328.013 327.593 327.306 327.128 326.906 326.541 326.013 325.106 324.498 323.903 323.366 322.943 322.451 321.941 321.518 321.271 320.666 320.031 319.596 319.236 319.063 318.891 318.666 318.428 318.191 317.986 317.856 317.748 317.588 317.306 316.926 316.628 316.336 316.078 315.803 315.576 315.341 315.026 314.756 314.663 314.921 314.076 313.486 312.828 312.218 311.453 310.796 310.176 309.608 308.983 308.493 307.963 307.393 306.876 306.441 306.083 305.816 305.541 305.271 305.021 304.753 304.516 304.298 304.041 303.816 303.606 303.411 303.128 302.911 302.723 302.461 301.963 301.588 301.133 300.881 300.716 300.823 300.856 301.051 301.093 301.033 300.781 300.461 300.168 299.863 299.616 299.361 299.083 298.826 298.588 298.348 298.063 297.801 297.573 297.318 297.053 296.791 296.601 296.373 296.103 295.888 295.648 295.461 295.261 295.021 294.818 294.693 294.556 294.401 294.256 294.106 294.046 293.931 293.813 293.718 293.621 293.531 293.408 293.346 293.338 293.386 293.433 293.383 293.201 292.961 292.726 292.533 292.386 292.228 292.093 291.951 291.866 291.793 292.406 293.678 291.856 291.238 290.828 290.958 290.381 290.231 290.098 289.986 289.838 289.843 289.928 289.838 289.746 289.576 289.393 289.296 289.198 289.063 288.906 288.736 288.631 288.536 288.478 288.373 288.313 288.266 288.166 288.021 287.911 287.776 287.686 287.531 287.396 287.283 287.153 287.006 286.883 286.721 286.571 286.476 286.313 286.218 286.131 286.071 286.538 286.421 285.953 285.871 285.838 285.771 285.713 285.648 285.668 285.588 285.593 285.581 285.586 285.648 285.673 285.726 285.801 286.153 285.991 285.966 286.436 285.913 285.793 285.713 285.668 285.659 285.701 285.724 285.751 285.743 285.771 285.791 285.844 285.906 285.986 286.046 286.019 285.896 285.801 285.739 285.606 285.446 285.268 285.124 284.936 284.731 284.578 284.436 284.203 283.914 283.731 283.559 283.351 283.118 282.773 282.374 282.073 281.781 281.501 281.194 280.901 280.636 280.339 280.109 279.904 279.686 279.391 279.036 278.708 278.441 278.268 278.106 277.974 277.771 277.656 277.631 277.499 277.244 277.056 276.899 276.659 276.514 276.371 276.069 275.761 275.526 275.269 275.109 274.976 274.789 274.686 274.551 274.364 274.241 274.129 273.944 273.731 273.604 273.506 273.421 273.331 273.324 273.169 272.901 272.679 272.614 272.576 272.544 272.599 272.739 272.819 272.789 272.779 272.759 272.736 272.731 272.669 272.354 272.116 272.029 271.921 271.911 271.966 271.991 272.039 271.941 271.848 271.866 271.961 272.053 272.046 272.053 272.008 271.986 272.126 272.228 272.266 272.321 272.301 272.321 272.323 272.343 272.381 272.388 272.413 272.433 272.463 272.476 272.456 272.476 272.501 272.521 272.396 271.878 271.778 271.748 271.596 271.588 271.586 271.573 271.541 271.511 271.451 271.441 271.443 271.498 271.311 270.796 270.788 270.763 270.776 270.916 271.536 271.778 271.876 271.898 272.143 272.693 273.503 274.458 275.678 276.746 277.976 279.396 279.258 279.561 280.346 280.258 280.658 281.078 281.373
332.751 332.246 331.496 330.721 330.188 329.893 329.358 328.638 328.151 327.801 327.543 327.316 327.106 326.798 326.316 325.728 325.038 324.371 323.881 323.423 322.921 322.383 321.856 321.456 321.031 320.328 319.858 319.383 319.141 319.006 318.796 318.551 318.328 318.121 317.993 317.876 317.778 317.581 317.208 316.883 316.613 316.321 316.068 315.843 315.561 315.303 315.056 314.701 314.963 314.211 313.163 312.548 312.088 311.481 310.823 310.146 309.553 308.948 308.476 307.936 307.438 307.013 306.658 306.308 306.018 305.741 305.483 305.218 304.973 304.738 304.476 304.226 303.981 303.771 303.576 303.361 303.143 302.958 302.803 302.663 302.418 301.991 301.808 301.693 301.751 301.886 301.833 301.601 301.301 300.953 300.676 300.381 300.116 299.848 299.578 299.286 299.006 298.743 298.498 298.233 297.941 297.681 297.428 297.148 296.931 296.706 296.486 296.256 296.048 295.831 295.568 295.346 295.151 294.991 294.836 294.676 294.528 294.388 294.231 294.101 293.986 293.878 293.823 293.741 293.678 293.623 293.676 293.808 293.766 293.651 293.438 293.113 292.883 292.728 292.571 292.423 292.271 292.103 291.971 291.833 291.768 291.746 291.548 291.318 291.271 290.826 290.433 290.353 290.238 290.156 290.026 289.903 289.976 290.001 289.898 289.748 289.626 289.541 289.453 289.353 289.238 289.101 288.946 288.786 288.661 288.561 288.511 288.418 288.326 288.223 288.133 288.051 287.931 287.798 287.693 287.546 287.418 287.303 287.166 287.036 286.893 286.768 286.633 286.521 286.473 286.453 286.978 286.411 286.123 286.011 285.941 285.921 285.873 285.798 285.748 285.728 285.671 285.648 285.661 285.681 285.703 285.726 285.768 285.808 286.191 286.036 285.956 286.123 286.073 285.763 285.748 285.733 285.701 285.708 285.704 285.729 285.746 285.768 285.786 285.851 285.851 285.888 285.969 285.956 285.883 285.819 285.751 285.626 285.493 285.301 285.126 284.926 284.766 284.639 284.488 284.271 283.974 283.806 283.621 283.386 283.113 282.821 282.423 282.081 281.794 281.501 281.178 280.891 280.651 280.388 280.129 279.879 279.669 279.401 279.031 278.679 278.471 278.339 278.254 278.091 277.953 277.796 277.641 277.644 277.386 277.156 277.004 276.781 276.596 276.464 276.214 275.919 275.616 275.406 275.224 275.069 274.904 274.756 274.606 274.451 274.319 274.201 274.016 273.806 273.621 273.491 273.396 273.341 273.369 273.361 273.136 272.814 272.679 272.596 272.544 272.549 272.629 272.754 272.734 272.739 272.741 272.716 272.716 272.594 272.339 272.129 271.999 271.909 271.836 271.839 271.806 271.751 271.726 271.666 271.703 271.713 271.731 271.713 271.738 271.748 271.781 272.043 272.146 272.226 272.296 272.303 272.316 272.311 272.293 272.293 272.291 272.351 272.358 272.413 272.471 272.486 272.473 272.496 272.546 272.491 271.993 271.753 271.753 271.611 271.541 271.543 271.541 271.518 271.486 271.434 271.428 271.428 271.486 271.366 270.918 270.716 270.716 270.761 270.911 271.293 271.743 271.848 271.883 271.966 272.358 273.101 274.036 275.361 276.291 277.403 279.241 279.248 279.288 280.126 280.088 280.406 280.941 281.266
332.961 332.498 331.791 331.131 330.451 330.046 329.606 328.883 328.348 327.993 327.728 327.491 327.303 327.053 326.663 326.126 325.563 324.838 324.218 323.783 323.313 322.783 322.166 321.678 321.341 320.708 320.078 319.593 319.278 319.121 318.946 318.671 318.483 318.288 318.126 318.031 317.941 317.826 317.493 317.138 316.846 316.586 316.293 316.061 315.846 315.638 315.336 314.896 314.313 314.293 312.926 312.486 312.096 311.463 310.721 310.048 309.418 308.893 308.438 307.978 307.566 307.183 306.853 306.511 306.198 305.851 305.613 305.463 305.176 304.903 304.648 304.483 304.326 304.161 303.988 303.808 303.648 303.486 303.261 303.173 303.123 302.921 302.653 302.618 302.496 302.358 302.046 301.768 301.446 301.148 300.846 300.561 300.313 300.011 299.746 299.456 299.181 298.911 298.638 298.346 298.086 297.778 297.536 297.311 297.103 296.866 296.613 296.408 296.156 295.933 295.708 295.496 295.326 295.131 294.951 294.803 294.638 294.481 294.331 294.181 294.053 293.963 293.896 293.836 293.808 293.921 294.036 294.058 293.856 293.593 293.293 293.046 292.878 292.743 292.601 292.456 292.316 292.133 291.986 291.798 291.681 291.518 291.448 291.203 290.953 290.966 290.518 290.403 290.401 290.296 290.118 290.053 290.051 290.076 289.956 289.821 289.706 289.658 289.568 289.473 289.376 289.253 289.056 288.898 288.768 288.698 288.606 288.503 288.393 288.328 288.251 288.153 288.033 287.916 287.801 287.681 287.563 287.441 287.318 287.218 287.093 286.948 286.843 286.721 286.753 287.351 286.573 286.348 286.221 286.156 286.083 286.041 285.976 285.918 285.876 285.796 285.763 285.763 285.743 285.736 285.746 285.766 285.776 285.796 286.083 286.896 286.711 286.236 287.111 285.826 285.781 285.741 285.694 285.701 285.731 285.726 285.763 285.804 285.806 285.836 285.831 285.816 285.891 285.874 285.746 285.764 285.719 285.596 285.419 285.243 285.073 284.909 284.746 284.596 284.428 284.243 283.999 283.801 283.638 283.371 283.111 282.851 282.436 282.089 281.794 281.474 281.133 280.836 280.638 280.446 280.148 279.891 279.669 279.406 279.069 278.801 278.616 278.444 278.314 278.181 278.068 277.906 277.691 277.566 277.504 277.261 277.061 276.924 276.706 276.536 276.361 276.081 275.766 275.561 275.451 275.166 275.016 274.809 274.669 274.546 274.346 274.226 274.106 273.879 273.666 273.536 273.474 273.386 273.361 273.341 273.319 273.044 272.756 272.646 272.549 272.504 272.544 272.691 272.741 272.751 272.711 272.676 272.631 272.441 272.256 272.071 271.944 271.831 271.769 271.746 271.744 271.699 271.691 271.668 271.653 271.681 271.678 271.653 271.646 271.636 271.621 271.748 271.903 272.101 272.151 272.241 272.276 272.223 272.201 272.171 272.186 272.196 272.221 272.336 272.396 272.406 272.456 272.468 272.516 272.548 272.243 271.841 271.713 271.711 271.678 271.561 271.506 271.503 271.473 271.441 271.386 271.366 271.433 271.426 271.086 270.716 270.758 270.668 270.626 270.996 271.653 271.818 271.841 271.908 272.133 272.756 273.526 274.818 275.611 277.191 278.128 279.501 279.233 279.581 280.386 280.226 280.666 281.171
333.193 332.798 332.026 331.401 330.726 330.306 329.953 329.308 328.546 328.168 327.888 327.668 327.456 327.278 327.033 326.623 326.013 325.193 324.576 324.103 323.646 323.186 322.476 321.938 321.538 321.043 320.421 319.876 319.441 319.238 319.056 318.873 318.673 318.478 318.323 318.181 318.086 317.973 317.826 317.453 317.096 316.818 316.593 316.363 316.168 315.908 315.393 314.576 313.801 314.088 313.076 312.416 312.016 311.371 310.633 309.956 309.386 308.906 308.496 308.098 307.688 307.368 307.036 306.696 306.363 306.046 305.783 305.586 305.356 305.158 305.068 305.121 305.086 304.993 304.903 304.706 304.436 304.226 303.958 303.708 303.603 303.396 303.193 302.991 302.776 302.521 302.223 301.928 301.623 301.291 301.023 300.751 300.421 300.141 299.868 299.608 299.353 299.081 298.786 298.506 298.236 297.958 297.733 297.493 297.253 296.998 296.743 296.491 296.276 296.091 295.871 295.671 295.448 295.263 295.073 294.938 294.788 294.606 294.443 294.306 294.166 294.051 293.976 293.966 294.036 294.131 294.151 293.993 293.681 293.423 293.223 293.086 292.923 292.798 292.651 292.501 292.318 292.131 291.983 291.803 291.636 291.458 291.251 291.078 290.846 290.936 290.818 290.508 290.513 290.413 290.231 290.146 290.151 290.108 290.043 289.911 289.791 289.753 289.671 289.596 289.528 289.386 289.198 289.048 288.933 288.801 288.663 288.566 288.508 288.456 288.386 288.268 288.161 288.061 287.916 287.836 287.706 287.586 287.483 287.408 287.303 287.218 287.073 287.353 287.201 286.841 286.586 286.431 286.336 286.278 286.163 286.101 286.051 286.008 285.936 285.908 285.881 285.851 285.818 285.786 285.761 285.753 285.776 285.778 285.896 286.148 285.863 287.026 287.116 285.798 285.778 285.713 285.701 285.699 285.714 285.754 285.824 285.828 285.831 285.831 285.776 285.743 285.708 285.736 285.696 285.681 285.629 285.484 285.289 285.131 284.979 284.861 284.714 284.559 284.229 283.976 283.846 283.724 283.511 283.273 283.013 282.754 282.416 282.131 281.811 281.531 281.203 280.841 280.646 280.444 280.169 279.921 279.671 279.401 279.151 279.006 278.809 278.551 278.331 278.251 278.118 277.889 277.744 277.569 277.504 277.371 277.149 276.979 276.826 276.601 276.374 276.151 275.894 275.759 275.494 275.281 275.159 274.829 274.661 274.524 274.371 274.274 274.176 273.989 273.761 273.611 273.509 273.416 273.349 273.309 273.311 273.284 273.019 272.764 272.624 272.531 272.496 272.529 272.656 272.696 272.661 272.596 272.511 272.366 272.124 271.959 271.826 271.764 271.816 271.736 271.716 271.701 271.701 271.673 271.688 271.676 271.651 271.668 271.646 271.636 271.606 271.581 271.596 271.653 271.748 271.843 271.951 271.951 271.991 271.948 271.951 272.006 272.078 272.138 272.251 272.276 272.333 272.356 272.421 272.458 272.308 271.928 271.651 271.641 271.631 271.681 271.486 271.461 271.451 271.453 271.403 271.381 271.393 271.441 271.291 270.783 270.748 270.703 270.751 270.781 271.351 271.766 271.836 271.911 272.023 272.436 273.231 274.153 275.308 276.666 277.611 279.236 279.303 279.293 280.183 280.106 280.438 281.048
333.648 332.958 332.361 331.591 330.971 330.506 330.146 329.671 328.926 328.448 328.111 327.838 327.618 327.431 327.226 326.953 326.473 325.688 324.886 324.361 323.888 323.406 322.773 322.183 321.743 321.393 320.781 320.191 319.716 319.448 319.266 319.103 318.888 318.686 318.503 318.356 318.236 318.143 318.016 317.798 317.398 317.131 316.866 316.631 316.376 315.781 314.883 314.036 313.448 313.286 313.516 312.298 311.918 311.311 310.693 310.016 309.441 309.036 308.631 308.221 307.826 307.496 307.196 306.886 306.573 306.323 306.073 305.953 305.828 305.868 305.933 305.966 305.993 306.036 305.826 305.508 305.136 304.796 304.443 304.108 303.853 303.651 303.403 303.198 302.943 302.701 302.376 302.048 301.763 301.483 301.191 300.898 300.618 300.313 299.998 299.728 299.491 299.208 298.978 298.686 298.403 298.118 297.868 297.608 297.363 297.151 296.881 296.653 296.418 296.198 295.973 295.773 295.578 295.361 295.171 294.986 294.848 294.651 294.523 294.403 294.273 294.183 294.128 294.148 294.161 294.181 294.063 293.823 293.558 293.386 293.236 293.103 292.973 292.821 292.678 292.513 292.336 292.166 292.003 291.826 291.663 291.511 291.298 291.106 290.901 290.801 290.848 290.603 290.546 290.423 290.276 290.226 290.201 290.161 290.091 289.991 289.876 289.841 289.781 289.696 289.583 289.501 289.348 289.166 288.991 288.848 288.763 288.673 288.613 288.548 288.473 288.408 288.286 288.193 288.088 287.981 287.873 287.818 287.703 287.631 287.538 287.516 287.783 287.478 287.026 286.846 286.726 286.618 286.473 286.371 286.271 286.216 286.156 286.133 286.061 286.038 285.998 285.926 285.861 285.806 285.758 285.756 285.771 285.758 285.816 286.068 285.888 285.793 286.263 285.906 285.706 285.738 285.743 285.768 285.801 285.876 285.956 285.939 285.916 285.828 285.768 285.691 285.646 285.606 285.594 285.559 285.493 285.363 285.221 285.069 284.904 284.776 284.669 284.504 284.243 283.914 283.773 283.633 283.411 283.189 282.971 282.673 282.436 282.091 281.809 281.539 281.239 280.898 280.659 280.409 280.169 279.931 279.763 279.556 279.319 279.083 278.871 278.664 278.436 278.243 278.189 278.018 277.854 277.736 277.556 277.416 277.244 277.051 276.876 276.704 276.474 276.224 275.999 275.911 275.684 275.431 275.126 274.911 274.701 274.551 274.424 274.279 274.191 274.059 273.866 273.684 273.554 273.466 273.374 273.339 273.289 273.294 273.179 272.956 272.736 272.599 272.501 272.436 272.489 272.491 272.501 272.469 272.406 272.236 271.989 271.834 271.751 271.729 271.734 271.751 271.784 271.856 271.843 271.808 271.813 271.783 271.761 271.721 271.708 271.641 271.601 271.586 271.581 271.521 271.501 271.491 271.521 271.573 271.618 271.748 271.943 272.001 272.051 272.071 272.118 272.166 272.188 272.248 272.278 272.281 272.291 272.001 271.631 271.593 271.596 271.468 271.448 271.473 271.456 271.508 271.381 271.326 271.318 271.421 271.346 270.858 270.741 270.658 270.658 270.633 271.216 271.586 271.841 271.846 271.936 272.308 272.728 273.613 274.811 276.021 277.168 278.211 279.458 279.178 279.593 279.976 280.213 280.811
334.111 333.401 332.721 331.898 331.316 330.798 330.326 329.931 329.383 328.768 328.368 328.043 327.756 327.551 327.373 327.133 326.621 326.068 325.283 324.596 324.081 323.586 323.061 322.463 322.018 321.648 321.198 320.606 320.091 319.676 319.503 319.341 319.103 318.913 318.718 318.591 318.401 318.288 318.161 317.991 317.731 317.418 317.126 316.756 316.093 315.283 314.478 313.761 313.316 312.996 313.386 312.286 311.756 311.258 310.728 310.141 309.596 309.158 308.716 308.368 308.061 307.703 307.358 307.071 306.841 306.606 306.501 306.523 306.606 306.758 306.933 306.993 306.871 306.656 306.241 305.773 305.336 304.948 304.581 304.313 304.053 303.788 303.593 303.356 303.133 302.831 302.521 302.228 301.931 301.648 301.333 301.016 300.743 300.478 300.171 299.916 299.666 299.368 299.136 298.866 298.628 298.306 298.011 297.801 297.511 297.273 297.073 296.831 296.551 296.323 296.108 295.873 295.666 295.418 295.268 295.071 294.903 294.733 294.608 294.491 294.371 294.348 294.343 294.341 294.268 294.131 293.886 293.701 293.561 293.393 293.288 293.146 293.016 292.853 292.673 292.523 292.358 292.188 291.973 291.753 291.696 291.593 291.356 291.171 290.958 290.796 290.676 290.606 290.488 290.393 290.318 290.261 290.243 290.186 290.126 290.031 289.988 289.931 289.878 289.773 289.696 289.576 289.413 289.228 289.076 288.973 288.898 288.778 288.731 288.693 288.611 288.536 288.431 288.348 288.238 288.178 288.113 288.018 287.908 287.863 287.873 288.361 287.648 287.301 287.158 287.021 286.878 286.743 286.613 286.503 286.418 286.346 286.273 286.221 286.183 286.123 286.051 285.958 285.901 285.828 285.811 285.758 285.743 285.731 285.783 285.973 288.056 288.721 285.941 286.133 285.678 285.713 285.811 285.866 285.984 286.026 286.124 286.138 286.111 285.971 285.886 285.751 285.669 285.581 285.541 285.466 285.361 285.211 285.154 285.018 284.898 284.736 284.586 284.391 284.176 283.946 283.731 283.499 283.266 283.041 282.824 282.566 282.286 282.059 281.794 281.529 281.231 280.961 280.763 280.521 280.311 280.076 279.879 279.676 279.388 279.159 278.896 278.726 278.486 278.316 278.214 278.126 277.949 277.861 277.749 277.524 277.334 277.144 276.954 276.794 276.581 276.431 276.191 275.974 275.784 275.619 275.344 274.999 274.736 274.629 274.469 274.334 274.189 274.086 273.916 273.729 273.639 273.559 273.474 273.394 273.346 273.271 273.229 273.114 272.944 272.726 272.579 272.429 272.434 272.416 272.409 272.394 272.271 272.076 271.841 271.736 271.706 271.759 271.911 271.914 271.984 272.034 272.071 272.096 272.051 272.048 272.023 271.988 271.938 271.818 271.676 271.641 271.668 271.661 271.646 271.566 271.538 271.548 271.551 271.623 271.701 271.818 271.993 272.056 272.073 272.066 272.073 272.123 272.168 272.238 272.343 272.171 271.738 271.593 271.596 271.496 271.626 271.461 271.381 271.403 271.351 271.288 271.268 271.388 271.361 270.926 270.623 270.608 270.708 270.783 271.043 271.526 271.771 271.798 271.868 271.991 272.288 273.216 274.278 275.568 276.898 277.826 279.003 279.251 279.183 279.851 279.981 280.446
334.438 333.778 333.013 332.318 331.776 331.138 330.601 330.136 329.808 329.193 328.666 328.303 327.948 327.673 327.461 327.258 326.866 326.398 325.576 324.863 324.316 323.813 323.313 322.726 322.273 321.888 321.511 320.918 320.371 319.936 319.716 319.573 319.368 319.176 318.971 318.776 318.621 318.476 318.333 318.173 318.053 317.733 317.211 316.418 315.543 314.873 314.221 313.691 313.303 312.973 312.833 312.796 311.793 311.328 310.856 310.293 309.753 309.278 308.893 308.571 308.268 307.958 307.633 307.436 307.291 307.216 307.328 307.298 307.461 307.613 307.591 307.401 307.018 306.616 306.208 305.798 305.403 305.071 304.741 304.453 304.241 303.983 303.778 303.531 303.276 302.993 302.686 302.396 302.081 301.788 301.486 301.176 300.896 300.608 300.363 300.113 299.851 299.583 299.341 299.013 298.783 298.473 298.228 297.988 297.716 297.468 297.228 296.951 296.706 296.426 296.198 295.978 295.738 295.513 295.321 295.131 294.971 294.821 294.696 294.613 294.568 294.461 294.451 294.408 294.263 294.043 293.846 293.698 293.583 293.448 293.338 293.196 293.046 292.886 292.688 292.538 292.366 292.191 291.966 291.766 291.711 291.631 291.468 291.288 291.098 290.913 290.783 290.646 290.518 290.413 290.383 290.341 290.286 290.233 290.151 290.106 290.096 290.008 289.936 289.888 289.771 289.668 289.486 289.341 289.221 289.118 289.003 288.923 288.858 288.801 288.741 288.653 288.573 288.493 288.441 288.451 288.358 288.243 288.171 288.318 288.413 288.026 287.591 287.431 287.291 287.183 287.028 286.881 286.738 286.638 286.548 286.476 286.391 286.331 286.266 286.201 286.096 286.006 285.908 285.831 285.793 285.738 285.721 285.706 285.731 285.838 286.026 285.793 285.716 286.278 285.706 285.743 285.814 286.046 286.136 286.184 286.224 286.234 286.224 286.161 286.064 285.888 285.749 285.609 285.499 285.416 285.331 285.206 285.139 285.029 284.951 284.804 284.674 284.509 284.301 284.061 283.849 283.571 283.303 283.086 282.866 282.604 282.331 282.011 281.791 281.569 281.346 281.111 280.868 280.656 280.431 280.208 279.991 279.789 279.499 279.201 278.984 278.781 278.571 278.393 278.243 278.104 278.111 277.969 277.846 277.654 277.409 277.196 277.046 276.881 276.686 276.516 276.281 276.096 275.889 275.679 275.431 275.089 274.864 274.656 274.481 274.349 274.166 274.079 273.964 273.741 273.626 273.564 273.474 273.456 273.404 273.316 273.249 273.179 273.061 272.896 272.706 272.586 272.471 272.419 272.376 272.281 272.084 271.906 271.814 271.724 271.731 271.836 271.941 272.004 272.049 272.084 272.163 272.191 272.206 272.228 272.236 272.236 272.246 272.148 271.971 271.866 271.881 271.981 271.976 271.856 271.758 271.661 271.596 271.613 271.646 271.661 271.706 271.826 271.981 272.031 272.088 272.078 272.113 272.133 272.151 272.158 271.931 271.571 271.503 271.433 271.498 271.388 271.386 271.393 271.363 271.288 271.193 271.448 271.416 271.001 270.656 270.618 270.733 270.666 270.808 271.406 271.718 271.753 271.798 271.903 272.101 272.608 273.546 274.891 276.418 277.476 278.361 279.443 279.133 279.431 280.036 280.026
334.951 334.233 333.388 332.743 332.251 331.608 331.046 330.533 330.126 329.606 329.023 328.551 328.141 327.811 327.571 327.366 327.066 326.653 325.938 325.216 324.571 323.996 323.493 322.951 322.461 322.111 321.753 321.263 320.773 320.311 319.988 319.813 319.638 319.443 319.231 319.036 318.848 318.728 318.553 318.438 318.228 317.653 316.761 315.883 315.188 314.586 314.053 313.691 313.331 312.983 312.788 313.008 311.953 311.488 310.996 310.453 309.978 309.508 309.111 308.803 308.528 308.308 308.178 308.111 308.116 308.223 308.293 308.301 308.216 308.046 307.703 307.348 307.006 306.661 306.246 305.876 305.548 305.233 304.913 304.631 304.408 304.178 303.908 303.671 303.401 303.143 302.863 302.543 302.241 301.946 301.613 301.351 301.061 300.786 300.546 300.306 300.023 299.771 299.503 299.231 298.973 298.706 298.413 298.126 297.846 297.573 297.306 297.026 296.816 296.533 296.296 296.071 295.843 295.613 295.408 295.193 295.041 294.896 294.816 294.738 294.713 294.593 294.478 294.293 294.121 293.966 293.823 293.718 293.613 293.486 293.338 293.201 293.051 292.873 292.688 292.533 292.373 292.188 292.023 291.908 291.821 291.686 291.516 291.311 291.181 291.033 290.863 290.713 290.606 290.503 290.428 290.363 290.308 290.241 290.218 290.196 290.141 290.038 290.003 289.923 289.788 289.703 289.608 289.491 289.363 289.268 289.158 289.071 288.993 288.953 288.878 288.821 288.761 288.706 288.728 288.678 288.581 288.503 288.796 288.656 288.041 287.853 287.718 287.576 287.431 287.308 287.143 287.008 286.863 286.788 286.696 286.598 286.526 286.426 286.311 286.216 286.121 286.038 285.918 285.831 285.758 285.731 285.693 285.646 285.691 285.758 286.046 286.916 285.753 286.918 287.128 285.801 285.944 286.053 286.194 286.284 286.341 286.378 286.349 286.296 286.179 286.016 285.854 285.673 285.561 285.456 285.341 285.249 285.208 285.151 285.073 284.974 284.851 284.678 284.434 284.206 284.006 283.789 283.504 283.261 283.109 282.841 282.506 282.171 281.921 281.698 281.499 281.224 280.999 280.779 280.549 280.351 280.143 279.898 279.609 279.281 279.013 278.831 278.629 278.446 278.351 278.214 278.136 278.046 277.826 277.646 277.519 277.274 277.114 276.954 276.759 276.626 276.419 276.176 275.976 275.831 275.641 275.304 275.021 274.684 274.534 274.336 274.171 274.026 273.906 273.746 273.651 273.546 273.506 273.469 273.419 273.331 273.274 273.226 273.149 273.024 272.889 272.714 272.526 272.454 272.331 272.124 271.984 271.834 271.771 271.744 271.846 271.939 271.979 272.049 272.064 272.141 272.198 272.273 272.273 272.316 272.283 272.273 272.328 272.291 272.251 272.196 272.203 272.203 272.216 272.181 272.143 272.061 271.961 271.773 271.698 271.666 271.653 271.616 271.688 271.793 271.963 272.056 272.166 272.143 272.158 272.208 272.061 271.566 271.518 271.388 271.391 271.356 271.366 271.396 271.298 271.221 271.173 271.383 271.393 271.178 270.676 270.621 270.823 270.681 270.758 271.293 271.683 271.706 271.731 271.818 271.908 272.303 273.186 274.293 275.468 277.108 277.961 279.008 279.121 279.123 280.001 279.751
335.451 334.606 333.931 333.321 332.698 332.121 331.521 330.958 330.411 330.048 329.453 328.828 328.361 327.946 327.638 327.421 327.196 326.771 326.148 325.538 324.926 324.248 323.716 323.221 322.706 322.391 321.988 321.566 321.126 320.691 320.288 320.063 319.891 319.716 319.493 319.326 319.121 319.001 318.896 318.583 317.986 317.181 316.276 315.516 314.891 314.433 314.026 313.701 313.371 313.066 312.861 312.811 312.653 311.598 311.178 310.716 310.246 309.858 309.501 309.316 309.233 309.191 309.101 309.078 309.048 309.178 309.191 308.976 308.513 308.083 307.728 307.423 307.091 306.738 306.438 306.073 305.748 305.428 305.108 304.848 304.573 304.333 304.068 303.811 303.566 303.301 303.023 302.716 302.443 302.111 301.803 301.526 301.238 301.016 300.751 300.471 300.226 299.951 299.701 299.448 299.161 298.878 298.561 298.308 298.026 297.708 297.423 297.171 296.918 296.661 296.381 296.151 295.923 295.706 295.503 295.318 295.176 295.041 294.936 294.866 294.733 294.578 294.411 294.273 294.108 294.023 293.881 293.743 293.611 293.478 293.321 293.191 293.023 292.856 292.696 292.516 292.361 292.213 292.103 291.996 291.868 291.716 291.541 291.358 291.181 291.031 290.901 290.793 290.663 290.571 290.476 290.378 290.318 290.301 290.281 290.261 290.161 290.083 290.021 289.923 289.803 289.746 289.713 289.606 289.506 289.393 289.288 289.221 289.158 289.086 289.041 289.036 289.013 288.978 288.953 288.851 288.866 289.153 288.593 288.283 288.103 287.941 287.823 287.668 287.531 287.408 287.248 287.166 287.068 286.918 286.818 286.696 286.586 286.466 286.351 286.268 286.181 286.063 285.936 285.846 285.761 285.683 285.646 285.658 285.691 285.728 285.818 287.928 285.673 286.648 286.138 285.766 285.919 286.009 286.201 286.273 286.351 286.401 286.398 286.349 286.281 286.124 285.916 285.701 285.611 285.511 285.441 285.331 285.316 285.299 285.208 285.136 284.986 284.809 284.583 284.339 284.179 284.004 283.734 283.499 283.319 283.031 282.681 282.294 282.021 281.801 281.576 281.324 281.066 280.839 280.641 280.456 280.206 279.961 279.664 279.303 279.066 278.936 278.706 278.523 278.401 278.263 278.089 278.016 277.846 277.719 277.534 277.314 277.124 277.016 276.856 276.699 276.546 276.321 276.099 275.961 275.856 275.504 275.121 274.844 274.584 274.389 274.231 273.999 273.874 273.754 273.706 273.586 273.511 273.454 273.431 273.361 273.309 273.244 273.209 273.106 273.004 272.789 272.604 272.481 272.144 271.911 271.814 271.779 271.716 271.766 271.894 271.989 272.004 272.039 272.101 272.119 272.171 272.243 272.261 272.273 272.286 272.276 272.278 272.311 272.328 272.311 272.308 272.326 272.316 272.298 272.323 272.313 272.303 272.218 272.001 271.866 271.783 271.616 271.523 271.576 271.696 271.843 272.033 272.106 272.146 272.188 272.213 271.848 271.536 271.451 271.473 271.408 271.381 271.381 271.278 271.166 271.028 271.381 271.363 271.201 270.776 270.681 270.801 270.631 270.746 271.038 271.586 271.656 271.708 271.753 271.828 272.093 272.841 273.936 275.063 276.718 277.681 278.351 279.203 279.106 279.541 279.533
335.851 335.141 334.403 333.788 333.376 332.581 331.988 331.428 330.793 330.301 329.871 329.136 328.576 328.116 327.818 327.516 327.316 326.918 326.316 325.793 325.158 324.501 324.028 323.611 323.063 322.613 322.243 321.878 321.463 321.031 320.591 320.313 320.143 319.991 319.831 319.638 319.461 319.401 319.158 318.306 317.503 316.698 315.918 315.288 314.768 314.401 314.093 313.791 313.478 313.173 312.988 312.776 313.051 311.936 311.446 311.061 310.686 310.361 310.243 310.221 310.246 310.238 310.131 310.151 310.116 309.858 309.396 308.981 308.601 308.223 307.873 307.546 307.226 306.898 306.591 306.273 305.948 305.568 305.278 305.003 304.741 304.483 304.218 303.966 303.703 303.421 303.178 302.906 302.638 302.358 302.038 301.731 301.411 301.163 300.931 300.641 300.416 300.168 299.863 299.621 299.316 299.018 298.668 298.428 298.176 297.841 297.561 297.336 297.038 296.771 296.498 296.251 296.021 295.813 295.628 295.471 295.316 295.198 295.086 294.923 294.738 294.543 294.393 294.296 294.211 294.121 293.943 293.808 293.643 293.473 293.293 293.146 292.978 292.806 292.671 292.513 292.371 292.263 292.158 292.033 291.873 291.711 291.496 291.348 291.186 291.028 290.926 290.813 290.698 290.593 290.508 290.463 290.378 290.333 290.311 290.236 290.181 290.098 290.021 289.946 289.903 289.833 289.776 289.733 289.623 289.533 289.468 289.373 289.301 289.273 289.253 289.258 289.221 289.143 289.076 289.306 289.266 288.678 288.493 288.336 288.201 288.058 287.918 287.756 287.638 287.518 287.413 287.281 287.168 287.033 286.926 286.781 286.653 286.516 286.408 286.283 286.176 286.056 285.958 285.851 285.748 285.681 285.636 285.653 285.646 285.681 285.711 285.766 285.993 287.153 286.806 286.398 287.991 286.041 286.094 286.186 286.266 286.289 286.326 286.349 286.286 286.203 285.986 285.801 285.731 285.646 285.576 285.539 285.506 285.454 285.384 285.299 285.143 284.966 284.751 284.536 284.406 284.189 283.941 283.716 283.481 283.161 282.846 282.436 282.111 281.846 281.626 281.419 281.174 280.911 280.691 280.514 280.229 279.974 279.698 279.426 279.174 278.946 278.699 278.546 278.464 278.284 278.146 277.994 277.936 277.801 277.579 277.379 277.171 277.074 276.981 276.821 276.666 276.484 276.209 275.994 275.829 275.654 275.311 275.016 274.701 274.416 274.159 273.979 273.871 273.784 273.726 273.651 273.546 273.459 273.429 273.371 273.331 273.286 273.206 273.136 273.036 272.861 272.709 272.289 271.909 271.774 271.726 271.751 271.749 271.801 271.931 271.991 272.044 272.119 272.106 272.156 272.171 272.216 272.226 272.246 272.233 272.226 272.268 272.303 272.336 272.358 272.378 272.356 272.311 272.296 272.306 272.353 272.391 272.351 272.256 272.198 272.111 271.991 271.756 271.476 271.491 271.613 271.793 271.951 271.998 272.046 272.086 271.961 271.491 271.463 271.491 271.483 271.448 271.353 271.221 271.178 271.003 271.256 271.348 271.173 270.721 270.658 270.673 270.631 270.736 271.036 271.508 271.623 271.681 271.746 271.773 271.868 272.238 273.086 274.681 276.028 277.168 277.636 278.808 279.076 279.296 279.723
336.228 335.708 335.086 334.301 333.651 332.978 332.386 331.786 331.131 330.516 330.201 329.581 328.916 328.403 327.948 327.673 327.446 327.146 326.626 326.158 325.498 324.886 324.358 323.983 323.443 322.818 322.438 322.163 321.731 321.371 320.956 320.588 320.413 320.248 320.093 319.988 319.736 319.353 318.671 317.698 316.773 316.143 315.746 315.221 314.773 314.436 314.223 313.926 313.593 313.343 313.091 312.828 312.763 312.631 311.706 311.498 311.258 311.121 311.151 311.276 311.321 311.298 311.151 310.783 310.256 309.896 309.471 309.131 308.751 308.391 307.998 307.706 307.403 307.081 306.786 306.446 306.096 305.738 305.453 305.161 304.876 304.631 304.363 304.108 303.828 303.596 303.336 303.111 302.873 302.608 302.278 301.971 301.683 301.381 301.116 300.836 300.608 300.343 300.036 299.761 299.458 299.128 298.866 298.568 298.326 298.013 297.741 297.453 297.198 296.928 296.681 296.411 296.203 296.011 295.836 295.656 295.473 295.326 295.171 294.933 294.746 294.593 294.488 294.391 294.268 294.103 293.963 293.811 293.678 293.501 293.278 293.113 292.936 292.806 292.693 292.563 292.438 292.293 292.171 292.018 291.836 291.668 291.476 291.328 291.193 291.076 290.966 290.846 290.723 290.658 290.583 290.518 290.443 290.366 290.303 290.228 290.181 290.088 290.016 289.946 289.926 289.893 289.866 289.831 289.771 289.683 289.606 289.543 289.501 289.503 289.481 289.423 289.301 289.276 289.636 289.113 288.728 288.641 288.518 288.388 288.261 288.123 288.016 287.861 287.763 287.643 287.541 287.418 287.308 287.148 287.008 286.853 286.681 286.553 286.401 286.251 286.198 286.066 285.943 285.828 285.753 285.691 285.638 285.618 285.558 285.556 285.503 285.593 285.573 285.478 286.458 286.106 285.708 285.839 285.993 285.999 286.061 286.129 286.221 286.273 286.261 286.229 286.143 286.008 285.861 285.826 285.766 285.721 285.708 285.621 285.526 285.481 285.303 285.133 284.974 284.746 284.559 284.268 283.989 283.828 283.586 283.284 282.956 282.546 282.226 281.928 281.706 281.534 281.263 281.018 280.759 280.531 280.284 279.984 279.749 279.546 279.276 278.974 278.789 278.671 278.534 278.368 278.221 278.069 277.954 277.886 277.694 277.481 277.304 277.141 277.029 276.959 276.801 276.571 276.434 276.134 275.924 275.754 275.486 275.159 274.786 274.396 274.204 274.009 273.889 273.801 273.754 273.664 273.574 273.521 273.429 273.386 273.361 273.299 273.201 273.154 273.104 272.939 272.544 272.094 271.936 271.794 271.696 271.709 271.759 271.884 271.959 271.984 272.079 272.131 272.126 272.146 272.163 272.186 272.188 272.173 272.178 272.206 272.236 272.283 272.336 272.348 272.346 272.301 272.281 272.236 272.266 272.306 272.368 272.393 272.396 272.396 272.391 272.343 272.223 271.951 271.736 271.548 271.598 271.713 271.866 271.841 271.838 271.871 271.681 271.458 271.356 271.466 271.441 271.303 271.188 271.118 270.891 271.281 271.283 271.183 270.846 270.711 270.703 270.556 270.676 270.933 271.456 271.611 271.641 271.691 271.726 271.763 272.028 272.758 273.881 275.153 276.296 276.938 278.876 279.043 279.108 279.718
336.631 336.101 335.573 334.783 334.026 333.321 332.721 332.106 331.443 330.826 330.298 329.901 329.326 328.796 328.253 327.821 327.591 327.328 326.938 326.351 325.786 325.266 324.628 324.181 323.723 323.163 322.668 322.311 321.958 321.621 321.336 320.888 320.643 320.423 320.206 319.956 319.348 318.698 318.056 317.066 316.426 315.878 315.608 315.278 314.823 314.556 314.251 313.971 313.728 313.451 313.181 312.946 312.738 313.231 312.371 312.021 312.026 312.033 312.133 312.326 312.113 311.758 311.248 310.836 310.421 310.038 309.608 309.303 308.921 308.533 308.208 307.933 307.581 307.233 306.911 306.578 306.256 305.923 305.623 305.328 305.038 304.743 304.478 304.258 303.993 303.743 303.511 303.281 303.038 302.808 302.521 302.231 301.951 301.628 301.328 301.056 300.768 300.476 300.186 299.883 299.598 299.283 299.003 298.716 298.431 298.168 297.881 297.626 297.376 297.101 296.921 296.701 296.501 296.253 296.043 295.821 295.608 295.461 295.238 295.026 294.876 294.736 294.603 294.436 294.266 294.113 293.958 293.818 293.688 293.506 293.336 293.128 292.953 292.848 292.753 292.638 292.471 292.298 292.148 291.963 291.806 291.638 291.463 291.353 291.231 291.106 290.998 290.883 290.798 290.733 290.626 290.543 290.468 290.401 290.321 290.236 290.201 290.168 290.058 289.963 289.981 289.961 289.926 289.913 289.881 289.848 289.808 289.716 289.646 289.611 289.543 289.443 289.601 289.601 289.013 288.836 288.761 288.663 288.558 288.443 288.306 288.216 288.108 287.991 287.878 287.761 287.653 287.533 287.381 287.218 287.068 286.911 286.733 286.548 286.426 286.296 286.188 286.021 285.936 285.858 285.768 285.686 285.601 285.558 285.481 285.433 285.381 285.396 285.466 285.703 285.373 285.798 285.648 285.696 285.741 285.779 285.793 285.891 286.016 286.111 286.189 286.208 286.173 286.129 286.053 285.996 285.961 285.888 285.868 285.724 285.601 285.559 285.374 285.216 285.068 284.836 284.648 284.339 283.994 283.756 283.544 283.286 283.009 282.696 282.311 281.986 281.749 281.544 281.319 281.041 280.806 280.534 280.241 280.041 279.806 279.571 279.339 279.124 278.828 278.714 278.571 278.441 278.276 278.166 278.051 277.856 277.794 277.639 277.476 277.309 277.161 277.036 276.909 276.699 276.486 276.294 276.024 275.819 275.629 275.394 275.024 274.611 274.249 274.086 273.936 273.854 273.774 273.736 273.691 273.601 273.496 273.446 273.411 273.351 273.259 273.176 273.114 272.744 272.254 271.961 271.819 271.849 271.746 271.719 271.854 271.929 271.969 272.016 272.101 272.129 272.091 272.109 272.158 272.148 272.133 272.096 272.131 272.141 272.216 272.228 272.236 272.296 272.303 272.283 272.216 272.213 272.218 272.238 272.311 272.346 272.376 272.386 272.413 272.421 272.376 272.276 272.168 271.946 271.688 271.643 271.661 271.581 271.633 271.691 271.736 271.463 271.498 271.461 271.373 271.241 271.211 271.071 270.806 271.216 271.278 271.153 270.803 270.673 270.711 270.736 270.736 270.801 271.328 271.591 271.631 271.648 271.703 271.711 271.803 272.468 273.391 274.453 275.286 276.408 278.033 279.108 279.071 279.263
336.856 336.443 335.933 335.193 334.271 333.668 333.011 332.418 331.828 331.213 330.581 330.136 329.863 329.158 328.613 328.088 327.728 327.518 327.203 326.638 326.051 325.493 324.911 324.366 323.958 323.461 322.888 322.333 321.993 321.788 321.483 321.131 320.758 320.403 319.958 319.468 318.611 317.978 317.263 316.598 316.233 315.843 315.626 315.196 314.928 314.681 314.408 314.096 313.826 313.543 313.311 313.101 312.963 313.073 313.326 312.846 312.991 313.038 312.806 312.513 312.088 311.713 311.338 310.966 310.586 310.221 309.831 309.438 309.076 308.663 308.398 308.073 307.736 307.393 307.076 306.753 306.423 306.101 305.781 305.473 305.186 304.891 304.608 304.356 304.136 303.868 303.658 303.433 303.223 302.961 302.673 302.436 302.113 301.811 301.521 301.166 300.898 300.581 300.331 300.043 299.768 299.466 299.171 298.903 298.633 298.333 298.093 297.846 297.641 297.396 297.168 296.953 296.686 296.466 296.203 295.978 295.736 295.556 295.363 295.213 295.003 294.816 294.638 294.456 294.258 294.121 294.001 293.851 293.688 293.513 293.358 293.201 293.033 292.918 292.786 292.636 292.498 292.326 292.151 291.938 291.776 291.641 291.518 291.361 291.278 291.173 291.048 290.961 290.858 290.781 290.666 290.571 290.488 290.386 290.321 290.303 290.231 290.198 290.121 290.078 290.071 290.036 289.968 289.933 289.933 289.973 289.913 289.773 289.703 289.633 289.743 289.963 289.498 289.116 289.001 288.883 288.796 288.691 288.563 288.451 288.353 288.296 288.163 288.076 287.966 287.871 287.726 287.581 287.393 287.288 287.101 286.918 286.756 286.591 286.463 286.313 286.163 286.068 285.983 285.828 285.751 285.658 285.566 285.488 285.416 285.326 285.258 285.256 285.458 285.236 285.188 285.423 285.828 285.444 285.536 285.518 285.476 285.676 285.776 285.864 286.004 286.096 286.176 286.166 286.133 286.106 286.071 286.009 285.996 285.874 285.779 285.656 285.423 285.261 285.114 284.891 284.643 284.386 283.964 283.656 283.434 283.243 283.056 282.721 282.391 282.021 281.796 281.581 281.344 281.081 280.828 280.506 280.224 279.981 279.801 279.569 279.281 279.109 278.906 278.761 278.691 278.508 278.321 278.266 278.156 277.974 277.866 277.791 277.664 277.541 277.291 277.131 276.991 276.824 276.609 276.441 276.209 275.991 275.714 275.499 275.164 274.821 274.454 274.199 274.101 273.971 273.861 273.816 273.779 273.679 273.574 273.519 273.454 273.431 273.336 273.184 272.939 272.379 272.091 271.949 271.804 271.664 271.684 271.844 271.931 271.974 271.971 272.011 272.056 272.086 272.069 272.114 272.138 272.106 272.073 272.073 272.093 272.098 272.166 272.196 272.226 272.243 272.226 272.213 272.183 272.151 272.146 272.208 272.268 272.283 272.313 272.353 272.411 272.403 272.396 272.446 272.338 272.241 272.066 271.831 271.823 271.786 271.758 271.758 271.733 271.486 271.328 271.358 271.403 271.323 271.271 271.096 270.916 271.201 271.233 271.146 270.838 270.683 270.561 270.751 270.873 270.638 271.196 271.518 271.578 271.601 271.666 271.671 271.776 272.153 272.933 273.903 275.121 276.513 277.351 279.096 279.028 279.046
