ncols 376
nrows 31
xllcorner    388028
yllcorner    479690
cellsize     2
NODATA_value -9999
360.976 360.786 360.823 361.038 360.816 360.738 360.316 359.948 359.903 359.881 359.938 360.123 360.093 360.086 359.831 359.048 358.993 358.898 358.941 358.966 358.988 358.976 358.938 358.933 358.951 359.033 359.123 359.158 359.141 359.021 358.768 358.296 357.983 357.816 358.223 358.623 358.601 358.546 358.481 358.416 358.341 358.291 358.203 358.138 358.068 358.021 357.993 357.976 357.996 357.968 357.958 357.908 357.881 357.856 357.861 357.836 357.786 357.771 357.693 357.621 357.508 357.361 357.281 357.223 357.083 356.961 357.041 356.856 356.696 356.653 356.651 356.613 356.616 356.651 356.661 356.706 356.771 356.823 356.853 356.873 356.828 356.873 356.943 356.806 356.536 356.431 356.353 356.198 356.081 355.926 356.026 356.278 356.353 356.643 356.396 356.328 356.368 356.356 356.281 356.241 356.186 356.128 356.063 356.196 356.321 356.273 356.153 356.113 356.123 356.183 356.188 356.146 356.093 356.023 356.103 356.123 356.048 355.973 355.866 355.818 355.753 355.711 355.641 355.496 355.341 355.241 355.103 354.961 354.931 354.846 354.711 354.661 354.618 354.523 354.453 354.313 354.328 354.373 354.336 354.181 353.931 353.963 353.903 354.048 354.313 354.238 354.236 354.333 354.233 354.168 354.123 354.026 353.953 353.898 353.871 353.841 353.788 353.691 353.528 353.481 353.501 353.546 353.588 353.523 353.506 353.478 353.446 353.388 353.428 353.316 353.133 352.921 352.748 352.573 352.368 352.101 351.896 351.661 351.301 350.446 350.443 350.416 349.993 349.746 349.268 349.698 349.528 349.361 349.208 349.048 348.956 348.768 348.586 348.346 348.323 348.463 348.578 348.388 348.391 348.546 348.458 348.343 348.213 348.006 347.891 347.701 347.541 347.456 347.081 346.738 346.651 346.683 346.643 346.526 346.453 346.303 346.168 346.041 346.001 345.826 345.648 345.478 345.331 345.223 345.128 345.073 345.001 344.906 344.783 344.693 344.641 344.566 344.363 344.163 344.016 343.951 343.906 343.776 343.598 343.406 343.348 343.288 343.183 343.096 342.921 342.718 342.576 342.376 342.098 341.723 341.223 341.021 340.921 340.801 340.803 340.943 341.153 341.286 341.228 341.196 341.423 341.108 340.868 340.696 340.483 340.286 340.148 340.028 339.781 339.486 339.131 338.783 338.488 338.206 337.906 337.651 337.456 337.301 337.213 337.111 336.986 336.873 336.746 336.553 336.371 336.198 335.991 335.733 335.438 335.103 334.846 334.613 334.781 334.321 334.048 333.741 333.366 332.971 332.613 332.248 331.888 331.573 331.223 330.791 330.408 330.091 329.781 329.528 329.441 329.553 329.773 329.703 329.251 328.576 328.261 327.813 327.028 326.256 325.541 324.393 324.181 324.576 324.411 324.246 324.003 323.888 324.103 324.646 325.113 325.508 325.688 325.606 325.436 325.231 325.011 324.686 324.355 324.016 323.691 323.303 322.911 322.543 322.168 321.893 322.343 321.313 321.033 320.823 320.633 320.396 320.195 319.991 319.881 319.751 319.581 319.376 319.093 318.691 318.423 318.391 318.016 317.503 317.028 316.411 316.033 315.758 315.538 315.358 315.223 315.033 314.885 314.788 314.726 314.728 314.753 314.861
361.031 360.828 360.733 360.713 360.683 360.788 360.843 360.533 360.106 360.133 360.181 360.216 360.248 360.208 359.693 359.186 359.221 359.146 359.166 359.198 359.611 359.173 359.138 359.133 359.151 359.173 359.268 359.331 359.306 359.218 359.033 358.543 357.976 358.131 358.516 358.816 358.818 358.756 358.683 358.596 358.541 358.466 358.388 358.286 358.198 358.128 358.073 358.058 358.038 358.061 358.096 358.096 358.086 358.031 358.001 357.963 357.913 357.841 357.756 357.721 357.626 357.516 357.428 357.403 357.303 357.276 357.351 357.013 356.898 356.803 356.776 356.761 356.756 356.733 356.713 356.781 356.898 356.971 357.028 357.033 357.013 357.078 357.066 356.826 356.666 356.606 356.466 356.376 356.176 356.191 356.321 356.573 356.618 357.171 356.628 356.606 356.648 356.583 356.461 356.456 356.416 356.323 356.361 356.398 356.586 356.523 356.331 356.333 356.473 356.481 356.461 356.511 356.356 356.301 356.278 356.351 356.336 356.286 356.186 356.068 356.006 355.888 355.786 355.643 355.471 355.408 355.306 355.173 355.196 355.223 355.041 354.946 354.956 354.881 354.713 354.521 354.503 354.571 354.576 354.433 354.243 354.298 354.238 354.368 354.598 354.543 354.486 354.496 354.468 354.426 354.376 354.293 354.258 354.168 354.086 354.008 353.973 353.931 353.831 353.798 353.811 353.853 353.848 353.778 353.746 353.703 353.691 353.656 353.618 353.518 353.401 353.231 353.028 352.828 352.668 352.383 352.118 351.956 351.653 351.273 351.001 350.743 350.541 350.423 350.056 349.953 350.021 349.916 349.748 349.541 349.361 349.116 348.913 348.666 348.591 348.696 348.716 348.731 348.993 348.938 348.833 348.713 348.556 348.368 348.198 348.006 347.851 347.746 347.413 347.023 346.973 346.991 346.913 346.813 346.826 346.668 346.448 346.353 346.286 346.166 345.943 345.711 345.598 345.526 345.421 345.386 345.228 345.093 345.031 344.968 344.913 344.723 344.421 344.308 344.258 344.173 344.166 344.043 343.876 343.753 343.641 343.598 343.536 343.316 343.191 343.103 342.953 342.716 342.293 341.796 341.358 341.193 341.053 341.168 341.161 341.301 341.533 341.711 341.588 341.826 341.611 341.303 341.211 341.011 340.801 340.606 340.451 340.268 340.018 339.716 339.441 339.116 338.741 338.406 338.141 337.903 337.751 337.603 337.498 337.376 337.253 337.103 336.958 336.791 336.563 336.366 336.183 335.948 335.576 335.281 335.068 335.366 335.103 334.556 334.298 333.946 333.573 333.178 332.811 332.463 332.106 331.721 331.331 330.913 330.581 330.351 330.183 329.981 329.973 330.231 330.353 329.968 329.166 328.623 328.503 327.916 326.861 326.088 325.268 324.261 324.793 324.901 324.698 324.458 324.308 324.423 324.826 325.368 325.861 326.211 326.148 326.028 325.881 325.691 325.448 325.188 324.888 324.543 324.281 323.956 323.568 323.223 322.773 322.871 322.146 321.746 321.461 321.203 320.948 320.711 320.498 320.308 320.151 319.968 319.773 319.561 319.328 318.956 318.666 318.356 318.068 317.798 317.691 317.401 316.651 316.228 316.076 315.956 315.698 315.561 315.501 315.286 315.163 315.088 315.146 315.243
361.148 360.996 360.921 360.868 360.821 360.823 360.578 360.508 360.741 360.668 360.531 360.316 360.298 360.356 360.236 359.773 359.676 359.313 359.276 359.381 359.796 359.843 359.403 359.338 359.381 359.386 359.426 359.468 359.478 359.358 359.176 358.721 358.256 358.316 358.753 358.986 359.028 358.988 358.933 358.838 358.731 358.643 358.553 358.478 358.378 358.281 358.223 358.176 358.128 358.176 358.191 358.241 358.231 358.211 358.163 358.098 358.018 357.936 357.863 357.791 357.721 357.641 357.611 357.561 357.498 357.591 357.403 357.196 357.098 357.018 356.986 356.941 356.891 356.891 356.906 356.956 357.066 357.153 357.211 357.226 357.238 357.241 357.176 356.968 356.846 356.796 356.676 356.636 356.426 356.546 356.653 356.816 356.946 357.351 356.881 356.883 356.891 356.806 356.718 356.668 356.656 356.688 356.691 356.663 356.806 356.811 356.718 356.723 356.826 356.793 356.693 356.678 356.713 356.613 356.458 356.473 356.603 356.568 356.511 356.383 356.276 356.163 356.018 355.848 355.733 355.663 355.611 355.543 355.498 355.508 355.373 355.313 355.358 355.301 355.203 355.178 355.076 355.041 355.013 354.783 354.536 354.658 354.566 354.606 354.886 354.806 354.713 354.696 354.716 354.698 354.646 354.643 354.591 354.498 354.358 354.226 354.208 354.201 354.146 354.143 354.116 354.101 354.066 354.046 354.001 353.978 353.883 353.936 353.878 353.758 353.653 353.533 353.343 353.146 352.826 352.568 352.383 352.131 351.936 351.726 351.426 350.898 350.998 350.976 350.793 350.671 350.566 350.331 350.073 350.001 349.868 349.766 349.643 349.146 348.888 348.916 348.991 349.268 349.386 349.301 349.211 349.086 348.943 348.741 348.516 348.326 348.191 348.091 347.713 347.333 347.371 347.331 347.213 347.206 347.138 346.973 346.841 346.821 346.721 346.553 346.298 345.993 345.896 345.846 345.783 345.676 345.448 345.368 345.286 345.281 345.236 344.933 344.586 344.501 344.421 344.353 344.336 344.246 344.103 343.963 343.921 343.883 343.873 343.701 343.551 343.456 343.293 342.938 342.361 341.833 341.508 341.341 341.371 341.516 341.566 341.711 341.938 342.013 342.028 342.496 341.758 341.651 341.523 341.326 341.118 340.956 340.746 340.508 340.253 339.993 339.746 339.493 339.096 338.656 338.378 338.203 338.083 337.921 337.803 337.643 337.491 337.351 337.183 337.001 336.808 336.621 336.433 336.161 335.786 335.591 335.523 335.896 335.123 334.853 334.536 334.201 333.818 333.433 333.043 332.673 332.276 331.878 331.481 331.131 330.886 330.763 330.698 330.541 330.538 330.633 330.528 329.871 329.078 328.776 328.703 327.888 326.851 326.001 325.018 325.176 325.283 325.116 324.901 324.628 324.686 325.116 325.616 326.118 326.571 326.713 326.631 326.463 326.296 326.111 325.923 325.658 325.413 325.135 324.868 324.573 324.223 323.823 323.561 323.385 322.558 322.258 321.981 321.663 321.368 321.116 320.881 320.651 320.406 320.206 319.94 319.736 319.533 319.291 319.043 318.733 318.436 318.146 317.851 317.866 317.466 317.028 316.568 316.461 316.291 315.926 315.755 315.648 315.516 315.488 315.528 315.616
361.203 361.176 361.138 361.043 360.966 360.936 360.758 360.673 360.531 360.528 360.473 360.528 360.758 360.503 360.418 360.403 360.226 359.943 359.928 359.906 360.226 360.401 359.868 359.576 359.583 359.621 359.653 359.668 359.628 359.523 359.211 358.883 358.558 358.448 358.911 359.171 359.256 359.211 359.166 359.101 359.013 358.893 358.761 358.688 358.583 358.483 358.396 358.328 358.316 358.288 358.336 358.371 358.391 358.371 358.326 358.263 358.176 358.086 358.008 357.893 357.793 357.753 357.768 357.718 357.668 357.816 357.513 357.376 357.256 357.203 357.153 357.113 357.108 357.113 357.146 357.183 357.243 357.351 357.401 357.493 357.528 357.486 357.426 357.186 356.986 356.988 356.891 356.856 356.763 356.903 357.031 357.113 357.386 357.403 357.191 357.163 357.081 357.033 356.953 356.896 356.861 356.903 356.961 356.971 357.026 357.071 357.068 357.093 357.173 357.078 356.948 356.913 356.926 356.738 356.613 356.718 356.848 356.848 356.793 356.708 356.636 356.461 356.276 356.103 356.043 356.041 355.991 355.908 355.816 355.843 355.756 355.668 355.621 355.656 355.578 355.513 355.433 355.438 355.381 355.106 354.976 355.181 355.031 354.881 355.106 355.011 354.968 354.921 354.953 354.918 354.896 354.853 354.831 354.773 354.658 354.543 354.561 354.498 354.378 354.368 354.321 354.263 354.246 354.286 354.268 354.208 354.118 354.196 354.131 353.931 353.786 353.728 353.603 353.416 352.881 352.463 352.388 352.333 352.151 351.966 351.793 351.558 351.388 351.378 351.316 351.243 351.118 350.898 350.636 350.513 350.398 350.198 349.983 349.556 349.283 349.228 349.313 349.621 349.758 349.706 349.606 349.431 349.301 349.136 348.901 348.688 348.568 348.413 347.996 347.701 347.731 347.631 347.543 347.551 347.386 347.223 347.286 347.321 347.186 347.046 346.868 346.623 346.408 346.276 346.206 346.126 345.876 345.671 345.566 345.623 345.586 345.298 344.883 344.801 344.713 344.636 344.521 344.443 344.363 344.256 344.198 344.128 344.111 343.961 343.811 343.661 343.481 343.093 342.303 341.768 341.638 341.653 341.783 341.921 342.108 342.253 342.333 342.318 342.813 342.211 342.046 341.968 341.803 341.623 341.463 341.313 341.048 340.763 340.401 340.123 339.813 339.638 339.311 338.886 338.618 338.476 338.348 338.196 338.058 337.888 337.713 337.578 337.418 337.243 337.056 336.871 336.676 336.351 336.083 336.028 336.256 335.783 335.473 335.188 334.836 334.496 334.108 333.671 333.213 332.833 332.423 332.016 331.691 331.411 331.251 331.171 331.068 330.951 331.013 331.008 330.768 330.353 329.753 329.288 328.783 327.838 326.876 325.936 325.161 325.531 325.456 325.238 325.051 325.053 325.493 325.963 326.476 326.941 327.161 327.176 327.043 326.888 326.676 326.496 326.303 326.088 325.856 325.683 325.408 325.083 324.813 324.505 324.521 323.556 323.151 322.793 322.486 322.168 321.836 321.561 321.303 321.056 320.741 320.468 320.198 319.966 319.771 319.593 319.38 319.108 318.858 318.633 318.333 317.918 317.591 317.693 317.628 317.04 316.656 316.398 316.206 316.076 315.868 315.811 315.843 316.416
361.296 361.296 361.243 361.191 361.088 361.076 361.046 360.936 360.778 360.603 360.436 360.281 360.316 360.658 360.998 360.983 360.586 360.538 360.661 360.631 360.521 360.208 359.951 359.708 359.798 359.861 359.863 359.868 359.871 359.738 359.486 359.101 358.731 358.706 359.133 359.351 359.433 359.453 359.398 359.328 359.251 359.148 359.036 358.936 358.803 358.711 358.603 358.526 358.513 358.513 358.496 358.536 358.533 358.511 358.473 358.428 358.341 358.271 358.178 358.051 357.973 357.926 357.903 357.906 357.906 358.008 357.668 357.571 357.498 357.416 357.328 357.326 357.273 357.291 357.358 357.413 357.496 357.598 357.646 357.743 357.828 357.731 357.583 357.366 357.126 357.138 357.146 357.073 357.106 357.291 357.386 357.476 357.801 357.476 357.458 357.443 357.436 357.368 357.306 357.223 357.156 357.103 357.206 357.271 357.298 357.363 357.383 357.398 357.451 357.313 357.238 357.201 357.158 356.923 356.861 357.101 357.138 357.143 357.136 357.026 356.908 356.741 356.546 356.401 356.368 356.398 356.368 356.248 356.176 356.076 355.936 355.916 355.856 355.961 355.951 355.846 355.813 355.806 355.803 355.628 355.488 355.678 355.408 355.176 355.351 355.291 355.221 355.163 355.206 355.131 355.106 355.053 355.038 354.961 354.901 354.841 354.873 354.768 354.643 354.593 354.583 354.471 354.486 354.533 354.528 354.488 354.438 354.376 354.171 354.011 353.868 353.811 353.728 353.526 353.098 352.583 352.583 352.566 352.341 352.186 352.113 351.901 351.703 351.648 351.588 351.558 351.501 351.343 351.168 351.008 350.918 350.751 350.303 349.836 349.638 349.841 349.933 349.983 350.051 350.038 349.956 349.716 349.606 349.518 349.343 349.131 348.958 348.633 348.271 348.078 348.008 347.858 347.813 347.768 347.591 347.461 347.601 347.711 347.651 347.521 347.383 347.196 347.016 346.868 346.756 346.621 346.406 345.971 345.878 345.973 345.941 345.673 345.251 345.121 345.038 344.946 344.808 344.763 344.651 344.596 344.488 344.396 344.336 344.158 343.876 343.721 343.518 342.976 342.153 341.938 341.926 342.058 342.161 342.443 342.618 342.696 342.683 342.926 342.758 342.471 342.371 342.271 342.141 341.976 341.841 341.611 341.311 340.908 340.481 340.163 339.853 339.636 339.361 339.066 338.858 338.721 338.576 338.398 338.266 338.106 337.941 337.791 337.646 337.501 337.293 337.128 336.908 336.593 336.453 336.541 336.466 336.056 335.831 335.578 335.186 334.816 334.366 333.876 333.386 332.946 332.546 332.256 332.041 331.873 331.718 331.556 331.383 331.311 331.408 331.226 331.006 330.706 330.161 329.481 328.598 327.686 326.743 325.996 325.598 325.796 325.588 325.378 325.451 325.826 326.313 326.778 327.328 327.633 327.738 327.643 327.476 327.293 327.106 326.886 326.688 326.531 326.321 326.126 325.861 325.576 325.341 325.191 324.786 324.093 323.733 323.336 322.998 322.653 322.333 322.01 321.711 321.411 321.108 320.753 320.493 320.278 320.081 319.893 319.706 319.466 319.263 319.041 318.773 318.433 318.048 317.786 317.616 317.738 317.443 316.903 316.646 316.506 316.206 316.131 316.263 316.338
361.456 361.438 361.416 361.298 361.221 361.158 361.083 360.996 360.841 360.793 360.528 360.366 360.606 360.536 360.603 360.983 361.216 361.053 360.961 360.808 360.676 360.398 360.303 360.256 360.126 360.076 360.066 360.008 359.976 359.936 359.718 359.381 358.896 358.966 359.408 359.568 359.618 359.661 359.643 359.601 359.471 359.371 359.278 359.161 359.041 358.928 358.796 358.738 358.676 358.626 358.676 358.673 358.706 358.688 358.636 358.586 358.516 358.458 358.353 358.218 358.178 358.148 358.123 358.066 358.216 358.068 357.836 357.731 357.646 357.576 357.551 357.518 357.481 357.491 357.551 357.651 357.773 357.846 357.898 357.996 358.046 357.891 357.691 357.468 357.303 357.321 357.341 357.246 357.376 357.691 357.833 357.968 357.896 357.808 357.828 357.778 357.758 357.711 357.621 357.588 357.561 357.328 357.393 357.556 357.608 357.681 357.758 357.743 357.718 357.651 357.593 357.581 357.478 357.156 357.213 357.451 357.473 357.463 357.456 357.378 357.196 357.006 356.838 356.733 356.683 356.651 356.621 356.566 356.491 356.348 356.198 356.071 356.096 356.363 356.326 356.246 356.143 356.031 356.123 356.013 355.816 355.931 355.538 355.473 355.596 355.576 355.513 355.508 355.498 355.373 355.326 355.231 355.176 355.246 355.208 355.093 355.113 355.041 354.976 354.916 354.888 354.836 354.831 354.771 354.748 354.691 354.698 354.583 354.226 354.083 354.051 353.973 353.841 353.628 353.391 353.193 352.998 352.808 352.693 352.423 352.298 352.116 352.016 351.958 351.898 351.833 351.781 351.693 351.593 351.463 351.103 350.796 350.298 350.101 350.253 350.466 350.498 350.488 350.456 350.466 350.358 350.208 350.046 349.901 349.761 349.558 349.296 348.901 348.603 348.508 348.463 348.268 348.178 347.911 347.773 347.746 347.898 348.046 348.003 347.946 347.828 347.653 347.493 347.358 347.271 347.111 346.888 346.466 346.268 346.321 346.248 346.043 345.681 345.483 345.338 345.266 345.188 345.071 344.993 344.943 344.858 344.723 344.658 344.328 344.018 343.778 343.388 342.646 342.081 342.233 342.363 342.436 342.621 342.898 342.981 342.986 343.001 343.078 342.783 342.781 342.741 342.636 342.501 342.338 342.126 341.823 341.468 341.088 340.671 340.268 339.958 339.701 339.481 339.261 339.078 338.893 338.741 338.588 338.441 338.291 338.138 337.996 337.856 337.721 337.546 337.321 337.048 336.766 336.731 336.961 336.656 336.448 336.221 335.893 335.428 334.973 334.523 334.021 333.561 333.166 332.858 332.636 332.498 332.313 332.093 331.873 331.733 331.788 331.811 331.473 331.168 330.778 330.126 329.286 328.358 327.526 326.766 326.053 325.983 325.978 325.758 325.768 326.076 326.553 327.138 327.648 328.121 328.286 328.298 328.213 327.971 327.751 327.511 327.308 327.121 326.943 326.738 326.543 326.296 326.031 325.808 325.906 325.038 324.641 324.278 323.898 323.523 323.151 322.841 322.481 322.153 321.776 321.451 321.116 320.811 320.571 320.398 320.208 320.053 319.848 319.658 319.488 319.258 318.906 318.586 318.311 318.076 317.788 317.723 317.663 317.613 316.991 316.656 316.541 316.923 316.166
361.593 361.601 361.571 361.391 361.381 361.403 361.133 361.171 361.003 360.938 360.778 360.716 360.781 360.743 360.608 360.753 360.818 360.896 361.033 361.341 361.161 360.846 360.648 360.516 360.351 360.323 360.263 360.201 360.083 359.928 359.668 359.388 359.213 359.141 359.481 359.783 359.856 359.908 359.858 359.813 359.718 359.618 359.476 359.351 359.243 359.096 358.981 358.918 358.861 358.808 358.846 358.856 358.843 358.831 358.821 358.766 358.713 358.636 358.556 358.443 358.403 358.403 358.343 358.301 358.513 358.173 357.998 357.913 357.803 357.698 357.686 357.748 357.753 357.751 357.813 357.876 358.001 358.091 358.151 358.258 358.181 358.016 357.891 357.728 357.501 357.518 357.566 357.513 357.628 358.116 358.173 358.621 358.081 358.116 358.118 358.106 358.041 358.031 357.966 357.993 357.888 357.616 357.591 357.766 357.946 358.046 358.131 358.151 358.121 358.041 357.998 357.951 357.731 357.538 357.663 357.821 357.821 357.801 357.783 357.716 357.501 357.286 357.138 357.031 356.928 356.876 356.841 356.801 356.778 356.771 356.783 356.576 356.518 356.771 356.748 356.641 356.343 356.103 356.378 356.436 356.251 356.246 355.956 355.978 355.886 355.806 355.771 355.818 355.778 355.656 355.598 355.483 355.368 355.343 355.318 355.356 355.371 355.343 355.303 355.243 355.178 355.138 355.108 355.028 354.968 354.941 355.028 354.916 354.618 354.361 354.248 354.143 353.988 353.843 353.678 353.476 353.178 353.021 352.858 352.691 352.518 352.398 352.328 352.251 352.233 352.178 352.098 351.966 351.801 351.441 351.181 350.943 350.548 350.486 350.791 350.926 350.943 350.888 350.866 350.848 350.771 350.686 350.518 350.323 350.123 349.896 349.631 349.246 348.961 348.911 348.958 348.818 348.606 348.291 348.123 348.146 348.196 348.363 348.371 348.328 348.236 348.126 347.968 347.811 347.663 347.521 347.271 346.953 346.728 346.663 346.536 346.306 346.066 345.841 345.683 345.551 345.446 345.356 345.283 345.191 345.156 345.006 344.858 344.536 344.191 343.786 343.221 342.551 342.591 342.758 342.786 342.903 343.138 343.316 343.323 343.263 343.493 343.151 343.073 343.083 343.043 342.921 342.746 342.576 342.308 341.986 341.588 341.186 340.891 340.538 340.213 339.903 339.631 339.436 339.208 339.016 338.868 338.711 338.601 338.468 338.363 338.203 338.108 337.953 337.778 337.486 337.118 336.828 336.786 336.893 336.858 336.763 336.456 336.041 335.606 335.078 334.588 334.141 333.828 333.518 333.271 333.046 332.888 332.638 332.398 332.223 332.228 332.363 332.163 331.793 331.348 330.783 330.001 329.041 328.111 327.356 326.761 326.153 326.268 326.138 326.136 326.258 326.653 327.333 327.918 328.456 328.788 328.921 328.903 328.718 328.493 328.236 327.953 327.713 327.521 327.341 327.163 326.991 326.771 326.543 326.643 325.918 325.523 325.156 324.816 324.451 324.028 323.671 323.32 322.968 322.576 322.181 321.82 321.468 321.201 320.991 320.776 320.578 320.406 320.271 320.098 319.873 319.673 319.388 319.07 318.781 318.523 318.231 317.976 317.728 317.843 317.791 317.176 317.263 316.771 316.476
361.813 361.848 361.786 361.566 361.518 361.133 360.621 360.796 361.133 361.253 361.076 360.931 360.858 360.621 360.436 360.798 361.223 361.101 361.133 361.106 361.211 361.473 361.168 360.906 360.676 360.638 360.558 360.483 360.336 360.098 359.698 359.443 359.291 359.396 359.788 360.021 360.068 360.076 360.061 359.991 359.888 359.801 359.703 359.586 359.416 359.286 359.168 359.091 359.058 358.986 358.996 359.016 359.008 359.011 358.993 358.968 358.906 358.813 358.723 358.643 358.633 358.658 358.611 358.673 358.641 358.486 358.273 357.983 357.778 357.716 357.776 358.033 358.041 358.013 358.023 358.098 358.203 358.293 358.401 358.458 358.298 358.166 358.063 357.916 357.718 357.758 357.761 357.736 357.781 358.366 358.476 358.886 358.383 358.358 358.376 358.323 358.281 358.341 358.341 358.366 358.276 358.086 357.911 358.123 358.238 358.366 358.493 358.501 358.526 358.473 358.423 358.316 358.003 357.868 358.001 358.098 358.121 358.071 358.081 357.993 357.778 357.568 357.453 357.373 357.316 357.273 357.231 357.206 357.283 357.281 357.288 357.188 357.128 357.181 357.128 357.016 356.818 356.653 356.716 356.766 356.733 356.538 356.391 356.346 356.286 356.213 356.141 356.161 355.973 355.876 355.856 355.773 355.673 355.593 355.573 355.651 355.608 355.576 355.566 355.501 355.406 355.331 355.321 355.298 355.226 355.291 355.301 355.208 355.013 354.801 354.561 354.351 354.171 354.026 353.851 353.646 353.408 353.246 353.081 352.966 352.776 352.676 352.623 352.563 352.576 352.551 352.391 352.078 351.846 351.786 351.703 351.403 351.133 351.148 351.328 351.358 351.331 351.283 351.241 351.213 351.146 351.048 350.898 350.683 350.503 350.308 349.986 349.541 349.293 349.308 349.298 349.156 348.873 348.683 348.556 348.573 348.566 348.608 348.686 348.741 348.636 348.543 348.456 348.341 348.111 347.886 347.581 347.271 347.126 347.031 346.788 346.486 346.198 346.046 345.868 345.753 345.653 345.561 345.508 345.476 345.443 345.218 344.956 344.658 344.081 343.563 343.103 342.831 342.971 343.061 343.148 343.378 343.536 343.601 343.618 343.898 343.733 343.503 343.408 343.358 343.258 343.166 342.978 342.746 342.438 342.063 341.708 341.341 341.056 340.743 340.386 340.056 339.798 339.543 339.378 339.146 338.968 338.871 338.798 338.686 338.588 338.473 338.331 338.191 338.036 337.763 337.378 337.138 337.261 336.996 337.021 336.803 336.461 336.078 335.673 335.181 334.838 334.553 334.301 333.986 333.686 333.438 333.226 332.988 332.748 332.723 332.923 332.893 332.523 332.093 331.508 330.776 329.891 328.878 327.936 327.161 326.688 326.821 326.726 326.601 326.611 326.796 327.376 328.043 328.741 329.178 329.421 329.541 329.483 329.253 328.968 328.683 328.393 328.146 327.893 327.731 327.57 327.413 327.248 327.191 327.153 326.353 326.003 325.638 325.301 324.958 324.523 324.138 323.803 323.428 322.973 322.608 322.243 321.933 321.693 321.451 321.251 321.053 320.858 320.673 320.523 320.32 320.108 319.791 319.533 319.246 318.958 318.678 318.381 318.141 317.888 317.751 318.016 317.561 316.753 316.673
361.886 361.973 361.916 361.486 361.518 361.506 360.703 360.388 360.873 361.073 361.221 361.126 360.718 360.321 360.443 360.976 361.273 361.448 361.431 361.371 361.318 361.278 361.128 361.051 361.486 361.361 360.968 360.671 360.576 360.256 359.806 359.591 359.593 359.846 360.306 360.303 360.258 360.298 360.253 360.176 360.113 360.001 359.876 359.756 359.606 359.463 359.356 359.273 359.201 359.163 359.181 359.208 359.203 359.141 359.161 359.128 359.076 359.033 358.938 358.896 358.898 358.936 358.916 359.066 358.888 358.796 358.626 358.428 358.203 358.151 357.998 358.166 358.248 358.236 358.258 358.323 358.413 358.488 358.626 358.636 358.501 358.401 358.306 358.046 357.881 357.933 358.008 357.926 357.981 358.421 358.976 358.821 358.691 358.691 358.648 358.611 358.611 358.686 358.703 358.738 358.786 358.691 358.521 358.501 358.466 358.596 358.781 358.876 358.886 358.896 358.843 358.686 358.316 358.148 358.278 358.368 358.398 358.356 358.281 358.143 357.906 357.796 357.776 357.768 357.746 357.681 357.621 357.603 357.678 357.686 357.633 357.636 357.623 357.496 357.398 357.328 357.211 357.186 357.111 357.048 356.948 356.808 356.708 356.686 356.643 356.581 356.526 356.386 356.193 356.178 356.171 356.043 355.883 355.858 355.883 355.876 355.851 355.896 355.906 355.856 355.683 355.601 355.533 355.468 355.513 355.618 355.468 355.341 355.276 355.131 354.878 354.638 354.436 354.288 354.048 353.858 353.676 353.556 353.378 353.208 353.043 353.036 352.953 352.901 352.853 352.683 352.466 352.368 352.406 352.296 352.021 351.643 351.716 351.766 351.741 351.686 351.656 351.633 351.621 351.576 351.503 351.376 351.206 350.973 350.721 350.478 350.158 349.821 349.591 349.628 349.596 349.353 349.156 348.996 348.871 348.906 348.903 348.886 348.896 348.993 348.993 348.948 348.848 348.773 348.556 348.283 347.918 347.638 347.488 347.358 347.086 346.708 346.388 346.253 346.141 345.991 345.908 345.826 345.793 345.723 345.581 345.173 344.706 344.281 343.818 343.518 343.346 343.256 343.293 343.376 343.533 343.731 343.856 343.918 343.976 344.223 343.828 343.811 343.721 343.553 343.461 343.363 343.206 342.956 342.633 342.208 341.813 341.513 341.191 340.878 340.513 340.166 339.921 339.698 339.536 339.333 339.171 339.051 338.978 338.913 338.821 338.706 338.551 338.411 338.298 338.058 337.773 337.858 337.503 337.221 337.093 336.781 336.416 336.083 335.828 335.523 335.408 335.198 334.876 334.478 334.123 333.796 333.563 333.351 333.238 333.368 333.513 333.238 332.788 332.206 331.458 330.653 329.611 328.528 327.581 327.071 327.066 327.286 327.188 327.038 327.058 327.308 327.998 328.706 329.391 329.893 330.118 330.148 330.053 329.801 329.483 329.118 328.838 328.616 328.346 328.163 327.971 327.826 327.668 327.841 327.091 326.786 326.423 326.093 325.733 325.388 325.023 324.63 324.331 323.933 323.481 323.146 322.743 322.426 322.208 322.01 321.781 321.506 321.291 321.083 320.958 320.726 320.501 320.276 319.998 319.678 319.321 319.036 318.803 318.578 318.291 318.068 318.331 317.408 317.021 316.883
362.096 362.103 362.213 362.291 362.411 362.203 361.646 361.758 361.581 361.451 361.396 361.161 360.876 360.803 361.328 361.401 361.588 361.646 361.543 361.556 361.518 361.433 361.373 361.171 361.258 361.171 361.453 361.328 360.978 360.556 359.948 359.811 359.886 360.378 360.676 360.578 360.516 360.486 360.458 360.376 360.306 360.186 360.063 359.901 359.741 359.623 359.546 359.433 359.378 359.338 359.323 359.356 359.328 359.303 359.306 359.293 359.261 359.223 359.178 359.138 359.156 359.218 359.201 359.378 359.166 359.081 358.993 358.908 358.983 358.936 358.841 358.708 358.661 358.613 358.606 358.633 358.671 358.766 358.876 358.836 358.713 358.651 358.543 358.278 358.158 358.141 358.206 358.126 358.166 358.571 359.273 359.021 359.038 359.028 358.998 358.986 359.013 359.028 359.068 359.106 359.063 359.121 359.088 358.883 358.793 358.888 359.043 359.181 359.258 359.288 359.206 358.978 358.588 358.443 358.636 358.746 358.706 358.606 358.493 358.353 358.231 358.148 358.148 358.131 358.153 358.108 358.071 358.036 357.991 357.986 357.953 357.908 357.878 357.766 357.686 357.618 357.566 357.596 357.498 357.401 357.256 357.113 356.986 356.971 356.963 356.926 356.776 356.611 356.471 356.401 356.428 356.343 356.136 356.023 356.048 356.038 356.023 356.171 356.188 356.188 356.043 355.996 355.903 355.791 355.783 355.738 355.563 355.388 355.263 355.198 355.021 354.906 354.726 354.488 354.276 354.083 353.928 353.781 353.628 353.436 353.301 353.296 353.243 353.173 352.986 352.908 352.913 352.838 352.696 352.473 352.156 352.006 352.198 352.243 352.128 352.011 351.926 351.911 351.883 351.873 351.786 351.663 351.398 351.021 350.731 350.546 350.306 350.058 349.933 349.991 349.891 349.708 349.518 349.266 349.141 349.253 349.283 349.288 349.231 349.193 349.143 349.166 349.176 349.108 348.923 348.626 348.303 348.061 347.828 347.653 347.361 346.961 346.701 346.516 346.368 346.253 346.136 346.058 346.028 345.908 345.566 345.046 344.506 344.138 343.771 343.661 343.571 343.703 343.863 343.993 344.073 344.163 344.158 344.106 344.318 344.206 344.091 344.048 343.948 343.798 343.653 343.561 343.418 343.168 342.826 342.383 342.003 341.688 341.358 340.983 340.663 340.336 340.073 339.866 339.753 339.586 339.413 339.306 339.218 339.136 339.068 338.946 338.798 338.626 338.411 338.211 338.048 338.183 337.638 337.376 337.116 336.831 336.523 336.253 336.158 336.123 336.068 335.813 335.406 334.943 334.526 334.208 333.953 333.801 333.793 333.951 333.903 333.501 332.818 332.021 331.206 330.306 329.186 327.943 327.368 327.536 327.626 327.706 327.608 327.458 327.453 327.901 328.676 329.366 330.026 330.571 330.731 330.653 330.486 330.228 329.961 329.633 329.278 329.013 328.778 328.568 328.341 328.19 328.348 327.88 327.536 327.201 326.853 326.531 326.208 325.893 325.596 325.231 324.941 324.576 324.126 323.746 323.385 323.036 322.746 322.488 322.263 321.981 321.703 321.476 321.351 321.151 320.933 320.666 320.391 320.046 319.711 319.378 319.168 318.961 318.731 318.755 318.643 317.786 317.403 317.13
362.951 362.926 363.006 363.131 363.173 362.928 362.671 362.783 362.603 362.368 362.058 361.808 361.366 361.308 361.258 361.321 361.666 361.773 361.771 361.791 361.748 361.638 361.558 361.473 361.431 361.366 361.296 361.131 360.963 360.803 360.841 360.401 360.261 360.701 360.853 360.818 360.738 360.703 360.646 360.553 360.413 360.296 360.161 360.018 359.878 359.806 359.718 359.626 359.558 359.501 359.481 359.493 359.483 359.461 359.476 359.468 359.478 359.446 359.431 359.413 359.471 359.508 359.523 359.518 359.428 359.371 359.253 359.226 359.256 359.301 359.306 359.231 359.191 359.136 359.093 359.073 359.093 359.106 359.106 359.048 359.006 358.903 358.788 358.553 358.341 358.361 358.333 358.253 358.486 358.871 359.341 359.261 359.266 359.298 359.263 359.283 359.293 359.326 359.331 359.413 359.346 359.433 359.471 359.281 359.091 359.146 359.251 359.416 359.516 359.556 359.476 359.098 358.858 358.901 359.033 358.953 358.893 358.868 358.816 358.723 358.633 358.553 358.558 358.581 358.591 358.578 358.556 358.453 358.253 358.218 358.251 358.208 358.166 358.128 358.023 357.933 357.861 357.886 357.831 357.711 357.543 357.393 357.323 357.271 357.218 357.188 357.073 356.903 356.756 356.681 356.663 356.611 356.446 356.336 356.316 356.226 356.281 356.386 356.408 356.433 356.381 356.241 356.113 356.033 355.988 355.808 355.528 355.363 355.258 355.263 355.161 355.098 354.948 354.691 354.476 354.313 354.146 354.053 353.893 353.693 353.598 353.528 353.458 353.308 353.308 353.311 353.286 353.176 352.981 352.663 352.413 352.386 352.613 352.693 352.528 352.336 352.178 352.143 352.101 352.058 351.968 351.833 351.468 351.038 350.856 350.733 350.581 350.356 350.256 350.278 350.198 349.973 349.826 349.543 349.418 349.593 349.651 349.678 349.601 349.516 349.423 349.328 349.351 349.406 349.253 349.021 348.733 348.408 348.143 347.903 347.628 347.221 346.988 346.831 346.643 346.503 346.353 346.258 346.111 345.873 345.388 344.876 344.401 344.173 344.043 344.058 344.136 344.383 344.526 344.591 344.561 344.521 344.433 344.353 344.646 344.333 344.316 344.256 344.168 344.008 343.836 343.683 343.546 343.328 342.963 342.493 342.176 341.866 341.511 341.148 340.821 340.501 340.273 340.073 339.936 339.803 339.661 339.553 339.471 339.378 339.288 339.121 338.998 338.833 338.551 338.326 338.448 338.056 337.741 337.553 337.388 337.228 336.943 336.748 336.633 336.573 336.416 336.118 335.771 335.346 334.978 334.656 334.411 334.283 334.321 334.426 334.198 333.661 332.716 331.761 330.791 329.908 328.656 327.738 328.096 328.031 328.101 328.073 327.973 327.866 328.006 328.678 329.293 330.053 330.733 331.223 331.293 331.163 330.911 330.688 330.388 330.058 329.678 329.426 329.158 328.908 328.713 328.693 328.976 328.231 328.016 327.755 327.433 327.056 326.743 326.496 326.186 325.843 325.556 325.228 324.891 324.458 324.041 323.603 323.221 322.875 322.558 322.336 322.096 321.901 321.708 321.508 321.283 321.036 320.76 320.431 320.111 319.791 319.548 319.278 319.076 319.268 318.503 318.218 317.846 317.498
363.758 363.673 363.763 363.853 363.831 363.541 363.473 363.463 363.246 362.861 362.731 362.501 362.293 361.961 361.338 360.961 361.266 361.831 362.076 362.051 361.986 361.858 361.758 361.643 361.608 361.573 361.518 361.386 361.136 360.858 360.746 360.761 361.411 361.483 361.183 361.061 360.938 360.806 360.821 360.841 360.716 360.518 360.326 360.111 360.011 359.893 359.778 359.731 359.673 359.611 359.623 359.643 359.653 359.646 359.678 359.648 359.681 359.681 359.641 359.688 359.751 359.768 359.946 359.746 359.686 359.628 359.506 359.503 359.576 359.626 359.681 359.676 359.608 359.571 359.488 359.448 359.478 359.486 359.418 359.353 359.238 359.131 359.008 358.821 358.593 358.588 358.538 358.338 358.656 359.168 359.351 359.423 359.473 359.468 359.446 359.531 359.511 359.513 359.586 359.753 359.793 359.848 359.873 359.631 359.466 359.343 359.481 359.658 359.811 359.878 359.688 359.303 359.328 359.458 359.358 359.161 359.161 359.276 359.223 359.118 359.021 358.988 358.956 358.991 359.056 359.093 359.018 358.828 358.543 358.566 358.576 358.573 358.506 358.428 358.343 358.208 358.176 358.173 358.088 358.011 357.838 357.708 357.633 357.548 357.456 357.378 357.341 357.231 357.071 356.931 356.916 356.896 356.721 356.591 356.526 356.458 356.541 356.601 356.583 356.543 356.478 356.363 356.321 356.281 356.198 355.901 355.516 355.381 355.316 355.221 355.216 355.226 355.118 354.903 354.746 354.611 354.476 354.343 354.148 353.968 353.876 353.741 353.616 353.636 353.668 353.638 353.561 353.458 353.251 352.893 352.686 352.701 352.943 353.061 352.986 352.831 352.623 352.508 352.471 352.403 352.311 352.151 351.791 351.368 351.171 350.966 350.813 350.621 350.596 350.561 350.416 350.286 350.081 349.828 349.703 349.871 349.951 349.973 349.956 349.873 349.726 349.613 349.551 349.538 349.438 349.328 349.163 348.866 348.466 348.156 347.848 347.508 347.223 347.071 346.878 346.711 346.508 346.381 346.128 345.741 345.123 344.666 344.461 344.408 344.563 344.721 344.911 345.041 345.053 345.021 344.918 344.923 345.178 345.111 344.643 344.551 344.488 344.436 344.343 344.188 343.968 343.778 343.606 343.381 342.973 342.571 342.313 341.996 341.618 341.298 340.988 340.736 340.516 340.301 340.111 339.968 339.868 339.801 339.708 339.626 339.503 339.358 339.206 339.018 338.733 338.778 338.381 338.108 337.966 337.956 337.856 337.711 337.461 337.173 336.938 336.771 336.558 336.276 336.016 335.686 335.371 335.108 334.906 334.801 334.798 334.771 334.478 333.733 332.671 331.658 330.566 329.453 328.206 328.371 328.606 328.526 328.513 328.443 328.401 328.366 328.751 329.398 330.118 330.718 331.306 331.706 331.736 331.581 331.301 331.043 330.781 330.443 330.098 329.858 329.551 329.296 329.106 329.626 328.82 328.641 328.453 328.223 327.941 327.626 327.333 327.07 326.673 326.338 326.028 325.733 325.383 324.946 324.498 324.026 323.553 323.206 322.878 322.626 322.401 322.196 321.991 321.818 321.601 321.343 321.086 320.783 320.5 320.183 319.918 319.673 320.013 319.278 318.841 318.603 318.298 317.941
364.373 364.441 364.478 364.676 364.556 364.363 364.311 364.261 363.856 363.533 363.293 363.238 363.066 362.761 362.396 362.023 361.803 362.018 362.318 362.271 362.178 362.041 361.953 361.863 361.841 361.761 361.691 361.623 361.476 361.198 360.963 361.026 361.176 361.598 361.911 361.906 361.343 361.073 360.998 360.926 360.836 360.658 360.513 360.376 360.256 360.106 359.946 359.866 359.768 359.746 359.713 359.721 359.721 359.703 359.791 359.831 359.866 359.896 359.873 359.943 360.013 360.011 360.138 360.008 359.966 359.881 359.806 359.826 359.923 359.998 360.026 359.996 359.891 359.868 359.803 359.831 359.861 359.861 359.723 359.598 359.476 359.431 359.331 359.283 359.031 358.868 358.718 358.681 358.933 359.626 359.531 359.676 359.756 359.731 359.731 359.773 359.768 359.763 359.853 360.011 360.083 360.103 360.108 360.026 359.906 359.771 359.776 359.951 360.128 360.243 359.956 359.586 359.821 359.886 359.601 359.366 359.523 359.671 359.613 359.483 359.383 359.353 359.426 359.441 359.488 359.521 359.431 359.296 359.113 359.046 358.931 358.906 358.811 358.741 358.646 358.543 358.486 358.471 358.371 358.293 358.163 358.041 357.958 357.861 357.706 357.608 357.603 357.528 357.391 357.261 357.156 357.081 356.976 356.846 356.753 356.753 356.698 356.643 356.626 356.681 356.608 356.511 356.456 356.513 356.261 356.041 355.866 355.488 355.308 355.288 355.328 355.376 355.283 355.116 355.003 354.916 354.751 354.606 354.431 354.216 354.056 353.951 354.031 354.033 353.971 353.913 353.858 353.741 353.511 353.183 353.006 353.013 353.231 353.396 353.386 353.268 353.093 352.948 352.916 352.836 352.748 352.628 352.341 352.038 351.763 351.421 351.163 351.041 350.996 350.843 350.698 350.613 350.401 350.228 350.033 350.073 350.206 350.273 350.221 350.091 349.971 349.771 349.748 349.653 349.558 349.523 349.431 349.281 348.918 348.526 348.163 347.836 347.518 347.263 347.111 346.916 346.671 346.466 346.003 345.466 344.996 344.811 344.743 344.846 345.113 345.326 345.526 345.526 345.413 345.346 345.181 345.778 345.111 344.918 344.843 344.766 344.691 344.588 344.441 344.281 344.066 343.828 343.628 343.366 343.011 342.691 342.401 342.078 341.773 341.481 341.186 340.933 340.746 340.518 340.331 340.163 340.086 340.028 339.951 339.861 339.778 339.618 339.431 339.186 338.941 338.948 338.486 338.401 338.401 338.351 338.231 338.006 337.678 337.291 337.011 336.823 336.663 336.411 336.201 335.928 335.693 335.486 335.313 335.146 335.046 334.908 334.588 333.933 332.813 331.561 330.421 328.996 328.411 328.823 328.891 329.011 328.928 328.856 328.803 329.036 329.568 330.226 330.841 331.373 331.791 331.996 332.008 331.853 331.636 331.383 331.146 330.836 330.531 330.211 329.956 329.691 329.903 329.513 329.191 329.018 328.846 328.618 328.363 328.103 327.818 327.533 327.208 326.908 326.548 326.241 325.888 325.456 324.973 324.466 323.913 323.498 323.173 322.968 322.763 322.528 322.306 322.091 321.866 321.671 321.436 321.165 320.891 320.601 320.311 320.433 320.228 319.456 319.123 318.906 318.676 318.306
365.128 365.251 365.211 365.221 365.081 364.891 364.953 364.871 364.716 364.486 364.163 363.941 363.768 363.513 363.156 362.833 362.621 362.616 362.631 362.528 362.381 362.408 362.226 362.131 362.103 362.026 361.906 361.876 361.763 361.521 361.243 361.251 361.531 361.716 361.673 361.561 361.626 361.421 361.406 361.103 360.866 360.756 360.641 360.588 360.481 360.328 360.236 360.158 360.046 359.961 359.903 359.863 359.838 359.843 359.886 359.933 360.033 360.038 360.088 360.146 360.191 360.288 360.321 360.231 360.216 360.111 360.061 360.128 360.268 360.336 360.346 360.303 360.183 360.166 360.126 360.236 360.256 360.153 359.993 359.848 359.828 359.786 359.713 359.616 359.551 359.338 358.941 358.881 359.496 359.591 359.781 360.061 360.066 360.031 360.043 360.031 360.043 360.063 360.088 360.191 360.308 360.441 360.371 360.381 360.358 360.251 360.126 360.173 360.383 360.491 360.293 359.906 360.026 360.101 359.803 359.741 360.006 360.098 360.051 359.931 359.826 359.783 359.828 359.836 359.853 359.866 359.783 359.703 359.561 359.431 359.348 359.228 359.163 359.046 358.913 358.776 358.728 358.728 358.706 358.616 358.511 358.356 358.276 358.226 358.016 357.926 357.853 357.766 357.728 357.591 357.408 357.278 357.216 357.141 357.028 356.936 356.938 356.796 356.778 356.856 356.778 356.638 356.568 356.516 356.401 356.341 356.231 355.966 355.711 355.641 355.656 355.638 355.558 355.393 355.248 355.141 355.023 354.856 354.661 354.383 354.368 354.373 354.378 354.261 354.196 354.193 354.131 353.998 353.728 353.451 353.293 353.321 353.556 353.691 353.726 353.623 353.511 353.403 353.318 353.203 353.126 352.988 352.786 352.518 352.236 351.901 351.603 351.471 351.336 351.103 351.008 350.936 350.763 350.661 350.473 350.321 350.368 350.413 350.351 350.163 350.063 350.021 349.976 349.816 349.813 349.871 349.706 349.466 349.223 348.828 348.473 348.101 347.783 347.508 347.313 347.141 346.788 346.508 345.806 345.291 345.186 345.041 345.021 345.471 345.771 345.871 345.976 345.896 345.738 345.658 346.066 345.451 345.328 345.196 345.046 344.966 344.886 344.746 344.613 344.438 344.243 344.001 343.648 343.413 343.101 342.851 342.551 342.276 341.988 341.691 341.433 341.178 340.966 340.741 340.571 340.388 340.306 340.256 340.198 340.133 340.018 339.858 339.658 339.358 339.168 338.918 338.686 338.706 338.728 338.623 338.431 338.138 337.828 337.423 337.081 336.918 336.733 336.551 336.323 336.088 335.936 335.766 335.588 335.438 335.293 335.001 334.656 333.913 332.791 331.548 330.296 329.123 328.706 329.093 329.301 329.376 329.328 329.233 329.376 329.886 330.453 330.976 331.486 331.888 332.236 332.308 332.266 332.123 331.958 331.748 331.503 331.263 330.963 330.668 330.323 330.101 330.293 329.671 329.553 329.431 329.253 329.021 328.806 328.541 328.246 327.976 327.728 327.403 327.033 326.696 326.358 325.968 325.491 324.931 324.38 323.871 323.531 323.278 323.076 322.85 322.641 322.413 322.188 321.981 321.755 321.5 321.236 320.996 320.863 321.143 320.246 319.826 319.456 319.201 318.986 318.668
365.938 365.941 365.843 365.773 365.583 365.551 365.511 365.358 365.278 365.136 364.923 364.708 364.523 364.208 363.946 363.583 363.371 363.218 363.081 362.766 362.538 362.613 362.548 362.458 362.343 362.246 362.163 362.218 362.033 361.756 361.361 361.548 361.923 362.021 361.903 361.838 361.673 361.476 361.231 361.463 361.248 361.073 360.911 360.766 360.666 360.521 360.496 360.438 360.328 360.236 360.171 360.128 360.121 360.123 360.128 360.103 360.186 360.286 360.321 360.361 360.403 360.523 360.468 360.438 360.403 360.311 360.293 360.391 360.568 360.703 360.781 360.793 360.756 360.651 360.638 360.646 360.596 360.463 360.338 360.298 360.278 360.231 360.116 359.956 359.928 359.703 359.241 359.068 359.796 359.723 360.058 360.478 360.466 360.418 360.348 360.328 360.293 360.298 360.296 360.406 360.551 360.623 360.641 360.688 360.618 360.563 360.486 360.431 360.568 360.608 360.383 360.146 360.153 360.191 360.051 360.213 360.538 360.638 360.541 360.451 360.321 360.233 360.206 360.221 360.156 360.106 360.073 360.021 359.953 359.818 359.658 359.563 359.531 359.396 359.173 359.001 358.976 359.058 359.041 358.863 358.751 358.646 358.651 358.526 358.306 358.246 358.133 358.061 357.998 357.793 357.608 357.568 357.461 357.438 357.348 357.316 357.366 357.251 357.101 357.103 356.983 356.806 356.756 356.831 356.761 356.678 356.518 356.383 356.168 356.066 356.028 355.953 355.901 355.708 355.516 355.431 355.293 355.016 354.683 354.676 354.703 354.691 354.633 354.563 354.476 354.458 354.383 354.208 353.903 353.653 353.533 353.626 353.831 354.011 354.048 354.016 353.913 353.816 353.716 353.591 353.461 353.323 353.138 352.893 352.558 352.228 352.088 351.931 351.623 351.323 351.308 351.228 351.123 351.081 350.928 350.726 350.556 350.468 350.361 350.341 350.441 350.436 350.311 349.991 350.161 350.226 350.143 349.871 349.558 349.158 348.701 348.303 347.983 347.713 347.528 347.313 346.853 346.228 345.786 345.603 345.453 345.613 345.811 346.256 346.393 346.298 346.278 346.193 346.023 346.403 345.996 345.668 345.568 345.423 345.291 345.248 345.218 345.556 345.923 345.493 345.308 344.516 343.811 343.463 343.271 343.038 342.816 342.538 342.231 341.918 341.676 341.431 341.216 341.026 340.841 340.701 340.588 340.508 340.463 340.398 340.266 340.103 339.891 339.536 339.388 338.981 338.871 338.878 338.876 338.806 338.573 338.258 337.968 337.636 337.316 337.071 336.883 336.683 336.488 336.276 336.113 335.921 335.798 335.693 335.526 335.236 334.848 334.076 332.941 331.716 330.561 329.651 329.291 329.421 329.721 329.653 329.583 329.631 330.176 330.718 331.196 331.691 332.131 332.413 332.533 332.531 332.471 332.413 332.253 332.063 331.843 331.561 331.328 331.058 330.661 330.928 330.251 330.008 329.876 329.781 329.628 329.388 329.218 328.978 328.701 328.438 328.171 327.828 327.488 327.156 326.843 326.473 326.07 325.468 324.901 324.333 323.906 323.606 323.353 323.108 322.923 322.733 322.543 322.316 322.058 321.823 321.598 321.378 321.578 321.008 320.568 320.263 319.863 319.531 319.276 319.016
366.596 366.588 366.408 366.311 366.026 366.186 366.138 366.021 365.891 365.716 365.533 365.381 365.148 364.941 364.588 364.258 364.078 363.878 363.598 363.271 362.841 362.656 362.726 362.616 362.498 362.443 362.453 362.413 362.248 362.008 361.593 361.913 362.193 362.183 362.131 362.106 362.016 361.796 361.496 361.363 361.221 361.008 361.373 361.383 361.083 360.763 360.863 360.696 360.588 360.551 360.481 360.423 360.476 360.428 360.328 360.353 360.406 360.453 360.588 360.656 360.688 360.856 360.746 360.693 360.613 360.548 360.563 360.686 360.856 361.013 361.223 361.393 361.423 361.348 361.103 360.966 360.861 360.773 360.748 360.723 360.688 360.633 360.633 360.473 360.231 359.866 359.401 359.301 359.328 359.766 360.338 360.793 360.906 360.841 360.706 360.611 360.541 360.488 360.568 360.683 360.781 360.823 360.906 360.988 360.988 360.916 360.876 360.836 360.731 360.296 360.086 360.258 360.343 360.391 360.443 360.793 361.056 361.071 360.968 360.931 360.806 360.698 360.626 360.563 360.466 360.388 360.306 360.238 360.223 360.133 360.031 359.913 359.848 359.723 359.526 359.276 359.273 359.363 359.338 359.193 359.038 358.951 358.923 358.761 358.613 358.506 358.366 358.193 357.931 357.898 357.888 357.813 357.806 357.718 357.611 357.561 357.671 357.581 357.388 357.301 357.191 357.113 357.131 357.111 357.061 356.953 356.821 356.656 356.543 356.426 356.343 356.273 356.206 356.063 355.883 355.723 355.523 355.108 354.978 355.043 355.016 354.931 354.898 354.893 354.823 354.731 354.586 354.346 354.046 353.893 353.873 354.028 354.221 354.381 354.393 354.383 354.331 354.168 354.108 353.933 353.836 353.683 353.493 353.206 352.891 352.616 352.488 352.226 351.846 351.631 351.601 351.476 351.421 351.418 351.266 351.131 351.021 350.871 350.798 350.876 350.921 350.833 350.553 350.128 350.241 350.356 350.346 350.156 349.911 349.483 348.971 348.476 348.113 347.933 347.721 347.371 346.793 346.203 346.038 345.928 345.921 346.233 346.501 346.726 346.718 346.613 346.493 346.416 346.676 346.521 346.128 345.991 345.841 345.646 345.511 345.731 345.878 347.033 347.298 347.201 346.013 344.818 344.726 344.628 344.056 343.498 343.066 342.813 342.501 342.198 341.976 341.731 341.523 341.346 341.203 341.023 340.898 340.816 340.731 340.663 340.538 340.308 340.043 339.796 339.403 339.113 339.016 338.983 338.968 338.908 338.696 338.401 338.103 337.818 337.516 337.248 337.038 336.831 336.703 336.466 336.246 336.096 335.978 335.913 335.748 335.506 335.193 334.428 333.411 332.418 331.206 330.318 329.973 329.546 329.946 329.923 329.958 330.486 331.028 331.506 331.941 332.291 332.611 332.728 332.733 332.713 332.681 332.596 332.518 332.318 332.116 331.853 331.631 331.391 331.353 331.153 330.538 330.361 330.218 330.07 329.926 329.76 329.576 329.371 329.151 328.936 328.666 328.343 328.011 327.676 327.393 327.028 326.573 326.053 325.491 324.903 324.453 324.038 323.738 323.466 323.23 323.033 322.846 322.671 322.426 322.193 321.945 321.978 321.858 321.251 320.941 320.635 320.258 319.898 319.593 319.351
367.168 367.126 367.091 366.868 366.678 366.728 366.646 366.561 366.463 366.311 366.153 365.963 365.756 365.541 365.223 364.953 364.758 364.486 364.236 363.941 363.586 363.283 363.066 362.641 362.571 362.523 362.518 362.478 362.446 362.306 361.891 362.021 362.358 362.458 362.403 362.303 362.236 361.911 361.701 361.448 361.528 361.518 361.441 361.311 361.566 362.066 362.178 361.888 361.698 361.566 360.828 360.806 361.368 360.918 362.281 361.866 361.366 360.946 360.731 360.801 360.938 360.973 360.923 360.916 360.883 360.871 360.881 361.013 361.168 361.333 361.551 361.758 361.846 361.743 361.511 361.333 361.221 361.146 361.066 361.046 361.026 361.016 360.918 360.748 360.513 360.156 359.811 360.076 359.628 360.143 360.661 361.116 361.233 361.196 361.063 360.866 360.721 360.591 360.798 361.036 361.093 361.176 361.276 361.383 361.251 361.281 361.373 361.283 360.863 359.861 359.568 360.151 360.468 360.558 360.808 361.211 361.493 361.478 361.421 361.336 361.246 361.133 361.073 360.936 360.836 360.738 360.613 360.531 360.483 360.411 360.328 360.236 360.158 359.986 359.823 359.696 359.626 359.643 359.638 359.518 359.376 359.341 359.233 359.078 358.931 358.783 358.676 358.111 357.638 358.168 358.221 358.113 358.106 358.036 357.988 357.943 357.906 357.763 357.628 357.501 357.373 357.433 357.496 357.396 357.268 357.141 357.036 356.908 356.826 356.733 356.676 356.593 356.446 356.278 356.233 356.021 355.818 355.473 355.418 355.401 355.336 355.258 355.246 355.201 355.073 354.961 354.786 354.513 354.263 354.146 354.313 354.501 354.668 354.721 354.708 354.681 354.621 354.501 354.403 354.276 354.251 354.136 353.961 353.683 353.311 352.978 352.693 352.358 352.163 351.978 351.871 351.736 351.718 351.708 351.593 351.466 351.353 351.326 351.293 351.253 351.188 351.078 350.721 350.301 350.186 350.341 350.296 350.201 349.996 349.663 349.233 348.693 348.256 348.078 347.841 347.343 346.738 346.343 346.246 346.201 346.388 346.783 347.091 347.068 346.963 346.908 346.738 346.683 347.208 346.683 346.498 346.348 346.223 346.006 345.856 346.158 347.658 349.108 349.018 348.716 347.791 345.286 344.781 344.568 344.281 344.413 343.716 343.073 342.831 342.538 342.283 342.056 341.851 341.718 341.588 341.416 341.233 341.113 341.011 340.896 340.713 340.408 340.093 339.973 339.376 339.228 339.141 339.068 339.068 339.028 338.833 338.538 338.238 337.993 337.686 337.418 337.211 337.021 336.846 336.641 336.431 336.288 336.211 336.143 335.966 335.753 335.466 334.803 333.831 332.808 331.871 330.918 330.258 329.783 330.061 330.303 330.726 331.323 331.826 332.271 332.616 332.776 332.948 332.983 332.938 332.886 332.861 332.836 332.718 332.583 332.403 332.183 331.983 331.803 332.193 331.266 330.936 330.758 330.573 330.436 330.281 330.096 329.885 329.678 329.48 329.281 329.058 328.796 328.506 328.236 327.931 327.628 327.168 326.648 326.141 325.643 325.158 324.708 324.301 323.891 323.548 323.373 323.121 322.94 322.751 322.556 322.351 322.661 321.873 321.648 321.403 321.043 320.646 320.308 319.958 319.671
367.741 367.588 367.626 367.268 367.358 367.333 367.346 367.136 367.011 366.846 366.751 366.623 366.408 366.121 365.853 365.653 365.443 365.141 364.856 364.616 364.336 364.043 363.741 363.211 362.813 362.628 362.498 362.506 362.498 362.461 362.218 362.153 362.623 362.698 362.601 362.451 362.308 362.126 361.911 361.881 361.823 361.911 361.938 361.693 361.578 361.623 361.976 362.381 362.633 362.421 361.783 361.483 362.051 362.473 362.548 362.543 362.516 362.028 361.683 360.993 361.118 361.091 361.158 361.178 361.183 361.153 361.223 361.303 361.458 361.598 361.828 362.063 362.136 362.036 361.866 361.766 361.738 361.586 361.418 361.308 361.311 361.326 361.191 361.008 360.726 360.418 360.241 360.398 359.863 360.293 360.906 361.336 361.518 361.513 361.433 361.248 361.193 361.236 361.363 361.448 361.553 361.618 361.716 361.776 361.758 361.838 361.756 361.638 361.283 360.373 359.863 360.468 360.661 360.776 361.168 361.653 361.978 361.901 361.751 361.716 361.606 361.566 361.473 361.333 361.203 361.093 360.941 360.833 360.708 360.638 360.628 360.548 360.441 360.248 360.086 360.033 359.963 359.973 359.928 359.806 359.733 359.728 359.628 359.471 359.303 359.176 359.056 358.553 358.338 358.706 358.666 358.538 358.488 358.436 358.311 358.156 358.093 358.008 357.918 357.768 357.713 357.773 357.743 357.661 357.508 357.386 357.248 357.143 357.108 357.018 356.946 356.843 356.628 356.523 356.456 356.171 356.026 355.918 355.756 355.678 355.641 355.623 355.616 355.543 355.398 355.221 354.946 354.696 354.503 354.468 354.653 354.933 355.051 355.011 355.006 354.973 354.873 354.793 354.616 354.611 354.546 354.523 354.428 354.181 353.761 353.261 352.886 352.641 352.451 352.318 352.206 352.108 352.068 351.971 351.851 351.783 351.573 351.516 351.498 351.426 351.323 351.168 350.918 350.621 350.251 350.056 349.926 349.908 349.828 349.616 349.208 348.671 348.306 348.248 348.021 347.276 346.761 346.533 346.436 346.541 346.951 347.363 347.498 347.423 347.276 347.128 346.998 347.146 347.076 346.923 346.968 347.056 346.938 346.751 346.471 346.733 348.216 350.041 349.996 349.933 349.861 345.593 344.858 344.548 344.338 344.213 344.078 343.603 343.151 342.911 342.661 342.433 342.243 342.126 341.938 341.731 341.563 341.448 341.291 341.108 340.811 340.461 340.301 339.853 339.531 339.376 339.351 339.376 339.321 339.188 338.953 338.676 338.411 338.138 337.861 337.581 337.386 337.203 337.016 336.798 336.608 336.548 336.466 336.356 336.193 335.931 335.631 335.033 334.163 333.056 332.138 331.386 330.721 330.158 330.053 330.761 331.433 332.116 332.628 332.976 333.143 333.186 333.176 333.198 333.188 333.168 333.178 333.111 332.968 332.888 332.761 332.563 332.401 332.531 332.093 331.581 331.343 331.135 330.973 330.853 330.688 330.508 330.238 329.956 329.773 329.588 329.396 329.186 328.936 328.721 328.441 328.153 327.731 327.246 326.741 326.276 325.826 325.363 324.898 324.481 323.991 323.678 323.448 323.226 323.028 322.868 323.228 322.676 322.261 322.048 321.813 321.461 321.056 320.691 320.363 320.066
368.323 368.223 367.991 367.778 367.891 367.858 367.823 367.623 367.491 367.403 367.251 367.183 366.943 366.708 366.456 366.296 366.076 365.776 365.476 365.216 364.983 364.768 364.451 364.131 363.741 363.223 362.868 362.823 362.786 362.626 362.366 362.318 362.836 362.996 362.868 362.718 362.541 362.378 362.263 362.231 362.228 362.228 362.181 361.956 361.601 361.858 362.156 362.506 362.651 362.736 363.013 362.973 362.911 362.871 362.786 362.796 362.723 362.596 362.546 362.041 361.436 361.328 361.373 361.458 361.461 361.481 361.528 361.566 361.643 361.836 362.081 362.258 362.371 362.281 362.208 362.331 362.323 362.168 362.341 362.031 361.946 361.643 361.758 361.298 360.976 360.641 360.858 360.583 360.291 360.471 361.163 361.673 361.833 361.826 361.811 361.766 361.811 361.816 361.828 361.911 361.946 361.923 362.053 362.193 362.321 362.283 362.208 362.113 362.041 361.601 361.303 361.298 360.958 361.006 361.551 362.046 362.318 362.318 362.181 362.058 361.938 361.943 361.888 361.756 361.613 361.503 361.373 361.221 360.988 360.863 360.933 360.866 360.741 360.588 360.378 360.383 360.351 360.318 360.276 360.156 360.101 360.098 359.993 359.816 359.676 359.581 359.493 359.273 359.178 359.223 359.101 358.973 358.911 358.796 358.648 358.256 358.383 358.366 358.226 358.023 358.051 358.143 358.031 357.873 357.708 357.643 357.566 357.486 357.498 357.386 357.191 357.033 356.966 356.771 356.588 356.588 356.413 356.321 356.093 355.951 356.016 356.073 356.003 355.896 355.738 355.508 355.208 354.958 354.773 354.696 354.826 355.103 355.311 355.343 355.313 355.268 355.196 355.091 354.898 354.886 354.828 354.791 354.716 354.481 354.018 353.573 353.278 352.981 352.706 352.606 352.488 352.381 352.356 352.216 352.118 351.961 351.813 351.701 351.613 351.531 351.406 351.276 351.166 351.023 350.728 350.323 349.993 349.721 349.473 349.216 348.948 348.693 348.581 348.518 348.206 347.741 347.031 346.646 346.733 347.303 347.618 347.868 347.881 347.763 347.621 347.461 347.418 347.871 347.296 347.223 347.301 347.293 347.221 347.023 346.711 346.593 348.373 349.333 349.421 349.481 349.441 345.348 345.106 344.776 344.581 344.431 344.131 343.988 343.751 343.283 343.048 342.828 342.631 342.411 342.191 342.018 341.883 341.761 341.566 341.286 340.886 340.791 340.253 339.906 339.831 339.758 339.728 339.726 339.561 339.341 339.081 338.816 338.513 338.256 338.008 337.751 337.533 337.366 337.168 336.998 336.913 336.823 336.681 336.586 336.433 336.126 335.713 335.163 334.411 333.426 332.408 331.653 331.056 330.456 330.336 330.983 331.996 332.766 333.223 333.478 333.596 333.601 333.556 333.551 333.518 333.506 333.488 333.411 333.338 333.266 333.126 332.958 332.843 333.136 332.338 332.108 331.813 331.603 331.418 331.276 331.096 330.848 330.57 330.26 330.061 329.883 329.713 329.578 329.363 329.211 328.993 328.718 328.331 327.871 327.403 326.941 326.451 326.011 325.518 324.976 324.448 323.993 323.751 323.523 323.326 323.336 323.426 322.871 322.673 322.443 322.158 321.851 321.516 321.128 320.783 320.476
368.816 368.676 368.478 368.316 368.366 368.361 368.251 368.093 368.031 367.898 367.858 367.681 367.436 367.206 367.043 366.898 366.713 366.376 366.088 365.846 365.598 365.401 365.033 364.778 364.473 363.998 363.606 363.396 363.183 362.943 362.661 362.586 363.091 363.321 363.181 363.008 362.856 362.651 362.616 362.508 362.461 362.421 362.366 362.203 361.773 362.171 362.493 362.823 362.936 363.056 363.078 363.028 363.083 363.226 363.393 363.321 363.433 362.858 362.818 362.761 362.328 361.706 361.561 361.668 361.761 361.821 361.771 361.828 362.283 362.593 362.828 363.036 362.621 362.623 363.073 363.121 362.941 363.086 362.958 362.741 362.526 362.268 361.973 361.511 361.038 360.968 361.496 360.781 360.648 361.106 361.521 361.978 362.173 362.173 362.148 362.106 362.091 362.106 362.208 362.306 362.331 362.358 362.561 362.668 362.731 362.678 362.658 362.563 362.551 362.481 362.233 361.858 361.303 361.208 361.828 362.398 362.628 362.653 362.541 362.418 362.341 362.333 362.281 362.163 361.958 361.826 361.746 361.653 361.518 361.276 361.271 361.243 361.146 360.973 360.766 360.708 360.733 360.698 360.663 360.563 360.478 360.421 360.323 360.166 360.063 360.023 359.941 359.801 359.751 359.678 359.513 359.368 359.263 359.201 359.086 358.933 358.876 358.803 358.618 358.433 358.453 358.463 358.271 358.068 357.971 357.943 357.943 357.923 357.913 357.706 357.471 357.403 357.073 356.951 357.101 357.078 356.831 356.633 356.436 356.348 356.396 356.466 356.421 356.268 356.083 355.913 355.691 355.403 355.153 355.008 355.013 355.198 355.533 355.598 355.568 355.521 355.518 355.483 355.353 355.266 355.191 355.123 354.971 354.763 354.253 353.891 353.681 353.351 353.108 352.896 352.738 352.633 352.566 352.448 352.313 352.101 351.963 351.821 351.681 351.578 351.461 351.378 351.343 351.168 350.903 350.643 350.343 350.066 349.763 349.583 349.361 349.121 348.923 348.731 348.393 347.711 347.273 346.856 347.123 347.966 348.236 348.316 348.263 348.146 347.973 347.833 348.183 347.791 347.651 347.608 347.738 347.756 347.771 347.723 347.431 347.066 347.331 347.218 347.588 347.981 347.361 345.736 345.496 345.031 344.858 344.673 344.448 344.168 344.061 343.783 343.401 343.153 342.936 342.716 342.528 342.341 342.168 341.988 341.758 341.398 340.943 340.806 340.266 340.353 340.356 340.208 340.108 339.996 339.766 339.478 339.178 338.881 338.631 338.386 338.141 337.928 337.736 337.543 337.366 337.228 337.196 337.033 336.913 336.801 336.596 336.308 335.841 335.291 334.601 333.686 332.761 332.033 331.333 330.731 330.563 331.283 332.296 333.111 333.613 333.858 333.983 334.036 333.976 333.931 333.901 333.856 333.823 333.768 333.686 333.611 333.503 333.381 333.796 333.241 332.876 332.611 332.326 332.098 331.898 331.713 331.491 331.165 330.863 330.573 330.353 330.203 330.086 329.953 329.803 329.718 329.506 329.243 328.903 328.466 328.038 327.581 327.126 326.623 326.101 325.538 325.003 324.466 324.121 323.846 323.646 324.088 323.483 323.221 323.053 322.843 322.578 322.298 322.005 321.648 321.263 320.983
369.271 369.106 368.913 368.936 368.906 368.848 368.711 368.561 368.418 368.293 368.276 368.193 368.043 367.878 367.616 367.431 367.233 366.901 366.673 366.426 366.151 365.801 365.513 365.188 364.803 364.378 363.996 363.733 363.546 363.163 362.783 362.891 363.538 363.671 363.553 363.378 363.198 363.066 362.993 362.908 362.828 362.736 362.696 362.406 362.253 362.538 362.878 363.156 363.301 363.296 363.371 363.393 363.378 363.411 363.296 363.221 363.316 363.421 363.351 363.241 362.928 362.598 362.156 362.338 362.333 362.536 362.638 362.571 362.418 362.478 362.651 362.671 362.616 362.668 362.898 363.081 363.256 363.526 363.606 363.576 363.371 363.026 362.631 362.311 362.386 362.621 362.688 360.933 360.928 361.611 361.813 362.411 362.446 362.446 362.458 362.431 362.428 362.491 362.628 362.691 362.821 362.966 363.118 363.153 363.141 363.113 363.098 363.048 362.958 362.973 362.806 362.333 361.728 361.418 361.956 362.571 362.878 362.853 362.738 362.653 362.608 362.656 362.616 362.496 362.268 362.108 362.161 362.136 362.096 361.873 361.741 361.613 361.521 361.338 361.221 361.121 361.151 361.128 361.048 360.901 360.806 360.723 360.596 360.516 360.463 360.463 360.421 360.261 360.171 360.088 359.928 359.801 359.693 359.618 359.543 359.458 359.238 359.213 359.076 358.906 358.796 358.856 358.718 358.481 358.321 358.271 358.323 358.301 358.223 357.956 357.776 357.486 357.223 357.313 357.528 357.461 357.191 356.961 356.773 356.753 356.788 356.873 356.791 356.621 356.498 356.338 356.111 355.796 355.523 355.376 355.298 355.356 355.603 355.801 355.771 355.708 355.723 355.678 355.598 355.603 355.568 355.478 355.323 355.088 354.576 354.296 354.046 353.731 353.463 353.168 352.988 352.916 352.811 352.658 352.518 352.333 352.096 351.913 351.758 351.626 351.548 351.483 351.376 351.193 350.973 350.731 350.491 350.296 350.081 349.891 349.681 349.393 349.163 348.936 348.491 347.938 347.438 347.156 347.646 348.226 348.593 348.683 348.626 348.471 348.296 348.198 348.471 348.048 347.976 347.998 348.166 348.203 348.213 348.236 348.138 347.833 347.641 347.451 347.243 347.043 346.538 346.046 345.706 345.396 345.178 344.971 344.748 344.516 344.233 344.046 343.858 343.426 343.213 343.013 342.818 342.638 342.438 342.201 341.903 341.418 341.301 340.813 340.801 340.973 340.896 340.671 340.463 340.223 339.951 339.598 339.283 338.998 338.771 338.543 338.373 338.171 337.968 337.776 337.601 337.496 337.436 337.316 337.146 336.926 336.646 336.328 335.868 335.396 334.821 333.958 333.111 332.533 331.851 331.283 330.943 331.121 332.241 333.243 333.921 334.368 334.501 334.476 334.411 334.341 334.306 334.258 334.226 334.161 334.103 334.056 333.941 334.153 334.026 333.563 333.313 333.091 332.808 332.526 332.286 332.106 331.863 331.548 331.176 330.886 330.663 330.538 330.413 330.318 330.228 330.133 330.023 329.798 329.538 329.176 328.718 328.266 327.726 327.23 326.683 326.086 325.538 324.941 324.496 324.248 324.38 324.416 323.671 323.558 323.398 323.238 322.996 322.728 322.428 322.088 321.786 321.488
369.816 369.576 369.351 369.286 369.226 369.178 369.088 369.078 368.848 368.711 368.623 368.536 368.438 368.158 367.853 367.621 367.498 367.216 366.928 366.663 366.398 366.093 365.821 365.536 365.201 364.818 364.526 364.253 363.933 363.246 363.018 363.718 364.101 364.093 363.966 363.801 363.651 363.531 363.461 363.376 363.331 363.238 363.131 362.876 362.758 362.963 363.168 363.378 363.528 363.648 363.726 363.698 363.693 363.623 363.326 363.261 363.371 363.318 363.306 363.093 362.946 362.723 362.598 362.591 362.521 362.506 362.528 362.408 362.521 362.711 362.836 362.923 362.916 363.028 363.218 363.421 363.706 363.848 363.768 363.573 363.368 363.266 363.298 363.296 363.311 363.428 362.453 361.421 361.576 361.911 362.556 362.708 362.773 362.733 362.711 362.813 362.976 363.106 363.206 363.266 363.293 363.361 363.598 363.603 363.588 363.623 363.621 363.558 363.383 363.381 363.201 362.843 362.341 361.736 361.981 362.608 363.051 363.108 362.998 362.901 362.826 362.913 362.943 362.881 362.666 362.486 362.466 362.543 362.498 362.348 362.173 362.028 361.888 361.728 361.636 361.601 361.563 361.493 361.383 361.208 361.133 361.051 360.971 360.883 360.821 360.796 360.816 360.726 360.603 360.496 360.356 360.236 360.151 360.063 360.001 359.933 359.693 359.648 359.613 359.436 359.268 359.343 359.228 359.043 358.801 358.736 358.748 358.686 358.583 358.423 357.906 357.648 357.858 357.911 357.903 357.771 357.588 357.413 357.171 357.153 357.258 357.273 357.156 357.026 356.883 356.731 356.593 356.386 355.996 355.773 355.671 355.628 355.771 355.913 355.996 355.911 355.883 355.876 355.891 355.946 355.923 355.831 355.688 355.393 354.928 354.673 354.471 354.143 353.791 353.488 353.278 353.173 353.073 352.936 352.783 352.546 352.303 352.078 351.913 351.778 351.631 351.513 351.388 351.248 351.056 350.848 350.676 350.543 350.323 350.118 349.868 349.588 349.368 349.093 348.628 348.116 347.658 347.561 347.988 348.511 349.021 349.078 349.006 348.883 348.651 349.003 348.611 348.401 348.356 348.403 348.538 348.576 348.576 348.518 348.463 348.316 348.133 347.838 347.551 347.483 346.948 346.533 346.168 345.806 345.613 345.338 345.061 344.821 344.506 344.158 343.898 343.623 343.498 343.336 343.118 342.918 342.728 342.421 342.011 341.501 341.563 341.058 341.398 341.418 341.258 340.978 340.691 340.348 340.053 339.731 339.448 339.181 338.963 338.818 338.618 338.418 338.228 338.038 337.911 337.773 337.641 337.531 337.331 337.038 336.696 336.336 335.928 335.506 335.068 334.396 333.598 333.036 332.373 331.796 331.393 331.363 331.608 333.208 334.083 334.788 335.038 334.966 334.893 334.856 334.806 334.768 334.781 334.728 334.633 334.546 334.478 334.676 334.261 334.076 333.811 333.561 333.246 332.908 332.616 332.385 332.091 331.786 331.498 331.201 331.003 330.851 330.758 330.686 330.656 330.588 330.493 330.396 330.151 329.856 329.443 328.923 328.385 327.796 327.255 326.651 326.058 325.431 324.946 324.691 325.063 324.135 323.961 323.841 323.671 323.521 323.333 323.116 322.831 322.566 322.303 322.033
370.073 369.973 369.901 369.746 369.608 369.561 369.521 369.436 369.221 369.081 368.921 368.816 368.693 368.593 368.378 368.118 367.921 367.793 367.511 367.191 366.933 366.713 366.481 366.138 365.811 365.391 365.128 364.788 364.216 363.343 363.396 364.466 364.641 364.558 364.446 364.301 364.228 364.081 363.988 363.948 363.896 363.833 363.721 363.613 363.613 363.733 363.876 363.948 364.021 364.146 364.161 364.191 364.026 363.828 363.576 363.581 363.616 363.563 363.596 363.441 363.023 362.741 362.703 362.726 362.653 362.678 362.746 362.756 363.061 363.446 363.531 363.383 363.318 363.458 363.763 364.038 364.318 364.478 364.393 364.058 363.796 363.433 363.341 363.286 363.291 363.628 362.933 362.581 362.711 362.833 363.056 363.101 362.983 362.838 363.148 363.418 363.558 363.656 363.703 363.813 363.668 363.561 363.948 364.073 364.088 364.143 364.131 364.001 363.838 363.746 363.603 363.306 362.788 362.278 362.421 362.883 363.216 363.371 363.338 363.258 363.291 363.336 363.346 363.341 363.218 363.036 363.003 363.018 362.871 362.683 362.513 362.363 362.228 362.086 362.031 362.011 361.998 361.866 361.733 361.568 361.448 361.428 361.386 361.308 361.246 361.211 361.233 361.181 361.068 360.936 360.793 360.726 360.588 360.543 360.481 360.453 360.288 360.191 360.118 359.876 359.841 359.843 359.676 359.546 359.408 359.333 359.198 359.053 358.886 358.418 358.113 358.483 358.598 358.486 358.283 358.131 358.006 357.743 357.538 357.588 357.716 357.718 357.608 357.478 357.256 357.068 357.008 356.898 356.563 356.221 356.011 355.983 356.041 356.166 356.228 356.168 356.131 356.148 356.256 356.326 356.271 356.196 356.011 355.686 355.311 355.103 354.943 354.548 354.218 353.868 353.636 353.558 353.418 353.266 353.026 352.778 352.511 352.361 352.168 351.978 351.883 351.678 351.528 351.456 351.338 351.146 350.968 350.771 350.533 350.323 350.061 349.806 349.526 349.208 348.683 348.258 347.906 347.891 348.288 348.998 349.458 349.473 349.393 349.301 349.488 349.253 348.866 348.796 348.716 348.761 348.858 348.856 348.858 348.793 348.711 348.601 348.401 348.231 348.026 347.726 347.416 347.096 346.833 346.366 346.071 345.721 345.328 345.071 344.788 344.446 344.101 343.953 343.928 343.618 343.396 343.131 342.888 342.566 342.033 341.908 341.318 341.618 341.783 341.693 341.468 341.153 340.846 340.506 340.183 339.936 339.651 339.433 339.233 339.081 338.886 338.693 338.523 338.353 338.258 338.096 337.928 337.803 337.596 337.178 336.753 336.353 335.943 335.551 335.188 334.681 334.123 333.578 333.058 332.396 331.821 331.813 331.838 333.091 334.116 334.936 335.401 335.458 335.471 335.446 335.351 335.248 335.231 335.226 335.158 335.146 335.421 334.996 334.786 334.571 334.291 334.006 333.651 333.303 332.963 332.676 332.323 332.031 331.763 331.526 331.323 331.193 331.121 331.083 331.048 331.026 330.991 330.943 330.736 330.476 330.073 329.628 329.048 328.403 327.808 327.136 326.543 325.875 325.385 325.581 324.885 324.423 324.243 324.041 323.896 323.768 323.641 323.448 323.231 323 322.793 322.563
370.456 370.358 370.403 370.313 370.206 370.088 369.948 369.711 369.488 369.458 369.396 369.283 369.241 369.143 368.943 368.763 368.586 368.391 368.133 367.836 367.511 367.266 366.943 366.551 366.198 365.848 365.528 365.126 364.553 363.646 363.998 364.916 365.186 365.121 364.991 364.921 364.866 364.778 364.696 364.643 364.571 364.543 364.403 364.293 364.336 364.388 364.421 364.486 364.551 364.553 364.563 364.501 364.426 364.288 364.108 364.098 364.048 363.946 363.866 363.656 363.248 362.978 363.041 363.271 363.126 363.168 363.373 363.513 363.756 363.958 364.068 363.981 363.963 363.953 364.293 364.488 364.686 364.756 364.696 364.321 364.051 363.656 363.621 363.498 363.688 363.421 363.118 362.933 363.093 363.408 363.401 363.381 363.363 363.501 363.716 363.918 364.061 364.158 364.228 364.313 364.283 364.271 364.418 364.496 364.583 364.603 364.526 364.398 364.221 364.078 363.943 363.666 363.208 362.778 362.856 363.213 363.476 363.648 363.638 363.718 363.781 363.838 363.861 363.848 363.853 363.771 363.673 363.548 363.378 363.163 362.941 362.783 362.606 362.438 362.411 362.466 362.461 362.293 362.151 361.953 361.816 361.758 361.786 361.788 361.746 361.711 361.693 361.646 361.538 361.388 361.293 361.218 361.018 360.936 360.926 360.848 360.706 360.606 360.463 360.286 360.221 360.211 360.056 359.998 359.926 359.741 359.593 359.448 358.906 358.723 359.026 359.153 359.121 358.971 358.801 358.586 358.388 358.108 357.941 358.046 358.156 358.178 358.113 357.918 357.696 357.441 357.358 357.208 356.908 356.551 356.361 356.356 356.443 356.558 356.583 356.573 356.578 356.566 356.636 356.673 356.636 356.518 356.251 355.941 355.701 355.488 355.233 355.001 354.648 354.298 354.143 354.048 353.833 353.576 353.258 352.978 352.771 352.621 352.421 352.268 352.071 351.841 351.748 351.581 351.458 351.403 351.286 351.103 350.888 350.566 350.273 350.038 349.813 349.446 348.926 348.338 348.096 348.208 348.683 349.413 349.796 349.801 349.776 349.903 349.866 349.383 349.231 349.196 349.063 349.028 349.061 349.108 349.131 349.088 348.951 348.826 348.681 348.488 348.316 348.013 347.741 347.536 347.291 346.883 346.481 346.128 345.721 345.326 345.056 344.761 344.466 344.228 344.063 343.896 343.591 343.261 342.878 342.478 342.353 341.871 341.828 342.083 342.068 341.936 341.638 341.316 340.971 340.676 340.363 340.138 339.953 339.711 339.496 339.361 339.171 338.996 338.883 338.763 338.658 338.518 338.356 338.196 337.918 337.501 336.951 336.458 336.011 335.578 335.258 334.996 334.658 334.126 333.528 332.958 332.336 331.991 332.053 333.028 334.006 334.921 335.561 335.858 336.008 336.068 336.021 335.833 335.716 335.698 335.713 335.823 335.921 335.546 335.381 335.113 334.796 334.526 334.156 333.723 333.301 332.966 332.635 332.373 332.083 331.853 331.661 331.546 331.461 331.456 331.448 331.486 331.518 331.498 331.358 331.053 330.661 330.181 329.641 329.088 328.433 327.731 327.053 326.353 326.048 325.928 324.988 324.728 324.528 324.276 324.135 324.013 323.881 323.768 323.598 323.463 323.286 323.078
370.943 370.906 370.923 370.831 370.656 370.518 370.383 370.183 370.063 370.006 369.913 369.861 369.776 369.618 369.513 369.331 369.148 368.951 368.656 368.353 368.036 367.728 367.351 366.906 366.578 366.238 365.891 365.516 364.981 364.128 364.443 365.413 365.668 365.713 365.603 365.561 365.533 365.476 365.426 365.381 365.301 365.218 365.113 365.016 364.996 365.033 365.021 365.013 365.063 365.071 364.981 364.938 364.846 364.701 364.571 364.506 364.466 364.403 364.373 364.168 363.818 363.608 363.698 363.841 363.821 363.903 364.053 364.126 364.163 364.391 364.486 364.481 364.508 364.436 364.573 364.903 365.101 365.148 365.086 364.521 363.983 363.781 363.863 363.731 364.158 363.218 363.061 363.208 363.568 363.733 363.873 363.928 363.968 364.013 364.151 364.283 364.496 364.658 364.768 364.836 364.826 364.893 364.906 364.978 364.961 364.908 364.948 364.858 364.628 364.451 364.268 364.051 363.681 363.201 363.263 363.558 363.808 363.931 364.048 364.161 364.281 364.361 364.441 364.436 364.448 364.381 364.241 364.061 363.871 363.663 363.376 363.208 362.971 362.786 362.778 362.828 362.823 362.716 362.528 362.321 362.168 362.061 362.116 362.173 362.201 362.163 362.096 362.088 361.981 361.828 361.803 361.721 361.463 361.356 361.288 361.228 361.086 360.818 360.731 360.791 360.751 360.636 360.411 360.373 360.393 360.168 359.936 359.563 359.293 359.506 359.573 359.646 359.548 359.443 359.261 358.966 358.808 358.558 358.343 358.488 358.638 358.698 358.601 358.386 358.183 357.926 357.731 357.498 357.113 356.846 356.713 356.743 356.886 356.958 357.033 357.068 357.036 357.041 357.031 357.038 356.966 356.786 356.486 356.291 356.108 355.821 355.543 355.276 354.938 354.698 354.633 354.478 354.233 353.896 353.536 353.263 353.111 352.901 352.731 352.568 352.331 352.191 352.058 351.908 351.881 351.813 351.628 351.466 351.253 350.921 350.583 350.378 350.208 349.888 349.203 348.461 348.491 348.686 349.121 349.641 350.008 350.043 350.026 350.338 349.911 349.721 349.583 349.501 349.413 349.306 349.281 349.333 349.408 349.318 349.206 349.066 348.926 348.706 348.476 348.261 348.016 347.761 347.586 347.293 346.881 346.526 346.151 345.656 345.328 345.081 344.821 344.518 344.131 344.238 343.783 343.211 342.753 342.783 342.513 342.201 342.408 342.481 342.341 342.128 341.878 341.563 341.226 340.896 340.608 340.361 340.151 339.943 339.743 339.558 339.433 339.351 339.316 339.228 339.128 338.988 338.778 338.561 338.241 337.838 337.236 336.703 336.171 335.713 335.386 335.183 334.966 334.571 334.006 333.496 332.906 332.111 332.211 332.978 333.831 334.658 335.363 335.978 336.386 336.568 336.538 336.381 336.213 336.198 336.258 336.763 336.273 336.103 335.921 335.663 335.343 335.008 334.616 334.173 333.695 333.323 332.958 332.656 332.426 332.233 332.053 331.906 331.846 331.816 331.88 331.988 332.01 331.953 331.815 331.566 331.231 330.713 330.183 329.578 328.963 328.283 327.556 326.898 326.978 325.741 325.351 325.028 324.778 324.523 324.408 324.266 324.138 324.021 323.928 323.861 323.736 323.558
371.371 371.378 371.411 371.326 371.171 370.973 370.793 370.668 370.643 370.496 370.411 370.313 370.248 370.166 370.091 369.926 369.733 369.466 369.168 368.833 368.503 368.176 367.736 367.338 366.936 366.563 366.226 365.898 365.321 364.483 365.146 365.993 366.196 366.268 366.261 366.243 366.176 366.121 366.108 366.101 366.003 365.913 365.748 365.678 365.693 365.651 365.638 365.566 365.546 365.498 365.428 365.368 365.296 365.186 365.046 364.976 364.908 364.893 364.851 364.708 364.403 364.231 364.343 364.408 364.391 364.548 364.631 364.591 364.656 364.793 364.883 364.928 365.143 365.253 365.068 365.223 365.483 365.556 365.446 364.751 364.168 364.048 364.068 364.006 364.073 363.426 363.441 363.836 363.921 364.041 364.298 364.411 364.426 364.496 364.618 364.823 365.071 365.221 365.326 365.373 365.366 365.411 365.406 365.423 365.158 365.116 365.353 365.313 365.166 364.968 364.736 364.476 364.076 363.676 363.518 363.758 364.078 364.263 364.491 364.691 364.801 364.921 365.013 365.033 364.983 364.868 364.698 364.551 364.378 364.153 363.853 363.588 363.351 363.173 363.178 363.021 362.991 363.053 362.871 362.663 362.466 362.358 362.388 362.563 362.623 362.583 362.518 362.476 362.396 362.316 362.211 362.121 361.971 361.858 361.751 361.621 361.333 360.723 360.996 361.433 361.353 361.291 361.053 360.813 360.838 360.656 360.143 359.741 359.976 360.036 359.958 360.063 359.993 359.866 359.676 359.421 359.321 359.051 358.876 359.023 359.183 359.203 359.046 358.868 358.683 358.396 358.218 357.843 357.406 357.166 357.138 357.233 357.376 357.406 357.493 357.551 357.516 357.436 357.433 357.376 357.266 357.061 356.836 356.688 356.518 356.206 355.933 355.658 355.336 355.076 355.038 354.856 354.588 354.253 353.928 353.668 353.451 353.266 353.066 352.898 352.718 352.676 352.471 352.398 352.443 352.323 352.136 351.886 351.586 351.211 350.878 350.716 350.551 350.093 349.196 348.831 348.898 349.133 349.633 350.123 350.381 350.428 350.533 350.686 350.211 350.016 349.891 349.796 349.711 349.528 349.496 349.526 349.586 349.528 349.403 349.236 349.091 348.873 348.683 348.488 348.248 348.013 347.786 347.538 347.218 346.848 346.463 346.071 345.608 345.351 345.103 344.858 344.591 344.266 343.981 343.336 343.073 343.093 342.623 342.761 342.876 342.836 342.596 342.316 342.053 341.758 341.446 341.168 340.866 340.618 340.338 340.116 339.923 339.768 339.708 339.736 339.761 339.718 339.588 339.423 339.231 338.913 338.538 338.103 337.566 337.016 336.413 335.898 335.583 335.393 335.253 334.901 334.403 333.926 333.393 332.508 332.471 332.933 333.721 334.356 335.073 335.761 336.331 336.728 336.813 336.808 336.781 336.766 337.181 337.186 336.731 336.581 336.351 336.113 335.838 335.483 335.078 334.591 334.116 333.721 333.383 333.076 332.801 332.621 332.471 332.361 332.236 332.226 332.248 332.336 332.383 332.331 332.251 332.008 331.656 331.178 330.603 330.013 329.406 328.776 328.068 327.823 327.148 326.198 325.711 325.348 325.076 324.828 324.668 324.488 324.396 324.298 324.216 324.216 324.166 324.046
371.776 371.831 371.831 371.793 371.671 371.501 371.368 371.291 371.188 371.021 370.913 370.818 370.816 370.773 370.661 370.473 370.256 369.963 369.641 369.306 368.958 368.566 368.143 367.768 367.328 366.936 366.611 366.273 365.491 364.978 366.056 366.718 366.881 366.946 366.941 366.968 366.943 366.891 366.873 366.873 366.786 366.726 366.533 366.456 366.428 366.376 366.286 366.161 366.073 365.971 365.853 365.803 365.771 365.668 365.563 365.473 365.356 365.316 365.238 365.136 364.911 364.813 364.883 364.923 364.946 365.043 365.123 365.176 365.223 365.358 365.361 365.443 365.713 365.863 365.861 365.596 365.763 365.903 365.813 365.153 364.731 364.411 364.336 364.491 364.301 363.726 364.003 364.193 364.248 364.381 364.633 364.756 364.788 364.933 365.093 365.333 365.628 365.766 365.836 365.891 365.926 365.966 365.938 365.928 365.888 365.806 365.868 365.803 365.661 365.523 365.258 364.888 364.438 364.236 364.016 364.108 364.448 364.656 364.883 365.133 365.336 365.431 365.553 365.538 365.438 365.351 365.161 364.978 364.841 364.603 364.378 364.106 363.903 363.703 363.571 363.441 363.398 363.373 363.211 363.011 362.811 362.678 362.766 362.933 363.066 363.001 362.911 362.891 362.876 362.816 362.726 362.588 362.451 362.361 362.188 362.068 361.881 361.476 361.686 361.761 361.713 361.866 361.723 361.421 361.341 361.026 360.333 360.188 360.461 360.383 360.356 360.563 360.501 360.288 360.108 359.993 359.828 359.503 359.438 359.541 359.676 359.696 359.531 359.361 359.116 358.898 358.638 358.163 357.753 357.543 357.573 357.781 357.911 357.931 357.953 358.008 357.951 357.883 357.831 357.746 357.558 357.366 357.216 357.048 356.833 356.588 356.323 356.111 355.853 355.596 355.408 355.223 354.968 354.613 354.286 353.993 353.796 353.568 353.406 353.293 353.198 353.201 353.048 353.003 352.956 352.783 352.556 352.301 351.971 351.616 351.223 351.033 350.813 349.988 349.273 349.303 349.473 349.708 350.183 350.743 350.908 350.871 351.351 350.658 350.503 350.333 350.188 350.078 349.978 349.818 349.738 349.726 349.728 349.701 349.563 349.421 349.253 349.063 348.923 348.716 348.526 348.306 348.058 347.803 347.471 347.143 346.791 346.411 346.018 345.648 345.393 345.173 344.893 344.456 343.883 343.843 343.678 343.228 343.138 343.253 343.228 343.053 342.791 342.488 342.213 341.956 341.673 341.423 341.136 340.826 340.536 340.271 340.101 339.988 340.073 340.213 340.178 340.106 340.016 339.886 339.666 339.306 338.831 338.386 337.858 337.291 336.718 336.141 335.793 335.611 335.483 335.213 334.741 334.286 333.793 333.063 332.511 332.766 333.578 334.291 334.858 335.461 336.051 336.516 336.961 337.131 337.341 337.421 337.781 337.423 337.251 337.123 336.856 336.588 336.278 335.948 335.513 335.018 334.571 334.178 333.848 333.483 333.248 333.031 332.873 332.731 332.603 332.601 332.586 332.626 332.641 332.628 332.576 332.368 331.983 331.521 331.006 330.451 329.823 329.166 328.568 328.378 327.288 326.711 326.183 325.743 325.433 325.133 324.931 324.786 324.688 324.593 324.473 324.531 324.531 324.453
372.121 372.198 372.161 372.141 372.081 371.988 371.838 371.761 371.701 371.588 371.481 371.411 371.373 371.288 371.163 370.981 370.748 370.458 370.126 369.761 369.411 368.943 368.528 368.138 367.711 367.301 366.946 366.538 365.658 365.718 366.688 367.246 367.493 367.593 367.631 367.661 367.661 367.591 367.561 367.536 367.473 367.381 367.216 367.168 367.141 367.083 366.946 366.826 366.731 366.566 366.436 366.338 366.256 366.196 366.086 365.976 365.891 365.741 365.676 365.588 365.438 365.341 365.411 365.396 365.483 365.548 365.616 365.701 365.791 365.898 365.886 365.931 366.231 366.371 366.526 366.486 366.176 366.233 366.233 365.676 365.203 364.851 364.703 364.763 364.353 363.996 364.328 364.568 364.561 364.691 365.028 365.151 365.218 365.343 365.571 365.933 366.163 366.373 366.461 366.481 366.558 366.523 366.516 366.556 366.576 366.553 366.411 366.348 366.268 366.053 365.781 365.293 364.813 364.673 364.496 364.491 364.711 365.078 365.341 365.608 365.846 365.951 366.028 366.023 365.931 365.818 365.651 365.406 365.203 364.981 364.898 364.676 364.423 364.198 364.036 363.971 363.943 363.886 363.761 363.538 363.366 363.236 363.293 363.398 363.356 363.331 363.291 363.231 363.256 363.281 363.273 363.113 362.888 362.708 362.571 362.481 362.463 362.336 362.308 362.193 362.173 362.393 362.288 362.096 361.813 361.071 360.858 361.048 360.986 360.811 360.708 360.926 360.901 360.721 360.578 360.433 360.238 359.991 359.943 360.016 360.078 360.128 359.996 359.833 359.531 359.213 358.841 358.383 358.076 357.963 358.116 358.398 358.443 358.493 358.506 358.456 358.433 358.318 358.231 358.111 357.863 357.691 357.541 357.401 357.263 357.028 356.778 356.533 356.348 356.131 355.916 355.643 355.318 355.008 354.653 354.363 354.156 353.953 353.848 353.731 353.656 353.636 353.591 353.546 353.448 353.281 352.996 352.696 352.416 352.108 351.676 351.301 350.743 349.971 349.596 349.906 350.138 350.423 350.733 351.146 351.258 351.651 351.141 350.926 350.781 350.636 350.473 350.418 350.311 350.203 350.106 349.986 349.913 349.848 349.743 349.618 349.471 349.268 349.116 348.951 348.773 348.551 348.296 348.043 347.743 347.408 347.113 346.726 346.353 345.943 345.651 345.413 345.121 344.668 344.148 344.093 343.988 343.733 343.623 343.566 343.476 343.246 342.958 342.668 342.411 342.133 341.861 341.588 341.326 341.008 340.738 340.428 340.273 340.288 340.461 340.583 340.543 340.446 340.368 340.238 340.016 339.608 339.138 338.693 338.163 337.561 336.973 336.438 336.066 335.878 335.713 335.498 335.078 334.621 334.178 333.701 333.071 332.861 333.056 334.308 334.896 335.376 335.853 336.383 336.858 337.358 337.821 338.266 338.176 337.916 337.853 337.628 337.376 337.103 336.728 336.371 335.948 335.481 335.043 334.658 334.273 333.973 333.798 333.568 333.286 333.111 332.973 332.938 332.943 332.896 332.901 332.903 332.821 332.598 332.276 331.863 331.406 330.848 330.233 329.623 329.481 328.508 327.878 327.278 326.688 326.193 325.831 325.458 325.223 325.048 324.936 324.851 324.801 324.841 324.926 325.053
372.543 372.516 372.526 372.461 372.443 372.426 372.276 372.231 372.173 372.091 371.926 371.978 371.863 371.773 371.606 371.471 371.238 370.958 370.593 370.213 369.791 369.358 368.896 368.436 367.946 367.491 366.951 366.186 365.831 366.461 367.213 367.771 368.033 368.171 368.243 368.373 368.426 368.348 368.261 368.213 368.188 368.086 368.028 367.951 367.878 367.738 367.668 367.561 367.396 367.181 367.011 366.931 366.793 366.748 366.633 366.506 366.373 366.206 366.088 366.051 365.966 365.918 365.881 365.873 365.936 365.991 366.118 366.231 366.311 366.393 366.408 366.363 366.668 366.856 366.973 367.018 366.796 366.618 366.618 366.098 365.483 365.188 365.146 365.413 364.326 364.093 364.763 364.903 364.911 365.176 365.496 365.576 365.701 365.901 366.118 366.391 366.683 366.891 366.983 367.001 366.983 366.948 367.003 367.023 367.106 367.113 366.951 366.861 366.796 366.553 366.253 365.763 365.293 365.111 364.951 364.883 365.171 365.386 365.676 365.986 366.261 366.436 366.421 366.438 366.473 366.251 366.171 365.926 365.628 365.488 365.518 365.241 364.901 364.683 364.481 364.441 364.431 364.373 364.291 364.103 363.838 363.776 363.796 363.786 363.718 363.693 363.638 363.656 363.701 363.668 363.758 363.668 363.383 363.086 362.971 362.936 362.966 362.928 362.821 362.821 362.778 362.863 362.808 362.601 361.863 361.568 361.791 361.841 361.641 361.228 361.213 361.303 361.271 361.158 360.993 360.886 360.616 360.478 360.463 360.566 360.578 360.566 360.453 360.288 359.866 359.393 359.041 358.738 358.601 358.736 359.036 358.996 359.023 359.066 359.021 358.963 358.893 358.766 358.643 358.466 358.191 358.031 357.913 357.803 357.668 357.526 357.291 357.001 356.783 356.588 356.346 356.023 355.696 355.391 355.053 354.741 354.543 354.388 354.263 354.161 354.091 354.071 354.026 353.996 353.923 353.773 353.483 353.126 352.836 352.541 352.036 351.453 350.683 350.093 350.116 350.518 350.883 351.196 351.306 351.428 351.696 351.726 351.396 351.218 351.033 350.896 350.816 350.768 350.656 350.551 350.403 350.218 350.103 350.053 350.001 349.893 349.686 349.498 349.318 349.176 349.021 348.783 348.541 348.306 348.038 347.733 347.388 347.028 346.533 346.118 345.766 345.576 345.276 344.851 344.383 344.341 344.031 344.031 343.871 343.741 343.583 343.368 343.103 342.858 342.621 342.328 342.051 341.741 341.473 341.191 340.908 340.641 340.493 340.588 340.748 340.838 340.761 340.703 340.633 340.481 340.261 339.868 339.398 338.926 338.478 337.913 337.323 336.796 336.413 336.126 335.943 335.733 335.408 334.981 334.616 334.196 333.543 333.303 332.988 333.926 335.001 335.456 335.891 336.271 336.746 337.411 338.148 338.731 338.371 338.353 338.303 338.118 337.833 337.556 337.216 336.776 336.433 336.021 335.601 335.193 334.788 334.506 334.473 334.103 333.768 333.523 333.363 333.273 333.243 333.216 333.248 333.203 333.078 332.901 332.586 332.171 331.703 331.241 330.643 330.418 329.801 329.021 328.503 327.911 327.306 326.726 326.281 325.853 325.548 325.316 325.158 325.106 325.078 325.166 325.558 325.768
372.893 372.931 372.898 372.881 372.828 372.768 372.706 372.661 372.603 372.511 372.386 372.401 372.338 372.216 372.083 371.918 371.711 371.396 371.033 370.648 370.203 369.783 369.303 368.763 368.178 367.676 367.381 367.206 367.001 367.396 367.808 368.153 368.488 368.726 368.953 369.091 369.113 369.066 368.956 368.908 368.933 368.883 368.838 368.783 368.656 368.496 368.401 368.268 368.021 367.806 367.643 367.573 367.456 367.328 367.253 367.076 366.946 366.696 366.528 366.496 366.506 366.436 366.366 366.343 366.398 366.508 366.656 366.803 366.868 366.906 366.938 366.878 367.193 367.396 367.476 367.543 367.343 367.121 367.071 366.686 365.856 365.563 365.503 365.816 364.838 365.111 365.066 365.293 365.338 365.651 365.943 366.103 366.243 366.426 366.716 366.943 367.138 367.316 367.431 367.406 367.358 367.333 367.438 367.486 367.591 367.606 367.443 367.273 367.211 367.041 366.738 366.248 365.768 365.466 365.256 365.256 365.528 365.758 366.013 366.286 366.621 366.816 366.793 366.958 367.013 366.861 366.713 366.428 366.141 366.088 366.096 365.798 365.408 365.141 364.913 364.893 364.888 364.866 364.781 364.613 364.358 364.231 364.201 364.173 364.098 364.061 364.041 364.118 364.196 364.133 364.133 364.096 363.866 363.621 363.393 363.341 363.448 363.378 363.238 363.228 363.256 363.271 363.218 362.726 362.201 362.608 362.553 362.416 362.121 361.681 361.666 361.766 361.661 361.596 361.481 361.341 361.081 360.916 361.021 361.131 361.096 361.023 360.961 360.733 360.266 359.718 359.448 359.321 359.271 359.436 359.501 359.586 359.601 359.633 359.536 359.411 359.331 359.206 359.053 358.833 358.618 358.398 358.263 358.146 358.041 357.916 357.761 357.523 357.236 357.036 356.773 356.446 356.113 355.816 355.543 355.306 355.081 354.863 354.763 354.678 354.623 354.563 354.488 354.486 354.436 354.238 353.928 353.546 353.231 352.828 352.233 351.536 350.816 350.441 350.561 350.913 351.361 351.726 351.786 351.741 352.228 351.746 351.611 351.458 351.326 351.231 351.163 351.098 351.008 350.851 350.668 350.488 350.326 350.236 350.223 350.146 349.891 349.701 349.573 349.448 349.311 349.098 348.841 348.583 348.316 347.978 347.596 347.126 346.631 346.106 345.778 345.596 345.303 344.916 345.001 344.516 344.393 344.301 344.071 343.843 343.681 343.491 343.276 343.063 342.843 342.543 342.251 341.926 341.653 341.393 341.166 340.933 340.776 340.816 340.901 340.961 340.928 340.841 340.718 340.611 340.376 340.056 339.608 339.211 338.728 338.163 337.653 337.163 336.736 336.448 336.221 336.008 335.713 335.298 334.948 334.593 334.196 333.723 333.488 333.996 335.098 335.581 335.988 336.306 336.736 337.343 338.483 338.928 338.658 338.648 338.583 338.503 338.271 337.998 337.728 337.391 336.988 336.638 336.238 335.833 335.451 335.141 334.996 334.586 334.336 334.151 333.851 333.701 333.608 333.598 333.593 333.531 333.396 333.198 332.883 332.518 332.098 331.668 331.243 331.093 330.188 329.663 329.126 328.518 327.878 327.283 326.801 326.333 325.926 325.631 325.431 325.373 325.633 326.251 326.076 325.761
373.318 373.333 373.318 373.271 373.236 373.198 373.141 373.088 373.068 372.896 372.846 372.838 372.756 372.566 372.551 372.356 372.096 371.816 371.528 371.138 370.713 370.266 369.728 369.188 368.561 368.048 367.798 367.698 367.716 367.983 368.246 368.681 369.081 369.433 369.626 369.793 369.798 369.713 369.636 369.606 369.586 369.588 369.541 369.528 369.423 369.226 369.126 368.956 368.783 368.458 368.353 368.206 368.071 367.991 367.983 367.898 367.668 367.233 366.986 366.943 366.851 366.808 366.848 366.811 366.928 367.018 367.226 367.363 367.438 367.541 367.473 367.336 367.606 367.828 367.946 368.021 367.816 367.618 367.376 367.048 366.223 365.966 365.906 366.061 365.941 365.346 365.746 365.721 365.833 366.133 366.416 366.671 366.846 367.073 367.346 367.523 367.626 367.748 367.856 367.851 367.808 367.833 367.876 367.993 368.096 368.026 367.886 367.726 367.698 367.516 367.218 366.778 366.276 365.806 365.491 365.701 366.071 366.251 366.433 366.591 366.908 367.128 367.191 367.368 367.433 367.541 367.391 366.943 366.563 366.631 366.566 366.233 365.886 365.616 365.458 365.381 365.388 365.351 365.278 365.106 364.906 364.843 364.821 364.693 364.608 364.556 364.523 364.548 364.628 364.641 364.603 364.488 364.246 364.083 363.866 363.746 363.828 363.733 363.583 363.556 363.598 363.593 363.441 362.751 362.998 363.168 363.026 362.846 362.521 362.261 362.136 362.156 362.016 362.016 362.013 361.803 361.536 361.353 361.508 361.631 361.573 361.481 361.396 361.191 360.718 360.146 359.898 359.856 359.911 360.041 360.226 360.243 360.171 360.111 360.003 359.863 359.741 359.678 359.461 359.233 359.038 358.821 358.603 358.468 358.351 358.223 358.091 357.931 357.696 357.446 357.171 356.818 356.546 356.266 356.013 355.841 355.603 355.411 355.276 355.186 355.173 355.121 355.013 354.991 354.946 354.658 354.383 353.973 353.598 353.031 352.298 351.693 351.093 350.786 350.906 351.373 351.846 352.196 352.226 352.388 352.171 351.878 351.768 351.701 351.606 351.576 351.531 351.433 351.331 351.158 350.941 350.733 350.543 350.448 350.461 350.398 350.131 349.893 349.846 349.753 349.631 349.428 349.126 348.808 348.453 348.116 347.638 347.091 346.536 346.033 345.781 345.683 345.443 345.271 345.171 344.768 344.801 344.633 344.293 344.036 343.846 343.673 343.443 343.201 342.993 342.733 342.488 342.151 341.863 341.646 341.446 341.288 341.158 341.138 341.106 341.066 340.986 340.873 340.753 340.626 340.438 340.111 339.678 339.318 338.861 338.308 337.876 337.456 337.088 336.726 336.483 336.241 335.958 335.586 335.276 335.028 334.651 334.246 334.051 334.146 335.113 335.673 336.063 336.401 336.786 337.543 338.268 338.553 339.186 338.893 338.823 338.781 338.686 338.501 338.353 338.228 337.826 337.313 336.916 336.523 336.146 335.798 335.496 335.148 334.911 334.718 334.513 334.253 334.126 334.018 333.973 333.881 333.698 333.483 333.196 332.886 332.561 332.136 332.111 331.481 330.798 330.283 329.703 329.103 328.493 327.931 327.431 326.888 326.368 326.003 325.706 325.683 326.423 326.826 325.986 325.938
