ncols 378
nrows 32
xllcorner    388092
yllcorner    476036
cellsize     2
NODATA_value -9999
295.728 295.895 296.003 296.068 296.243 296.358 295.723 295.51 295.378 295.235 295.098 294.97 294.788 294.643 294.48 294.278 294.05 293.843 293.62 293.405 293.145 292.888 292.623 292.37 292.105 291.86 291.645 291.43 291.055 290.56 290.008 289.568 289.285 289.138 289.008 288.84 288.728 288.64 288.54 288.485 288.39 288.293 288.205 288.145 288.145 288.1 288.04 288 288.008 288.013 287.993 287.923 287.763 287.348 287.088 286.918 286.348 286.325 286.283 286.33 286.458 286.563 286.565 286.175 285.97 286.033 286.088 286.138 286.18 286.138 286.135 286.173 286.138 286.093 285.97 285.643 285.725 286.038 286.145 286.108 286.07 286.012 285.928 285.824 285.76 285.301 285.227 285.075 285.049 286.091 285.9 285.749 285.791 285.83 285.83 285.824 285.836 285.854 285.844 285.816 285.768 285.759 285.738 285.963 286.2 285.719 285.542 285.43 285.335 285.312 285.35 285.377 285.375 285.352 285.342 285.29 285.225 285.147 285.127 285.125 285.15 285.192 285.22 285.252 285.187 285.13 285.105 285.095 285.087 285.095 285.127 285.255 285.395 285.595 285.925 286.272 286.582 286.772 286.955 287.165 287.415 287.607 287.782 288.082 288.492 288.202 288.185 288.222 288.292 288.38 288.49 288.625 288.732 288.83 288.96 289.03 289.192 289.412 289.167 289.175 289.752 289.682 289.832 290 290.142 290.292 290.452 290.612 290.815 290.99 291.1 291.26 291.42 291.572 291.7 291.73 291.812 291.83 291.83 291.855 291.937 292.187 292.505 292.725 292.977 293.247 293.527 293.837 294.632 295.667 295.96 296.692 297.047 297.035 297.78 298.647 300.167 301.83 303.387 304.075 304.355 304.6 304.73 304.615 304.497 304.922 305.652 306.25 306.722 307.017 307.15 306.935 306.975 307.377 307.72 307.63 307.725 307.7 307.435 307.427 307.757 307.735 308.122 308.145 308.222 308.192 308.042 307.755 307.632 307.61 307.602 307.667 307.877 307.985 308.145 308.262 308.12 308.132 308.452 308.797 309.037 309.325 309.93 310.607 311.412 312.245 312.88 313.317 313.672 314.087 314.785 315.335 315.877 316.43 316.807 317.382 318.017 318.652 319.4 320.005 320.557 321.31 322.412 323.427 324.245 324.917 325.555 326.207 326.862 327.315 327.8 328.515 329.565 330.532 331.27 331.955 332.655 333.055 333.462 333.647 334.4 335.072 335.862 336.38 337.017 337.275 337.607 337.915 338.367 339.115 340.035 341.152 342.322 343.652 344.717 345.375 345.722 346.07 346.335 346.59 347.057 347.197 347.657 348.36 349.274 350.509 351.514 352.249 353.169 353.639 353.974 354.032 354.089 354.652 355.727 356.917 357.912 359.062 360.102 361.144 362.059 363.087 364.049 365.157 366.304 367.537 368.694 369.819 370.652 371.302 371.999 372.794 373.917 374.894 375.782 376.292 376.492 376.604 376.707 376.604 376.349 376.132 376.197 375.987 375.894 375.509 375.542 376.042 376.582 377.472 378.129 378.692 379.262 379.807 380.304 380.972 381.594 381.769 382.099 382.509 382.944 383.472 384.012 384.604 385.169 385.732 386.222 386.822 387.472 388.104 388.877 389.614 390.274 390.947 391.502 391.954 392.304 392.479
296.185 296.333 296.413 296.728 296.48 295.993 295.788 295.633 295.505 295.375 295.238 295.085 294.93 294.765 294.578 294.418 294.208 294.023 293.805 293.59 293.35 293.115 292.873 292.625 292.42 292.228 292.075 291.795 291.25 290.588 290.095 289.638 289.373 289.213 289.078 288.918 288.795 288.73 288.625 288.545 288.45 288.35 288.25 288.193 288.163 288.12 288.093 288.038 288.055 288.038 288.023 287.968 287.81 287.388 287.175 287.09 286.29 286.26 286.243 286.305 286.343 286.4 286.543 286.52 286.06 285.938 286.073 286.093 286.153 286.165 286.108 286.088 286.15 286.108 286.055 286.003 285.613 285.71 285.95 286.053 286.079 286.038 285.983 285.886 285.783 285.667 285.326 285.276 285.133 285.342 286.104 286.014 285.91 285.885 285.845 285.803 285.786 285.825 285.82 285.787 285.757 285.781 285.77 286.233 285.661 285.579 285.469 285.395 285.34 285.335 285.37 285.345 285.34 285.335 285.352 285.307 285.257 285.19 285.157 285.157 285.18 285.235 285.252 285.235 285.137 285.07 285.03 285 284.942 284.94 284.95 285.005 285.1 285.287 285.55 285.895 286.307 286.532 286.747 286.98 287.247 287.462 287.845 288.25 287.852 287.94 287.975 288.062 288.172 288.3 288.402 288.56 288.675 288.765 288.845 288.925 289.017 289.462 289.265 289.14 289.19 289.805 289.662 289.802 289.952 290.125 290.285 290.472 290.662 290.815 290.952 291.137 291.267 291.42 291.535 291.627 291.697 291.652 291.592 291.625 291.78 291.94 292.34 292.67 292.972 293.175 293.357 293.537 294.295 295.465 295.185 295.917 295.872 296.597 297.867 299.157 300.562 301.902 303.017 303.507 303.792 303.952 304.01 303.91 303.852 304.387 305.01 305.402 305.86 306.185 306.155 305.835 305.977 306.48 306.83 306.72 306.65 306.47 306.202 306.377 306.945 307.015 306.945 307.215 307.657 307.715 307.185 307.115 307.15 307.06 307.082 307.27 307.44 307.537 307.66 307.695 307.747 307.922 308.05 308.4 308.69 309.175 309.917 310.752 311.527 311.942 312.342 312.675 313.147 313.802 314.52 315.045 315.325 315.825 316.295 316.92 317.51 317.997 318.715 319.407 320.065 320.99 322.005 322.777 323.565 324.415 325.052 325.61 326.007 326.41 328.88 327.807 328.755 329.692 330.432 331.005 331.677 332.35 332.612 332.877 333.442 333.92 334.67 335.36 335.965 336.405 336.622 337.142 337.642 338.445 339.532 340.795 342.087 343.3 343.867 344.302 344.73 345.067 345.48 345.987 346.212 346.485 347.14 348.142 348.947 350.159 351.012 351.754 352.237 352.362 352.619 352.899 353.157 353.589 354.474 355.509 356.594 357.699 358.964 360.174 361.272 362.359 363.502 364.624 365.872 367.109 368.169 368.907 369.737 370.547 371.277 372.202 373.414 374.424 375.057 375.134 375.107 375.197 375.179 375.152 375.24 375.287 375.187 375.152 374.982 374.817 375.309 375.737 376.529 377.577 378.319 379.027 379.634 379.992 380.369 380.707 381.057 381.544 381.979 382.447 382.952 383.437 383.952 384.524 385.037 385.637 386.197 386.807 387.364 387.989 388.559 389.199 389.887 390.542 391.047 391.507 391.799 392.009
296.525 296.613 297.098 296.59 296.288 296.103 295.955 295.79 295.615 295.495 295.36 295.223 295.048 294.898 294.723 294.533 294.363 294.17 293.963 293.745 293.533 293.29 293.105 292.905 292.753 292.558 292.2 291.643 291.095 290.578 290.108 289.758 289.515 289.305 289.175 289.08 288.908 288.793 288.683 288.585 288.485 288.388 288.283 288.238 288.228 288.195 288.13 288.1 288.115 288.083 288.06 288 287.838 287.458 287.255 287.078 286.318 286.148 286.165 286.193 286.265 286.303 286.385 286.508 286.41 286.03 285.99 286.063 286.08 286.108 286.128 286.053 286.07 286.073 286 285.918 285.853 285.538 285.67 285.841 285.979 286.002 286.006 285.959 285.888 285.733 285.537 285.26 285.279 285.329 285.651 286.06 286.041 285.948 285.881 285.814 285.765 285.79 285.784 285.738 285.662 285.894 286.42 285.89 285.573 285.488 285.404 285.393 285.415 285.413 285.387 285.38 285.34 285.365 285.347 285.337 285.29 285.22 285.185 285.212 285.24 285.292 285.262 285.182 285.122 285.085 285.017 284.965 284.922 284.875 284.842 284.84 284.855 284.972 285.18 285.52 285.94 286.3 286.542 286.752 286.977 287.567 287.717 287.612 287.637 287.697 287.777 287.915 288.07 288.21 288.342 288.427 288.56 288.647 288.715 288.825 288.952 289.077 289.522 289.14 289.08 289.33 289.38 289.55 289.757 289.942 290.14 290.307 290.477 290.672 290.817 290.977 291.14 291.262 291.382 291.465 291.532 291.445 291.395 291.492 291.637 291.905 292.432 292.752 293.062 293.225 293.42 293.545 293.865 294.102 294.96 294.905 295.867 297.082 298.572 299.787 300.642 301.707 302.505 302.912 303.23 303.392 303.317 303.155 303.08 303.555 304.092 304.46 304.942 305.21 305.02 304.747 305.002 305.587 305.867 305.73 305.29 305.19 305.367 305.43 305.845 306.342 306.377 306.22 306.265 306.33 306.95 306.57 306.657 306.63 306.627 306.877 307.102 307.1 307.147 307.23 307.465 307.69 307.852 308.08 308.422 309.192 309.957 310.602 311.085 311.525 311.912 312.307 312.862 313.522 314.205 314.687 314.995 315.437 315.985 316.642 317.22 317.592 318.197 319.35 319.677 320.572 321.455 322.16 322.895 323.92 324.542 324.872 325.257 325.665 326.43 327.16 328.062 328.95 329.837 330.477 330.957 331.507 331.847 332.197 332.742 333.24 333.65 334.345 335.07 335.637 336.087 336.66 337.122 338.1 339.37 340.78 341.915 342.7 342.975 343.357 343.782 344.167 344.79 345.205 345.33 345.885 346.8 347.84 348.637 349.922 350.464 351.234 351.162 351.157 351.574 351.944 352.294 352.749 353.304 354.189 355.517 356.764 358.084 359.472 360.514 361.657 362.929 364.129 365.282 366.417 367.452 368.287 369.272 370.004 370.814 371.807 372.964 373.777 374.137 373.932 373.764 373.697 373.694 373.899 374.164 374.237 374.287 374.267 374.147 374.397 374.904 375.619 376.777 377.764 378.482 379.289 379.997 380.324 380.369 380.732 380.952 381.422 381.964 382.549 383.099 383.574 384.024 384.494 384.927 385.439 386.027 386.584 387.117 387.779 388.379 388.957 389.674 390.282 390.757 391.074 391.227 391.492
296.83 297.378 297.09 296.583 296.45 296.33 296.16 295.975 295.828 295.633 295.483 295.32 295.16 294.97 294.795 294.625 294.468 294.305 294.1 293.893 293.695 293.5 293.308 293.065 292.895 292.528 291.838 291.253 290.973 290.58 290.183 289.895 289.685 289.468 289.285 289.12 289.005 288.88 288.748 288.64 288.54 288.455 288.368 288.29 288.27 288.225 288.193 288.16 288.158 288.138 288.095 287.933 287.77 287.545 287.338 287.318 286.375 286.285 286.348 286.185 286.133 286.175 286.22 286.24 286.368 286.29 286.005 286.008 286.038 286.055 286.078 286.045 286.03 286.04 285.96 285.895 285.93 285.768 285.423 285.484 285.713 285.869 285.949 285.955 285.942 285.826 285.657 285.523 285.438 285.362 285.157 285.346 285.518 285.908 285.869 285.813 285.804 285.796 285.785 285.755 285.811 286.112 285.917 285.697 285.513 285.444 285.436 285.432 285.442 285.448 285.452 285.4 285.417 285.372 285.365 285.315 285.277 285.27 285.242 285.277 285.305 285.302 285.22 285.15 285.12 285.087 285.032 284.985 284.925 284.852 284.78 284.742 284.735 284.795 284.925 285.157 285.525 285.947 286.195 286.605 287.185 287.28 287.21 287.322 287.435 287.485 287.582 287.775 287.962 288.132 288.282 288.375 288.465 288.522 288.61 288.692 288.85 288.962 289.247 289.655 289.077 288.997 289.44 289.485 289.545 289.792 289.955 290.107 290.32 290.512 290.675 290.79 290.952 291.08 291.135 291.185 291.17 291.157 291.227 291.397 291.562 291.855 292.34 292.715 292.987 293.167 293.372 293.582 293.82 293.832 294.182 294.567 295.762 296.927 298.11 299.285 301.065 301.402 301.865 302.262 302.622 302.69 302.472 302.23 302.23 302.72 303.177 303.675 303.985 304.127 303.97 303.88 304.185 304.692 304.952 304.697 304.18 304.24 304.6 304.597 305.007 305.53 305.61 305.537 305.402 305.335 305.627 306.157 306.052 305.887 306.015 306.337 306.567 306.622 306.685 306.805 307.02 307.305 307.575 307.835 308.5 309.145 309.752 310.292 310.732 311.252 311.61 312.06 312.57 313.195 313.862 314.285 314.69 315.17 315.705 316.415 316.857 317.23 319.267 319.22 319.31 320.055 320.865 321.525 322.157 322.9 323.587 324.102 324.592 325.095 325.765 326.505 327.325 328.222 329.165 329.872 330.157 330.657 331.082 331.482 332.137 332.617 333.11 333.795 334.622 335.17 335.677 336.235 337.002 338.015 339.42 340.662 341.5 342.047 342.325 342.58 342.852 343.305 343.91 344.125 344.81 345.375 346.395 347.447 348.454 349.319 349.687 350.067 350.182 350.362 350.717 351.047 351.379 352.032 352.684 353.484 354.697 355.964 357.252 358.474 359.659 360.849 362.127 363.329 364.589 365.779 366.687 367.597 368.557 369.407 370.102 371.077 372.174 372.864 372.927 372.792 372.582 372.467 372.632 372.839 373.019 373.244 373.424 373.437 373.742 374.329 375.117 376.229 377.327 378.227 378.944 379.539 380.469 380.324 380.427 380.792 381.142 381.532 381.992 382.609 383.199 383.672 384.024 384.474 384.929 385.414 386.062 386.589 386.964 387.619 388.257 388.752 389.374 389.984 390.412 390.634 390.774 391.007
297.33 296.923 296.76 296.678 296.58 296.483 296.368 296.228 296.033 295.8 295.6 295.423 295.255 295.065 294.903 294.728 294.583 294.385 294.205 294.013 293.795 293.605 293.348 292.998 292.568 291.998 291.395 291.045 290.81 290.503 290.253 290.033 289.81 289.56 289.398 289.235 289.103 288.968 288.815 288.71 288.568 288.51 288.448 288.348 288.323 288.278 288.233 288.203 288.195 288.173 288.028 287.955 287.93 287.688 287.35 287.305 286.498 286.47 286.553 286.443 286.283 286.103 286.11 286.108 286.153 286.213 286.133 286.025 286.005 286.033 286.055 286.035 286.028 286.023 286.023 286.088 286.1 285.993 285.81 285.499 285.422 285.503 285.751 285.91 285.926 285.885 285.771 285.61 285.527 285.254 284.92 284.933 285.403 285.9 285.879 285.787 285.784 285.797 285.773 285.793 285.873 285.67 285.554 285.539 285.466 285.45 285.509 285.477 285.45 285.46 285.471 285.462 285.427 285.415 285.36 285.317 285.272 285.275 285.305 285.317 285.297 285.257 285.197 285.16 285.14 285.125 285.05 284.992 284.905 284.825 284.77 284.732 284.732 284.74 284.785 284.852 285.04 285.43 286.032 286.605 286.51 286.662 286.882 287.057 287.165 287.2 287.375 287.597 287.855 288.025 288.187 288.302 288.337 288.412 288.505 288.602 288.727 288.785 290.322 289.692 289.655 289.01 288.992 289.502 289.415 289.607 289.79 289.957 290.14 290.29 290.455 290.56 290.577 290.635 290.642 290.73 290.827 290.97 291.102 291.27 291.422 291.827 292.352 292.665 292.867 293.042 293.285 293.572 293.452 293.807 293.897 294.145 295.3 296.817 298.38 298.41 300.525 300.717 300.92 301.38 301.635 301.515 301.345 301.295 301.407 301.86 302.282 302.772 303.057 303.052 302.94 303.037 303.44 303.85 303.995 303.76 303.24 303.392 303.717 303.985 304.29 304.675 304.87 304.832 304.825 304.747 304.937 305.095 305.227 305.555 306.09 305.977 306.082 306.28 306.327 306.46 306.745 307.025 307.307 307.737 308.312 308.965 309.532 309.95 310.342 310.772 311.215 311.797 312.282 312.905 313.407 313.81 314.192 314.487 314.935 315.695 316.172 316.7 317.485 318.602 320.665 319.537 320.247 320.832 321.325 321.895 322.565 323.315 323.95 324.497 325.247 326.09 326.79 327.747 328.4 328.77 329.462 330.022 330.407 330.835 331.367 331.835 332.547 333.327 334.2 334.772 335.4 335.94 336.705 337.992 339.132 340.155 340.802 341.157 341.462 341.727 341.937 342.41 343.012 343.615 344.18 345.015 345.952 347.04 348.002 348.642 348.899 349.142 349.304 349.569 349.937 350.132 350.674 351.557 352.404 353.422 354.564 355.752 356.809 357.777 358.819 359.949 361.224 362.602 363.959 365.014 365.734 366.649 367.664 368.597 369.417 370.417 371.257 371.694 371.757 371.654 371.549 371.637 371.782 371.914 372.017 372.239 372.492 373.024 373.867 374.637 375.604 376.572 377.559 378.537 379.527 379.952 380.129 380.262 380.562 380.804 381.137 381.499 381.972 382.567 383.159 383.634 384.107 384.542 384.949 385.512 386.172 386.592 386.839 387.327 387.982 388.469 389.029 389.544 389.929 390.154 390.259 390.499
296.88 296.873 296.818 296.753 296.698 296.618 296.513 296.42 296.223 295.978 295.733 295.523 295.325 295.165 295.005 294.845 294.67 294.49 294.318 294.07 293.84 293.455 292.938 292.47 292 291.415 291.065 290.858 290.695 290.503 290.333 290.07 289.895 289.675 289.493 289.335 289.158 289.023 288.88 288.765 288.643 288.553 288.48 288.415 288.37 288.358 288.328 288.26 288.25 288.16 288.11 288.155 288.075 287.805 287.383 287.298 286.55 286.51 286.53 286.53 286.515 286.243 286.11 286.175 286.095 286.118 286.083 286.07 286.013 285.988 285.96 286.013 286.02 286.02 285.963 286.01 286.04 286.035 286.025 285.874 285.615 285.266 285.279 285.503 285.839 285.886 285.855 285.73 285.59 285.464 285.327 284.823 285.219 285.72 285.676 285.743 285.72 285.7 285.73 285.932 285.581 285.567 285.504 285.461 285.443 285.481 285.483 285.469 285.449 285.462 285.484 285.468 285.43 285.412 285.382 285.32 285.305 285.335 285.34 285.257 285.225 285.2 285.192 285.177 285.16 285.12 285.085 285.002 284.912 284.827 284.79 284.767 284.74 284.76 284.742 284.732 284.882 285.34 285.762 285.645 285.99 286.307 286.562 286.757 286.847 286.972 287.252 287.502 287.735 287.902 288.08 288.172 288.25 288.325 288.407 288.482 288.58 288.677 289.202 290.432 291.057 289.43 288.905 288.937 289.46 289.342 289.567 289.772 289.932 290.07 290.097 290.077 290.117 290.222 290.342 290.525 290.68 290.86 291.037 291.19 291.455 291.94 292.387 292.582 292.707 292.915 293.13 293.242 293.502 293.61 293.632 293.74 294.507 296.112 297.832 297.84 298.715 299.405 299.87 300.182 300.287 300.157 300.217 300.457 300.752 301.065 301.417 301.817 302.067 302.012 302.122 302.352 302.575 302.915 302.975 302.695 302.64 302.87 303.105 303.435 303.482 303.502 303.69 303.74 303.947 304.092 304.452 304.75 304.915 305.062 305.585 306.26 305.8 305.895 305.965 306.087 306.4 306.702 307.07 307.442 308.06 308.702 309.202 309.77 310.045 310.402 310.84 311.392 311.85 312.307 312.76 313.06 313.487 313.73 314.29 314.96 315.662 316.435 317.26 318.002 318.865 318.967 319.702 320.35 320.822 321.307 321.972 322.707 323.395 324.005 324.79 325.552 326.285 326.907 327.41 327.97 328.677 329.372 329.955 330.367 330.802 331.385 332.095 332.905 333.507 334.235 335.042 335.697 336.56 337.767 338.787 339.775 340.297 340.58 340.762 340.905 341.147 341.64 342.197 343.042 343.742 344.542 345.64 346.532 347.269 347.767 348.082 348.479 348.789 348.884 349.064 349.284 350.152 351.182 352.282 353.474 354.504 355.529 356.564 357.492 358.339 359.297 360.452 361.899 363.129 364.074 364.837 365.717 366.777 367.832 368.842 369.734 370.437 370.599 370.594 370.627 370.794 371.097 371.057 370.949 371.139 371.597 372.329 373.444 374.202 374.934 375.747 376.609 378.054 378.722 379.362 379.854 380.139 380.422 380.679 380.834 381.017 381.402 381.932 382.562 383.164 383.669 384.084 384.502 384.989 385.614 386.232 386.557 386.769 387.007 387.529 388.109 388.629 389.087 389.299 389.407 389.707 389.927
296.873 296.893 296.855 296.82 296.77 296.693 296.615 296.5 296.365 296.17 295.938 295.68 295.453 295.29 295.078 294.92 294.78 294.525 294.25 293.873 293.405 292.968 292.51 292.153 291.655 291.245 290.943 290.785 290.72 290.545 290.37 290.16 289.958 289.738 289.563 289.4 289.27 289.073 288.92 288.778 288.68 288.608 288.533 288.488 288.445 288.425 288.36 288.3 288.26 288.245 288.26 288.263 288.215 287.973 287.528 287.485 286.623 286.438 286.488 286.463 286.49 286.43 286.298 286.165 286.108 286.085 286.05 286.07 286.063 286.02 285.92 285.918 285.953 285.995 285.99 285.965 285.905 285.95 286.023 285.993 285.875 285.681 285.424 285.225 285.305 285.589 285.722 285.775 285.612 285.469 285.312 285.102 285.096 285.564 285.838 285.78 285.665 285.761 285.773 285.596 285.551 285.505 285.478 285.419 285.434 285.485 285.446 285.437 285.415 285.436 285.452 285.458 285.435 285.395 285.345 285.302 285.29 285.335 285.272 285.212 285.175 285.142 285.145 285.112 285.1 285.115 285.08 285.012 284.94 284.865 284.86 284.852 284.85 284.797 284.735 284.787 284.927 284.967 284.945 285.187 285.572 285.967 286.23 286.42 286.592 286.882 287.15 287.36 287.602 287.797 287.972 288.085 288.17 288.215 288.297 288.367 288.472 288.697 289.075 290.41 291.292 290.777 289.027 288.842 288.905 289.287 289.345 289.482 289.615 289.657 289.67 289.747 289.925 290.1 290.235 290.422 290.625 290.857 291.082 291.382 291.795 292.032 292.302 292.445 292.63 292.712 292.875 293.232 293.425 293.445 293.437 293.495 293.787 294.622 295.887 297.072 297.857 298.442 298.882 299.142 299.155 299.185 299.442 299.77 300.087 300.347 300.575 300.91 301.107 301.167 301.347 301.597 301.787 301.965 301.942 301.677 301.937 302.34 302.48 302.657 302.735 302.56 302.647 302.812 303.07 303.397 303.862 304.28 304.52 304.66 304.825 305.22 305.542 305.46 305.552 305.66 306.017 306.537 306.905 307.295 307.787 308.197 308.807 309.315 309.702 310.127 310.42 310.782 311.15 311.532 311.815 312.337 312.777 313.115 313.815 314.57 315.167 315.945 316.8 317.45 317.945 318.672 319.45 320.117 320.652 321.112 321.712 322.422 322.99 323.62 324.55 325.362 325.937 326.305 326.777 327.417 328.075 328.685 329.235 329.82 330.372 331.052 331.68 332.387 333.005 333.932 334.82 335.542 336.565 337.552 338.497 339.35 339.912 340.085 340.247 340.307 340.615 341.157 341.712 342.492 343.35 344.215 345.262 346.02 346.589 347.189 347.429 347.614 347.839 348.029 348.159 348.642 349.764 350.912 352.022 353.174 354.339 355.234 356.159 357.052 357.857 358.844 359.914 361.137 362.287 363.182 364.177 365.094 366.152 367.229 368.364 369.162 369.584 369.497 369.504 369.769 370.232 370.297 370.209 370.289 370.877 371.729 372.632 373.452 374.112 374.942 375.974 376.729 377.654 378.522 379.372 379.929 380.234 380.544 380.689 380.782 380.927 381.234 381.912 382.517 383.097 383.572 384.027 384.449 384.909 385.557 386.207 386.724 386.839 386.852 387.132 387.549 388.069 388.469 388.714 388.759 389.074 389.304
296.78 296.878 296.888 296.84 296.805 296.748 296.66 296.548 296.483 296.315 296.075 295.81 295.595 295.413 295.18 294.983 294.778 294.325 293.853 293.375 292.95 292.618 292.275 291.91 291.633 291.348 290.985 290.873 290.788 290.58 290.405 290.225 289.995 289.8 289.63 289.465 289.32 289.123 288.973 288.86 288.74 288.668 288.595 288.538 288.525 288.47 288.405 288.36 288.345 288.32 288.293 288.288 288.285 288.123 287.733 287.518 286.7 286.403 286.43 286.45 286.415 286.468 286.483 286.42 286.24 286.173 286.1 286.088 286.12 286.095 285.945 285.85 285.905 285.91 285.963 285.998 285.93 285.878 285.87 286.013 285.986 285.917 285.801 285.523 285.147 285.068 285.377 285.735 285.676 285.414 285.183 285.273 285.09 285.308 285.521 285.341 285.587 286.274 285.814 285.448 285.478 285.447 285.428 285.422 285.427 285.419 285.376 285.335 285.348 285.387 285.407 285.405 285.358 285.357 285.357 285.325 285.267 285.217 285.182 285.16 285.147 285.135 285.112 285.057 285.047 285.03 285.01 284.942 284.905 284.895 284.935 284.957 284.88 284.757 284.787 284.947 284.81 284.735 284.737 284.882 285.232 285.615 285.887 286.1 286.427 286.757 286.977 287.205 287.425 287.65 287.845 287.97 288.03 288.132 288.2 288.282 288.547 288.905 288.772 289.18 290.45 291.27 289.707 288.792 288.81 288.835 289.137 289.07 289.157 289.235 289.37 289.61 289.812 290.042 290.3 290.54 290.817 291.127 291.312 291.57 291.887 292.037 292.152 292.317 292.43 292.65 292.837 293.075 293.24 293.302 293.317 293.345 293.467 293.865 294.882 296.217 297.13 297.782 298.125 298.27 298.392 298.607 298.872 299.07 299.312 299.557 299.827 300.072 300.25 300.447 300.67 300.845 301.027 301.192 301.035 300.932 301.125 301.362 301.622 301.67 301.757 301.892 302.007 302.285 302.64 302.942 303.312 303.68 304.04 304.337 304.457 304.49 304.815 304.887 304.887 305.255 306.167 306.495 306.752 307.162 307.642 307.99 308.357 308.865 309.407 309.807 309.88 310.017 310.397 310.757 310.907 311.61 312.172 312.567 313.31 314.12 314.697 315.505 316.237 316.85 317.54 318.33 319.227 319.892 320.395 320.745 321.442 322.177 322.675 323.302 324.517 324.625 325.127 325.545 326.097 326.822 327.555 328.225 328.84 329.457 330.052 330.757 331.31 331.847 332.645 333.63 334.647 335.385 336.447 337.395 337.93 338.537 339.167 339.56 339.635 339.915 340.227 340.682 341.235 341.952 343.11 344.072 344.747 345.467 346.002 346.549 346.624 346.667 346.889 347.102 347.314 348.207 349.332 350.217 351.252 352.399 353.532 354.849 355.834 356.647 357.499 358.615 359.522 360.427 361.462 362.349 363.369 364.462 365.532 366.619 367.527 368.072 368.372 368.412 368.759 369.292 369.319 369.212 369.427 370.247 371.132 371.889 372.577 373.214 374.254 374.882 375.607 376.612 377.667 378.602 379.402 380.019 380.309 380.647 380.764 380.704 380.807 381.139 381.782 382.337 382.957 383.497 384.052 384.529 384.987 385.652 386.297 386.614 386.654 386.737 386.764 387.002 387.462 387.807 387.994 388.174 388.444 388.597
296.718 296.808 296.855 296.848 296.798 296.738 296.67 296.6 296.505 296.388 296.193 295.903 295.575 295.428 295.258 294.88 294.435 293.87 293.395 293 292.68 292.425 292.165 291.863 291.68 291.395 291.068 290.99 290.845 290.63 290.433 290.263 290.095 289.893 289.69 289.5 289.315 289.16 289.043 288.873 288.77 288.695 288.653 288.585 288.533 288.485 288.465 288.425 288.353 288.318 288.305 288.308 288.305 288.21 287.84 287.468 286.908 286.323 286.37 286.405 286.41 286.428 286.463 286.505 286.395 286.295 286.248 286.215 286.215 286.205 286.04 285.87 285.825 285.875 285.89 285.9 285.948 285.945 285.888 285.802 285.921 285.964 285.901 285.758 285.634 285.44 285.167 285.058 285.2 285.21 285.291 285.332 285.178 284.965 285.117 285.331 285.356 285.894 285.665 285.459 285.479 285.441 285.415 285.432 285.396 285.378 285.328 285.293 285.312 285.345 285.345 285.353 285.306 285.331 285.335 285.305 285.205 285.125 285.095 285.127 285.15 285.14 285.095 285.022 284.98 284.93 284.885 284.86 284.895 284.925 284.98 284.92 284.812 284.887 284.96 284.79 284.705 284.662 284.667 284.747 284.982 285.34 285.615 285.882 286.227 286.552 286.802 286.987 287.23 287.517 287.727 287.865 287.947 288.017 288.105 288.337 288.69 288.38 288.51 288.567 289.177 288.97 288.62 288.767 288.8 288.792 288.815 289.205 288.842 288.992 289.217 289.467 289.73 290.162 290.51 290.69 290.935 291.19 291.35 291.55 291.775 291.877 291.97 292.192 292.292 292.597 292.7 292.902 293.07 293.137 293.202 293.252 293.322 293.492 294.165 295.33 296.41 297.09 297.37 297.545 297.67 297.952 298.26 298.44 298.622 298.79 299.002 299.297 299.525 299.767 300.04 300.237 300.32 300.33 300.307 300.362 300.412 300.53 300.66 300.662 300.782 300.935 301.33 301.76 302.21 302.432 302.775 303.05 303.472 303.852 303.92 303.922 303.917 304.715 304.615 305.31 305.902 306.225 306.517 306.93 307.352 307.605 308.027 308.31 308.717 308.947 309.102 309.345 309.797 310.07 310.407 311.065 311.72 312.347 312.925 313.492 314.245 315.095 315.71 316.317 317.195 317.952 318.762 319.502 319.99 320.46 321.142 321.735 322.122 322.77 323.257 323.815 324.525 325.1 325.737 326.657 327.385 327.967 328.607 329.142 329.672 330.34 330.912 331.55 332.22 333.392 334.26 335.12 335.972 336.67 337.197 337.832 338.397 338.78 339.05 339.552 339.882 340.295 340.87 341.607 342.752 343.51 344.292 344.92 345.274 345.389 345.274 345.369 345.842 346.437 346.692 347.794 348.807 349.709 350.497 351.604 352.757 354.029 355.277 356.127 357.319 358.262 359.179 360.037 360.857 361.742 362.794 363.827 364.754 365.674 366.452 366.987 367.382 367.787 368.162 368.469 368.379 368.652 369.427 370.442 371.259 371.827 372.312 373.274 373.964 374.759 375.754 376.669 377.622 378.457 379.257 379.857 380.319 380.749 380.747 380.604 380.624 381.022 381.617 382.077 382.734 383.497 384.132 384.634 385.014 385.519 385.919 386.092 386.372 386.489 386.454 386.639 386.899 387.182 387.357 387.427 387.639 387.892
296.6 296.708 296.79 296.783 296.733 296.713 296.71 296.628 296.53 296.41 296.14 295.745 295.153 294.815 294.878 294.518 293.97 293.598 293.1 292.733 292.498 292.293 292.063 291.773 291.588 291.275 291.16 291.075 290.948 290.775 290.57 290.31 290.103 289.898 289.69 289.505 289.325 289.185 289.038 288.895 288.8 288.735 288.678 288.61 288.593 288.558 288.483 288.423 288.373 288.345 288.308 288.288 288.31 288.258 287.978 287.515 286.95 286.283 286.303 286.35 286.375 286.365 286.37 286.443 286.49 286.418 286.205 286.183 286.258 286.253 286.215 286.135 285.828 285.775 285.855 285.845 285.858 285.89 285.9 285.864 285.797 285.824 285.886 285.88 285.819 285.698 285.469 285.13 284.888 285.047 285.335 285.527 285.188 284.861 284.838 285.112 285.303 285.533 285.507 285.451 285.501 285.439 285.394 285.343 285.341 285.298 285.242 285.23 285.229 285.291 285.311 285.326 285.333 285.352 285.325 285.247 285.137 285.08 285.06 285.085 285.095 285.105 285.102 285.03 284.945 284.895 284.847 284.83 284.837 284.867 284.86 284.88 284.992 285.022 284.76 284.7 284.672 284.64 284.62 284.655 284.842 285.097 285.365 285.677 285.99 286.325 286.61 286.807 287.042 287.322 287.567 287.725 287.807 287.972 288.515 288.257 288.172 288.272 288.34 288.37 288.375 288.437 288.452 288.527 289.407 288.787 288.747 288.862 289.267 288.84 289.12 289.397 289.72 290.217 290.497 290.59 290.747 291.027 291.235 291.342 291.44 291.525 291.787 292.11 292.392 292.527 292.652 292.802 292.94 293.017 293.075 293.167 293.202 293.31 293.647 294.717 295.547 296.235 296.675 296.805 297.097 297.475 297.762 297.885 298.045 298.195 298.327 298.57 298.935 299.262 299.502 299.63 299.642 299.607 299.787 299.93 299.94 299.877 299.867 299.772 299.987 300.317 300.635 301.16 301.57 301.832 302.157 302.565 302.94 303.08 303.192 303.302 303.885 303.947 304.955 305.302 305.875 306.087 306.39 306.662 306.967 307.247 307.587 307.942 308.202 308.462 308.637 308.975 309.23 309.442 310.007 310.687 312.187 312.072 312.512 313.05 314.017 314.82 315.32 315.935 316.755 317.475 318.082 318.72 319.29 319.685 320.475 321.155 321.682 322.15 322.445 322.98 323.622 324.48 325.362 326.257 327.037 327.53 328.085 328.652 329.317 329.692 330.227 330.872 331.625 332.84 333.825 334.58 335.24 335.995 336.77 337.337 337.915 338.235 338.617 339.225 339.48 339.942 340.695 341.48 342.207 342.865 343.455 343.892 343.937 343.894 343.849 344.197 344.704 345.419 346.267 347.529 348.459 349.434 350.264 351.222 352.454 353.757 354.672 355.707 356.817 357.654 358.557 359.432 360.289 361.054 361.874 362.762 363.774 364.832 365.639 366.279 366.864 367.197 367.062 367.424 368.104 368.859 369.612 370.427 371.064 371.792 372.534 372.557 373.577 374.902 375.922 376.752 377.514 378.199 378.914 379.594 380.107 380.649 380.627 380.384 380.394 380.719 381.212 381.902 382.727 383.492 384.029 384.344 384.674 384.914 385.159 385.554 385.989 386.079 386.059 386.159 386.334 386.512 386.569 386.697 386.984 387.387
296.438 296.565 296.64 296.678 296.67 296.683 296.688 296.645 296.55 296.458 296.243 295.66 294.963 294.44 294.27 294.045 293.55 293.208 292.828 292.56 292.373 292.235 291.988 291.793 291.555 291.293 291.188 291.113 291.015 290.875 290.643 290.365 290.15 289.955 289.758 289.52 289.34 289.158 289.025 288.933 288.805 288.72 288.683 288.68 288.633 288.555 288.508 288.455 288.385 288.36 288.305 288.293 288.313 288.27 287.99 287.55 287.035 286.223 286.208 286.303 286.328 286.365 286.343 286.395 286.488 286.513 286.4 286.155 286.163 286.173 286.148 286.2 286.143 285.813 285.708 285.755 285.818 285.823 285.855 285.835 285.831 285.805 285.63 285.841 285.794 285.693 285.625 285.598 285.44 285.185 284.88 284.888 284.834 284.802 284.749 284.789 285.098 285.439 285.374 285.328 285.606 285.515 285.384 285.315 285.275 285.252 285.196 285.18 285.201 285.238 285.259 285.303 285.35 285.33 285.266 285.165 285.122 285.047 285.022 285.012 285.025 285.037 285.035 284.977 284.962 284.935 284.892 284.887 284.827 284.717 284.707 284.837 284.907 284.76 284.692 284.672 284.64 284.612 284.585 284.615 284.725 284.855 285.097 285.342 285.672 286.025 286.34 286.58 286.83 287.12 287.387 287.547 287.71 288.41 288.03 288.047 288.11 288.165 288.21 288.242 288.26 288.242 288.202 288.24 288.432 288.917 288.72 288.712 289.02 289.1 289.007 289.402 289.685 290.07 290.345 290.455 290.537 290.71 290.792 290.847 291.245 291.64 291.935 292.197 292.36 292.442 292.595 292.772 292.79 292.865 292.97 293.062 293.137 293.235 293.42 293.805 294.465 295.28 296.04 296.3 296.695 297.052 297.245 297.38 297.545 297.732 297.922 298.207 298.63 298.94 299.067 299.115 299.1 299.08 299.182 299.307 299.312 299.107 298.802 298.955 299.422 299.71 300.17 300.64 301.042 301.26 301.63 301.89 302.085 302.285 302.637 303.307 303.09 303.562 304.73 305.257 305.765 305.987 306.23 306.485 306.652 306.852 307.032 307.215 307.43 307.89 308.192 308.5 308.852 309.087 309.577 310.4 311.215 311.762 312.237 312.745 313.637 314.475 314.92 315.557 316.277 316.78 317.192 317.702 318.347 319.12 319.875 320.842 321.03 321.447 321.872 322.425 323.072 323.962 324.947 325.987 326.74 327.205 327.585 328.05 328.655 329.185 329.662 330.452 331.42 332.32 333.255 333.935 334.69 335.465 336.102 336.762 337.247 337.83 338.142 338.66 338.982 339.63 340.415 341.12 341.865 342.21 342.197 342.402 342.662 342.882 343.397 343.659 344.142 344.754 345.637 346.854 347.927 348.882 349.892 350.942 352.169 353.424 354.277 355.259 356.217 357.047 357.792 358.612 359.404 360.159 360.994 362.172 363.319 364.417 365.247 365.937 366.467 366.537 366.374 367.077 368.237 369.234 369.857 370.372 370.972 371.429 371.659 372.424 373.497 374.824 375.942 376.669 377.239 377.857 378.552 379.332 380.044 380.502 380.174 379.967 380.034 380.352 380.964 381.712 382.502 383.219 383.612 383.909 384.002 384.062 384.237 384.742 385.252 385.342 385.404 385.589 385.599 385.697 385.752 385.887 386.307 386.872
296.21 296.318 296.47 296.525 296.593 296.61 296.613 296.603 296.545 296.503 296.298 295.765 295.128 294.393 294.083 293.945 293.453 292.91 292.655 292.445 292.253 292.128 291.973 291.778 291.615 291.43 291.24 291.105 291.03 290.913 290.738 290.483 290.17 289.985 289.813 289.563 289.318 289.145 289.023 288.92 288.78 288.74 288.733 288.698 288.625 288.555 288.52 288.465 288.415 288.383 288.38 288.353 288.325 288.245 287.94 287.59 286.89 286.19 286.15 286.215 286.243 286.265 286.268 286.388 286.44 286.495 286.468 286.318 286.218 286.128 286.035 286.025 286.083 286.075 285.738 285.583 285.695 285.735 285.775 285.798 285.774 285.753 285.629 285.694 285.733 285.747 285.722 285.663 285.567 285.265 285.214 284.942 284.922 284.811 284.7 284.715 284.921 285.207 285.357 285.155 285.697 285.676 285.646 285.649 285.199 285.247 285.177 285.132 285.131 285.165 285.201 285.293 285.302 285.233 285.167 285.132 285.092 285.035 284.99 284.952 284.945 284.935 284.932 284.93 284.95 284.982 285.015 284.965 284.825 284.77 284.865 284.71 284.707 284.705 284.672 284.612 284.575 284.587 284.57 284.565 284.592 284.635 284.772 285.05 285.377 285.757 286.112 286.362 286.622 286.892 287.132 287.53 287.882 287.705 287.752 287.875 287.987 288.002 288.07 288.142 288.162 288.127 288.082 288.057 288.137 288.377 288.73 288.682 288.725 289.14 288.94 289.33 289.625 289.907 290.112 290.202 290.267 290.342 290.507 291.07 291.422 291.685 291.905 292.222 292.32 292.317 292.42 292.555 292.63 292.765 292.817 292.91 293.052 293.157 293.28 293.407 293.802 294.695 295.372 295.84 296.315 296.67 296.84 297.007 297.22 297.465 297.692 297.985 298.375 298.64 298.735 298.792 298.915 298.872 298.797 298.507 298.205 298.032 298.055 298.357 298.84 299.347 299.8 300.272 300.56 300.762 300.997 301.152 301.532 302.17 302.34 302.247 302.775 303.54 304.28 305.035 305.527 305.79 305.977 306.167 306.29 306.435 306.615 306.697 306.852 307.185 307.652 308.142 308.57 308.84 309.237 310.095 310.832 311.302 311.927 312.52 313.17 313.895 314.355 315.012 315.6 316.115 316.635 317.212 317.98 318.757 320.022 320.105 320.54 321.08 321.567 322.017 322.732 323.535 324.522 325.595 326.327 326.827 327.035 327.445 328.067 328.672 329.362 330.215 331.137 331.912 332.757 333.41 334.137 334.76 335.552 336.062 336.617 337.21 337.745 338.13 338.502 338.972 339.62 340.542 341.025 340.905 341.095 341.53 341.917 342.479 342.954 343.322 343.834 344.489 345.089 345.932 346.927 348.229 349.549 350.722 351.869 352.969 353.862 354.632 355.494 356.299 356.944 357.607 358.499 359.389 360.602 361.914 362.922 364.032 365.049 365.459 365.659 365.649 366.019 367.317 368.392 369.137 369.627 370.342 370.647 370.832 371.429 372.312 373.552 374.717 375.742 376.379 376.802 377.409 378.202 378.992 379.677 379.999 379.779 379.507 379.612 380.074 380.617 381.269 381.974 382.504 382.902 383.134 383.224 383.262 383.349 383.699 384.114 384.297 384.452 384.777 384.852 384.897 384.969 385.277 385.792 386.494
296.025 296.135 296.238 296.373 296.473 296.545 296.565 296.565 296.533 296.325 296.02 295.403 294.858 294.308 293.848 293.72 293.35 292.775 292.58 292.363 292.19 292.048 291.923 291.765 291.63 291.515 291.36 291.16 291.01 290.848 290.703 290.573 290.23 290.013 289.83 289.588 289.35 289.138 289.023 288.913 288.808 288.798 288.75 288.695 288.64 288.575 288.535 288.498 288.433 288.385 288.388 288.338 288.335 288.245 287.938 287.43 286.863 286.145 286.145 286.18 286.19 286.208 286.285 286.368 286.385 286.418 286.428 286.408 286.35 286.29 286.208 286.065 285.96 285.95 285.865 285.525 285.433 285.45 285.508 285.596 285.606 285.584 285.576 285.496 285.492 285.675 285.655 285.685 285.688 285.653 285.596 285.504 285.339 284.83 284.756 284.76 284.707 284.676 284.733 284.926 285.268 286.654 287.646 288.041 286.816 285.384 285.184 285.133 285.109 285.126 285.161 285.185 285.166 285.154 285.114 285.1 285.085 285.035 284.96 284.905 284.847 284.785 284.805 284.86 284.927 285.012 284.985 284.895 284.87 284.93 284.79 284.707 284.625 284.592 284.575 284.55 284.527 284.527 284.527 284.512 284.527 284.507 284.532 284.785 285.132 285.48 285.83 286.135 286.402 286.647 287.29 287.437 287.335 287.465 287.582 287.737 287.822 287.847 287.892 287.942 287.992 287.962 287.887 287.91 287.987 288.162 288.48 288.697 288.705 288.825 289.15 289.135 289.435 289.587 289.64 289.72 289.902 290.305 290.852 291.212 291.405 291.555 291.747 292.085 292.222 292.265 292.262 292.292 292.405 292.532 292.595 292.645 292.767 292.92 293.075 293.172 293.4 293.922 294.675 295.397 295.94 296.392 296.59 296.78 297.02 297.277 297.437 297.587 297.942 298.247 298.31 298.38 298.46 298.385 298.092 297.722 297.472 297.435 297.67 297.97 298.305 298.732 299.145 299.572 299.935 300.23 300.797 301.285 301.262 301.287 301.552 302.012 302.682 303.397 303.89 304.752 305.232 305.5 305.68 305.825 305.907 305.992 306.21 306.292 306.547 306.905 307.275 307.732 308.167 308.632 308.955 309.497 310.265 310.902 311.382 312.045 312.927 313.445 313.892 314.52 315.015 315.642 316.292 316.825 317.72 318.45 318.97 319.582 320.23 320.757 321.205 321.852 322.44 323.23 324.09 324.955 325.487 326.1 326.547 327.032 327.67 328.365 329.04 329.727 330.497 331.31 332.122 332.747 333.402 334.077 334.862 335.48 336.045 336.645 337.215 337.597 337.962 338.405 339.162 340.232 340.49 340.35 340.635 341.232 341.772 342.209 342.629 343.169 343.772 344.367 344.799 345.497 346.442 347.907 349.157 350.472 351.689 352.414 353.112 353.872 354.662 355.354 355.812 356.679 357.612 358.764 360.329 361.862 362.832 363.729 364.337 364.454 364.537 364.904 366.044 367.304 368.352 369.312 369.394 369.752 370.097 370.639 371.359 372.144 373.104 374.177 375.244 375.729 376.302 376.987 377.797 378.459 378.954 379.192 379.119 378.857 379.042 379.539 380.074 380.657 381.209 381.732 382.022 382.192 382.274 382.352 382.452 382.829 383.232 383.392 383.492 383.789 384.039 384.184 384.342 384.724 385.354 386.232
295.83 295.97 296.083 296.205 296.3 296.353 296.418 296.373 296.275 295.873 295.305 294.73 294.313 293.795 293.295 293.108 292.87 292.638 292.495 292.308 292.085 291.963 291.858 291.71 291.593 291.46 291.345 291.2 291.038 290.86 290.715 290.588 290.205 290.003 289.805 289.57 289.328 289.138 289.068 288.99 288.868 288.793 288.778 288.715 288.64 288.6 288.543 288.518 288.443 288.388 288.383 288.335 288.293 288.21 287.9 287.35 286.945 286.118 286.098 286.148 286.153 286.17 286.235 286.31 286.353 286.388 286.37 286.363 286.333 286.298 286.285 286.225 286.123 286.143 286.165 285.985 285.695 285.408 285.295 285.224 285.248 285.24 285.194 285.244 285.292 285.287 285.291 285.289 285.401 285.346 285.371 285.333 285.205 284.9 284.799 284.745 284.638 284.531 284.712 284.807 284.904 285.485 288.356 288.739 288.206 285.722 285.263 285.155 285.139 285.137 285.095 285.125 285.13 285.115 285.107 285.085 285.057 285.032 284.962 284.845 284.765 284.727 284.772 284.855 284.925 284.932 284.86 284.917 284.995 284.83 284.745 284.68 284.652 284.615 284.542 284.477 284.485 284.47 284.462 284.472 284.5 284.467 284.42 284.557 284.845 285.225 285.567 285.895 286.182 286.795 286.815 286.885 287.1 287.282 287.42 287.53 287.607 287.65 287.695 287.68 287.632 287.585 287.612 287.717 287.875 288.075 288.332 288.725 288.655 288.677 288.945 289.04 288.985 289.187 289.342 289.81 290.38 290.807 291.162 291.337 291.417 291.44 291.57 291.785 292.032 292.167 292.112 292.117 292.192 292.292 292.407 292.47 292.565 292.697 292.862 292.957 293.182 293.57 294.142 294.917 295.532 296.077 296.41 296.627 296.885 297.04 296.937 296.885 297.217 297.535 297.57 297.672 297.66 297.477 297.1 296.64 296.55 296.8 297.192 297.627 298.007 298.425 298.75 299.125 299.782 300.117 300.125 300.215 300.527 300.825 301.18 301.875 302.45 303.272 303.632 304.362 304.887 305.15 305.327 305.457 305.497 305.567 305.785 306.017 306.29 306.607 306.93 307.217 307.752 308.35 308.912 309.21 309.842 310.392 310.947 311.595 312.275 312.882 313.462 314.07 314.57 315.2 315.792 316.51 317.217 317.82 318.477 319.072 319.67 320.182 320.757 321.387 322.08 322.747 323.485 324.177 324.86 325.42 325.96 326.5 327.22 327.86 328.46 329.137 329.8 330.642 331.427 332.192 332.995 333.692 334.345 334.927 335.645 336.232 336.75 337.202 337.652 338.147 338.945 339.662 339.795 339.94 340.305 340.797 341.309 341.804 342.349 342.899 343.489 344.032 344.587 345.507 346.717 347.972 349.234 350.467 351.214 351.762 352.437 352.969 353.574 354.169 354.844 356.044 357.382 358.619 360.347 361.684 362.429 362.827 363.014 363.237 364.009 365.029 366.082 366.969 368.004 368.464 368.992 369.407 369.839 370.537 371.307 371.982 372.612 373.509 374.392 375.047 375.839 376.599 377.297 377.779 378.142 378.424 378.394 378.214 378.462 378.959 379.454 379.907 380.349 380.754 381.079 381.294 381.467 381.569 381.609 381.887 382.239 382.519 382.757 383.019 383.272 383.419 383.699 384.197 385.112 385.867
295.72 295.835 295.928 296.058 296.085 296.123 296.143 295.965 295.545 295.218 294.755 294.29 293.8 293.318 292.968 292.8 292.68 292.515 292.365 292.233 292.06 291.91 291.768 291.643 291.503 291.35 291.223 291.103 291.008 290.92 290.765 290.485 290.173 290.013 289.815 289.575 289.368 289.248 289.155 289.058 288.913 288.798 288.79 288.735 288.673 288.62 288.55 288.515 288.45 288.363 288.363 288.318 288.253 288.183 287.853 287.273 287.158 286.123 286.063 286.05 286.093 286.188 286.233 286.293 286.33 286.35 286.32 286.3 286.273 286.258 286.218 286.19 286.13 286.098 286.085 286.038 286.063 286.015 285.9 285.824 285.734 285.497 285.343 285.202 285.16 285.193 285.188 285.082 285.11 285.03 285.073 285.043 284.978 284.906 284.811 284.663 284.514 284.441 284.478 284.514 284.687 284.627 285.48 287.457 286.163 284.859 285.096 285.235 285.642 285.32 285.132 285.085 285.075 285.085 285.092 285.04 285.005 284.93 284.912 284.81 284.747 284.752 284.79 284.852 284.87 284.792 284.85 284.99 284.862 284.8 284.722 284.675 284.635 284.62 284.575 284.532 284.472 284.432 284.42 284.437 284.437 284.427 284.365 284.432 284.632 284.962 285.307 285.73 286.37 286.33 286.36 286.682 286.91 287.07 287.205 287.302 287.302 287.337 287.302 287.237 287.257 287.327 287.455 287.657 287.837 288.017 288.245 288.595 288.982 288.652 288.675 289.192 289.095 289.085 289.082 289.45 289.865 290.332 290.847 291.232 291.46 291.422 291.48 291.57 291.715 291.812 291.87 291.935 291.975 292.092 292.192 292.26 292.395 292.497 292.665 292.862 293.045 293.282 293.62 294.16 294.75 295.222 295.78 296.175 296.355 296.29 295.827 295.832 296.08 296.42 296.595 296.695 296.55 296.262 296.052 295.985 296.152 296.352 296.682 297.055 297.47 297.982 298.817 299.077 299.032 299.225 299.517 299.775 300.06 300.375 300.942 301.637 302.122 303.175 303.535 304.08 304.525 304.772 304.93 305.067 305.097 305.165 305.312 305.68 305.985 306.36 306.6 307.01 307.485 308.097 308.657 308.982 309.432 309.99 310.627 311.15 311.692 312.22 312.952 313.675 314.21 314.845 315.495 316.212 316.612 317.135 317.885 318.505 319.065 319.585 320.237 320.817 321.497 322.157 322.777 323.41 324.147 324.735 325.355 325.93 326.55 327.36 328.005 328.675 329.372 330.142 330.962 331.797 332.542 333.097 333.962 334.527 335.137 335.75 336.28 336.862 337.237 337.772 338.367 338.882 339.332 339.555 339.917 340.28 340.802 341.287 341.919 342.814 343.454 343.794 344.579 345.674 346.657 347.654 348.732 349.729 350.337 350.839 351.449 351.984 352.629 353.464 354.459 355.937 357.534 358.704 359.849 360.819 361.532 361.562 362.234 363.317 364.259 365.029 365.749 366.584 367.412 368.094 368.582 369.022 369.549 370.247 371.052 371.667 372.237 372.907 373.602 374.369 375.232 376.009 376.624 377.012 377.377 377.649 377.647 377.634 377.882 378.269 378.652 379.029 379.407 379.769 380.182 380.312 380.474 380.569 380.552 380.929 381.462 381.809 382.072 382.347 382.567 382.929 383.284 383.864 384.847 385.539
295.6 295.72 295.795 295.885 295.903 295.743 295.56 295.26 294.935 294.515 294.103 293.688 293.255 293.003 292.833 292.668 292.585 292.438 292.283 292.135 292.025 291.89 291.713 291.56 291.43 291.285 291.14 291.07 290.96 290.838 290.638 290.4 290.188 290.013 289.783 289.535 289.413 289.335 289.25 289.148 289.005 288.885 288.813 288.765 288.69 288.64 288.565 288.505 288.445 288.403 288.35 288.263 288.153 288.03 287.745 287.228 287.108 286.055 285.965 286.075 286.115 286.19 286.225 286.25 286.303 286.298 286.28 286.24 286.233 286.215 286.168 286.128 286.078 286.05 286.028 286.005 286.018 286.043 286.075 286.038 286.044 286.015 285.894 285.79 285.657 285.367 285.386 285.208 285.122 285.097 285.048 285.031 284.957 284.883 284.849 284.838 284.884 284.711 284.512 284.415 284.516 284.563 284.662 285.509 285.144 284.782 284.797 284.827 285.062 285.265 285.281 285.254 285.106 285.065 285.013 284.99 284.962 284.93 284.907 284.855 284.825 284.81 284.802 284.777 284.737 284.767 284.812 284.792 284.755 284.727 284.727 284.667 284.62 284.585 284.572 284.55 284.485 284.425 284.387 284.362 284.375 284.37 284.332 284.342 284.472 284.785 285.4 285.642 285.625 285.88 286.097 286.347 286.637 286.825 286.9 286.912 286.827 286.815 286.877 287.007 287.142 287.27 287.4 287.545 287.747 287.887 288.082 288.272 288.457 288.85 288.625 288.69 289.125 288.745 288.722 288.867 289.21 289.897 290.632 291.102 291.415 291.45 291.412 291.44 291.502 291.607 291.68 291.76 291.802 291.895 291.955 292.032 292.147 292.365 292.51 292.697 292.897 293.105 293.337 293.512 293.755 294.292 294.765 295.05 295.217 294.877 294.71 294.77 294.945 295.172 295.377 295.47 295.447 295.45 295.56 295.697 295.87 296.092 296.375 297.06 297.595 297.83 297.84 298.07 298.415 298.762 299.085 299.365 299.6 300.102 300.92 301.477 301.917 302.952 303.51 303.797 304.162 304.405 304.522 304.615 304.622 304.782 305.025 305.215 305.637 306.02 306.295 306.7 307.102 307.517 308.002 308.487 308.982 309.392 310.117 310.665 311.335 311.842 312.47 313.21 313.805 314.435 315.39 315.352 316.12 316.68 317.192 317.935 318.475 319.085 319.74 320.33 320.842 321.487 322.182 322.905 323.585 324.207 324.847 325.51 326.245 327.08 327.665 328.332 328.987 329.747 330.495 331.34 332.042 332.78 333.315 333.832 334.475 335.112 335.647 336.17 336.76 337.402 337.912 338.447 338.787 339.057 339.352 339.65 340.152 340.887 341.672 342.517 343.052 343.602 344.464 345.457 346.382 347.134 347.942 348.522 349.029 349.539 350.119 350.632 351.404 352.347 353.739 355.242 356.687 357.787 358.824 359.529 359.852 360.942 362.329 363.399 363.909 364.794 365.549 366.179 367.004 367.619 368.059 368.429 368.907 369.574 370.477 371.162 371.659 372.159 372.847 373.657 374.522 375.24 375.667 376.074 376.457 376.664 376.712 376.884 377.214 377.539 377.817 378.072 378.359 378.709 379.084 379.142 379.327 379.534 379.604 380.064 380.729 381.204 381.464 381.682 381.954 382.387 383.142 383.917 384.582 385.192
295.538 295.605 295.62 295.565 295.353 295.11 294.933 294.605 294.218 293.938 293.545 293.208 293.013 292.825 292.718 292.613 292.483 292.358 292.23 292.118 291.958 291.803 291.67 291.538 291.38 291.255 291.155 291.06 290.855 290.693 290.575 290.39 290.193 290.04 289.78 289.595 289.515 289.398 289.325 289.275 289.095 288.93 288.848 288.78 288.745 288.663 288.573 288.508 288.43 288.395 288.335 288.255 288.18 288.05 287.785 287.248 287.073 286.085 285.975 286.075 286.118 286.158 286.195 286.245 286.253 286.24 286.23 286.195 286.158 286.13 286.08 286.07 286.025 286.033 286.028 286.03 286.003 285.995 286.02 286.008 286.004 286.007 285.915 285.868 285.815 285.71 285.679 285.575 285.46 285.419 285.32 285.151 285.204 285.07 285.099 285.079 284.962 284.891 284.873 284.413 284.446 284.4 284.531 284.601 284.702 284.716 284.676 284.703 284.654 284.877 284.878 285.036 285.328 285.339 285.05 284.972 284.955 284.94 284.922 284.907 284.9 284.822 284.717 284.737 284.755 284.722 284.725 284.725 284.712 284.71 284.665 284.595 284.577 284.55 284.527 284.485 284.462 284.43 284.38 284.342 284.332 284.33 284.31 284.282 284.607 284.96 284.977 285.047 285.335 285.625 285.84 285.975 286.23 286.47 286.472 286.377 286.377 286.532 286.75 286.912 287.075 287.232 287.38 287.53 287.715 287.862 288 288.17 288.362 289.022 288.715 288.617 288.717 289.017 288.642 288.747 288.997 289.607 290.372 290.927 291.247 291.277 291.262 291.28 291.3 291.36 291.417 291.567 291.67 291.775 291.817 291.877 291.995 292.207 292.37 292.517 292.742 292.837 292.947 293.085 293.267 293.432 293.707 293.912 294.04 294.145 294.242 294.347 294.475 294.615 294.785 294.907 295.035 295.147 295.327 295.462 295.687 296.207 296.485 296.717 296.747 296.997 297.227 297.52 297.855 298.23 298.6 298.895 299.442 300.185 300.85 301.417 301.975 302.375 303.56 303.557 303.762 304.025 304.135 304.185 304.307 304.557 304.765 304.915 305.255 305.692 305.925 306.287 306.76 307.212 307.565 308.005 308.415 308.927 309.705 310.337 310.91 311.492 312.045 312.717 313.467 314.192 314.465 314.867 315.467 316.17 316.702 317.212 317.907 318.607 319.197 319.765 320.377 321.025 321.72 322.485 323.157 323.785 324.467 325.19 325.885 326.592 327.275 327.912 328.615 329.265 329.88 330.717 331.477 332.137 332.655 333.18 333.815 334.53 335.09 335.66 336.39 337.077 337.577 337.885 338.102 338.527 338.902 339.017 339.329 340.067 340.777 341.757 342.417 343.127 343.992 344.932 345.794 346.407 346.804 347.162 347.514 348.267 348.999 349.507 350.599 351.504 352.694 354.112 355.467 356.412 357.374 358.034 359.129 360.987 362.132 363.197 363.857 364.059 364.812 365.667 366.432 367.007 367.464 367.982 368.357 368.807 369.604 370.374 370.992 371.557 372.134 372.874 373.672 374.264 374.672 375.074 375.439 375.664 375.749 375.999 376.334 376.632 376.872 377.034 377.327 377.697 377.904 377.949 378.202 378.502 378.842 379.497 380.177 380.589 380.847 381.082 381.482 382.184 383.014 383.647 384.302 384.857
295.405 295.305 295.155 294.99 294.723 294.44 294.23 293.97 293.72 293.453 293.228 293.033 292.903 292.778 292.638 292.53 292.403 292.28 292.13 292.023 291.865 291.723 291.558 291.5 291.348 291.24 291.125 290.92 290.773 290.643 290.528 290.363 290.185 289.988 289.763 289.623 289.55 289.425 289.34 289.305 289.118 288.973 288.88 288.815 288.753 288.653 288.603 288.533 288.46 288.418 288.358 288.298 288.218 288.133 287.94 287.34 287.098 286.098 285.933 285.953 286.08 286.123 286.168 286.193 286.208 286.19 286.135 286.148 286.105 286.085 286.038 286.005 286 285.998 285.97 285.993 285.945 285.953 285.983 285.963 285.963 285.948 285.909 285.882 285.815 285.754 285.72 285.768 285.791 285.79 285.809 285.757 285.712 285.604 285.567 285.483 285.388 285.392 285.311 285.176 285.129 284.898 284.562 284.637 284.732 284.729 284.653 284.7 284.719 284.903 284.929 284.839 284.854 285.214 285.333 285.04 284.982 284.967 284.97 284.967 284.892 284.812 284.767 284.782 284.732 284.695 284.652 284.63 284.652 284.662 284.655 284.602 284.572 284.53 284.485 284.457 284.422 284.395 284.355 284.325 284.29 284.295 284.327 284.745 284.67 284.517 284.69 284.917 285.12 285.407 285.692 285.82 285.905 286.03 286.057 286.115 286.275 286.5 286.69 286.855 287.02 287.177 287.3 287.49 287.675 287.79 287.915 288.092 288.302 288.475 288.745 288.605 288.615 289.167 288.865 288.957 289.037 289.437 290.147 290.717 290.995 291.075 291.112 291.177 291.185 291.17 291.205 291.302 291.44 291.615 291.677 291.732 291.847 292.017 292.192 292.365 292.472 292.497 292.62 292.782 292.96 293.13 293.33 293.525 293.735 293.927 294.055 294.162 294.27 294.427 294.55 294.677 294.82 294.982 295.157 295.615 295.8 295.887 295.927 296.19 296.425 296.655 296.86 297.137 297.475 297.887 298.12 298.557 299.46 300.265 300.785 301.387 301.977 302.317 302.722 303.68 303.745 303.737 303.755 303.812 304.162 304.425 304.612 304.735 305.082 305.537 305.742 305.975 306.397 306.73 307.085 307.48 308.002 308.642 309.477 310.055 310.477 311.025 311.545 312.34 313.5 313.465 314.252 314.432 314.975 315.565 316.29 316.61 317.387 318.062 318.625 319.285 319.98 320.655 321.375 322.07 322.712 323.382 324.12 324.827 325.475 326.152 326.835 327.542 328.105 328.692 329.405 330.165 330.85 331.477 331.965 332.472 333.092 333.987 334.645 335.297 335.735 336.54 336.935 337.392 337.617 337.955 338.435 338.64 338.724 339.044 339.839 341.009 341.847 342.714 343.567 344.289 344.964 345.532 345.772 345.952 346.574 347.517 348.784 350.057 351.464 352.569 353.334 354.229 354.974 355.544 356.469 357.744 359.429 361.107 362.154 362.672 363.152 363.894 364.589 365.304 365.832 366.124 366.607 367.292 367.857 368.287 369.017 369.774 370.539 371.079 371.592 372.142 372.724 373.164 373.537 374.009 374.402 374.657 374.804 375.044 375.357 375.674 375.857 376.044 376.387 376.682 376.689 376.849 377.229 377.599 378.254 379.042 379.637 380.069 380.309 380.547 381.069 381.787 382.542 383.287 384.017 384.502
294.97 294.748 294.525 294.368 294.098 293.89 293.728 293.545 293.378 293.21 293.06 292.945 292.845 292.713 292.593 292.455 292.308 292.218 292.06 291.903 291.77 291.66 291.528 291.455 291.283 291.138 291.015 290.878 290.76 290.628 290.523 290.383 290.178 289.983 289.85 289.715 289.618 289.503 289.365 289.263 289.153 289.03 288.925 288.84 288.758 288.71 288.665 288.595 288.535 288.458 288.385 288.353 288.293 288.22 288.013 287.418 287.083 286.148 285.873 285.978 286.085 286.135 286.153 286.158 286.178 286.12 286.083 286.07 286.053 286.028 285.993 285.963 285.945 285.968 285.97 285.913 285.878 285.893 285.945 285.935 285.948 285.916 285.846 285.809 285.757 285.719 285.682 285.658 285.684 285.712 285.752 285.691 285.666 285.653 285.629 285.562 285.533 285.469 285.404 285.319 285.297 285.31 285.284 285.176 285.11 284.999 284.836 284.716 284.726 284.878 284.935 284.95 284.885 284.668 284.781 285.27 285.03 284.932 284.955 284.89 284.845 284.825 284.83 284.797 284.712 284.657 284.62 284.605 284.602 284.605 284.612 284.587 284.532 284.5 284.475 284.417 284.367 284.357 284.35 284.305 284.277 284.295 284.617 284.64 284.355 284.542 284.702 284.87 285.012 285.247 285.517 285.662 285.8 285.92 285.977 286.09 286.242 286.462 286.605 286.752 286.907 287.085 287.242 287.44 287.617 287.732 287.862 288.057 288.217 288.355 288.53 288.9 288.545 288.597 289.12 289.132 289.267 289.512 290.025 290.567 290.875 290.957 291.03 291.035 291.022 291.065 291.075 291.142 291.262 291.447 291.557 291.632 291.725 291.875 292.017 292.082 292.11 292.21 292.4 292.6 292.762 292.942 293.132 293.322 293.53 293.72 293.835 293.985 294.105 294.26 294.387 294.522 294.677 295.105 295.28 295.25 295.307 295.497 295.692 295.93 296.155 296.352 296.58 296.892 297.222 297.567 297.71 298.345 299.485 300.242 300.782 301.315 301.845 302.205 302.525 302.86 303.327 303.727 303.655 303.675 303.945 304.317 304.382 304.542 304.867 305.245 305.48 305.7 306.115 306.392 306.785 307.252 307.795 308.482 309.137 309.595 310.107 310.667 311.26 312.122 312.45 312.937 313.685 314.037 314.562 315.1 315.722 316.182 316.692 317.47 318.13 318.782 319.545 320.252 320.86 321.56 322.222 322.925 323.622 324.3 325.01 325.622 326.255 326.957 327.627 328.345 329.032 329.652 330.195 330.74 331.235 331.855 332.555 333.335 334.025 334.552 334.98 335.6 336.007 336.542 337.157 337.647 338.05 338.33 338.354 338.539 339.152 340.314 341.337 342.189 342.979 343.562 343.979 344.299 344.644 345.547 346.859 348.104 349.534 351.067 352.544 353.582 354.379 355.364 356.204 356.892 357.774 358.832 359.772 360.892 361.534 362.117 362.615 363.507 364.202 364.714 365.114 365.374 365.832 366.437 366.99 367.757 368.522 369.212 370.087 370.557 371.084 371.632 372.067 372.404 372.694 372.959 373.329 373.597 373.824 374.059 374.282 374.572 374.887 375.224 375.389 375.532 375.619 375.939 376.302 377.004 377.802 378.579 379.212 379.514 379.774 380.149 380.739 381.312 381.987 382.842 383.559 384.052
294.338 294.14 293.983 293.835 293.643 293.548 293.433 293.335 293.245 293.128 292.995 292.868 292.758 292.625 292.493 292.353 292.228 292.095 291.955 291.823 291.685 291.573 291.515 291.415 291.225 291.06 290.965 290.893 290.725 290.578 290.48 290.365 290.185 290.07 289.94 289.798 289.668 289.543 289.378 289.28 289.165 289.068 288.953 288.888 288.815 288.773 288.723 288.655 288.568 288.473 288.423 288.37 288.338 288.27 288.09 287.54 287.09 286.353 285.833 285.915 286.025 286.108 286.12 286.11 286.108 286.035 286.07 285.975 286 285.995 285.953 285.915 285.895 285.918 285.905 285.888 285.85 285.85 285.893 285.893 285.903 285.893 285.818 285.761 285.72 285.704 285.662 285.595 285.584 285.598 285.648 285.651 285.627 285.636 285.611 285.599 285.553 285.485 285.423 285.352 285.363 285.319 285.261 285.12 285.043 285.059 285.027 284.857 284.835 284.807 284.884 284.928 284.986 284.939 284.725 284.612 285.192 285.077 284.91 284.887 284.882 284.84 284.84 284.772 284.705 284.662 284.662 284.63 284.585 284.567 284.53 284.53 284.52 284.49 284.457 284.4 284.362 284.32 284.347 284.342 284.41 284.732 284.405 284.3 284.425 284.55 284.73 284.847 284.985 285.185 285.372 285.525 285.677 285.785 285.902 286.025 286.177 286.362 286.472 286.64 286.83 286.965 287.182 287.375 287.56 287.737 287.885 287.97 288.067 288.185 288.267 288.642 288.595 288.507 288.765 289.027 289.137 289.347 289.7 290.132 290.512 290.757 290.835 290.85 290.895 290.885 290.91 291.005 291.12 291.285 291.38 291.445 291.51 291.607 291.67 291.747 291.85 291.967 292.187 292.382 292.587 292.782 292.96 293.155 293.342 293.522 293.685 293.817 293.97 294.09 294.27 294.615 294.91 294.697 294.807 294.965 295.112 295.287 295.485 295.697 295.932 296.14 296.392 296.67 296.972 297.255 297.425 298.235 299.36 300.142 300.672 301.12 301.512 301.94 302.337 302.552 302.72 302.847 303.072 304.2 304.87 304.537 304.962 304.697 304.567 304.855 305.197 305.457 305.885 306.112 306.467 306.957 307.555 308.237 308.8 309.297 309.792 310.607 310.902 311.487 312.13 312.657 313.397 313.805 314.252 314.71 315.257 315.88 316.372 317.055 317.86 318.512 319.165 319.822 320.405 321.067 321.765 322.477 323.202 323.79 324.472 325.045 325.735 326.46 327.125 327.845 328.545 329.127 329.587 330.077 330.707 331.46 332.29 332.902 333.465 333.965 334.552 335.007 335.445 335.957 336.637 337.235 337.66 337.862 338.034 338.199 338.757 339.787 340.732 341.207 341.522 342.084 342.549 343.204 344.324 345.684 346.967 348.307 349.599 351.034 352.254 353.064 354.104 355.429 356.584 357.627 358.362 358.994 359.669 360.327 360.68 361.219 361.784 362.579 363.309 363.869 364.294 364.609 365.067 365.592 366.259 367.087 367.762 368.537 369.422 369.879 370.439 370.967 371.317 371.579 371.824 371.909 372.209 372.489 372.684 372.874 373.069 373.344 373.587 374.002 374.299 374.512 374.734 375.052 375.652 376.634 377.419 378.174 378.657 378.747 379.144 379.754 380.244 380.789 381.504 382.259 382.869 383.357
293.833 293.675 293.573 293.528 293.455 293.365 293.333 293.19 293.123 293.045 292.933 292.798 292.658 292.518 292.383 292.21 292.11 292 291.888 291.76 291.643 291.565 291.46 291.328 291.168 291.03 290.915 290.835 290.708 290.545 290.455 290.37 290.268 290.118 289.91 289.758 289.635 289.533 289.383 289.263 289.188 289.068 288.983 288.895 288.858 288.815 288.76 288.648 288.575 288.523 288.443 288.37 288.348 288.295 288.143 287.645 287.1 286.748 285.89 285.853 285.915 286.053 286.055 286.075 286.105 286.103 286.085 286.018 286.018 285.968 285.928 285.885 285.86 285.863 285.845 285.865 285.858 285.845 285.843 285.868 285.863 285.883 285.813 285.755 285.709 285.641 285.65 285.603 285.529 285.47 285.512 285.569 285.556 285.57 285.579 285.592 285.562 285.475 285.395 285.336 285.419 285.373 285.295 285.172 285.163 285.051 285.026 285.012 284.887 284.82 284.821 284.871 284.971 285.053 285.031 284.78 284.522 284.707 285.467 285.237 284.97 284.88 284.84 284.777 284.72 284.675 284.635 284.6 284.585 284.535 284.465 284.49 284.49 284.482 284.445 284.405 284.342 284.332 284.392 284.647 284.61 284.26 284.3 284.355 284.495 284.62 284.752 284.882 284.997 285.15 285.305 285.44 285.582 285.685 285.807 285.945 286.092 286.23 286.412 286.582 286.717 286.907 287.13 287.37 287.585 287.715 287.79 287.855 287.9 287.977 288.227 288.33 288.69 288.54 288.497 288.885 289.005 289.082 289.32 289.622 289.95 290.265 290.432 290.57 290.685 290.737 290.775 290.842 290.897 290.907 290.947 291.027 291.112 291.207 291.357 291.482 291.647 291.845 292.035 292.21 292.377 292.575 292.795 293.015 293.192 293.372 293.54 293.677 293.962 294.49 294.487 294.257 294.337 294.487 294.64 294.797 294.957 295.132 295.32 295.495 295.712 295.95 296.212 296.505 296.76 297.045 297.265 298.232 299.165 299.902 300.415 300.812 301.165 301.532 301.935 302.255 302.425 302.567 302.707 303.027 303.915 305.075 305.742 305.325 304.687 304.857 305.005 305.177 305.512 305.94 306.347 306.877 307.685 308.24 308.657 309.192 309.925 310.41 310.777 311.28 311.927 312.457 312.907 313.642 314 314.38 315.117 315.737 316.317 316.897 317.677 318.332 318.892 319.51 320.035 320.675 321.397 322.062 322.707 323.315 323.925 324.55 325.242 325.835 326.502 327.202 327.84 328.472 329.082 329.64 330.245 331.1 331.705 332.282 332.832 333.28 333.96 334.455 334.97 335.517 336.032 336.545 337.017 337.365 337.497 337.602 338.114 339.232 339.622 339.599 340.444 341.052 342.184 343.752 344.682 345.587 346.552 347.869 349.082 350.287 351.529 352.49 353.499 354.897 356.142 357.104 357.657 358.267 358.984 359.462 359.659 359.957 360.472 361.132 361.807 362.444 363.102 363.747 364.134 364.764 365.402 366.179 366.919 367.724 368.547 369.029 369.689 370.224 370.552 370.662 370.827 370.897 371.062 371.269 371.412 371.614 371.862 372.179 372.482 372.857 373.244 373.529 373.879 374.407 375.289 376.237 377.022 377.559 377.837 378.162 378.719 379.314 379.644 380.219 380.934 381.717 382.187 382.602
293.513 293.455 293.395 293.353 293.318 293.283 293.215 293.13 293.073 292.96 292.865 292.725 292.59 292.423 292.308 292.18 292.073 291.995 291.898 291.773 291.67 291.543 291.418 291.27 291.123 290.983 290.888 290.783 290.673 290.563 290.478 290.38 290.298 290.193 289.958 289.77 289.615 289.518 289.375 289.265 289.185 289.105 289.013 288.948 288.89 288.84 288.768 288.683 288.62 288.53 288.463 288.383 288.358 288.278 288.158 287.735 287.038 286.715 285.895 285.833 285.898 286.003 286.05 286.045 286.06 286.04 286.035 286.008 285.985 285.935 285.878 285.863 285.813 285.828 285.82 285.845 285.838 285.808 285.828 285.813 285.843 285.838 285.778 285.736 285.688 285.628 285.584 285.614 285.593 285.469 285.426 285.495 285.499 285.508 285.526 285.509 285.441 285.36 285.326 285.272 285.348 285.406 285.329 285.242 285.194 285.115 285.057 285.023 284.829 284.765 284.806 284.839 284.929 285.055 285.095 285.04 284.805 284.55 284.46 284.727 285.167 284.937 284.87 284.777 284.742 284.69 284.667 284.637 284.585 284.547 284.49 284.475 284.455 284.43 284.42 284.402 284.352 284.422 284.742 284.565 284.26 284.222 284.312 284.41 284.537 284.665 284.725 284.81 284.91 285.087 285.23 285.377 285.485 285.58 285.727 285.867 286.025 286.177 286.342 286.477 286.652 286.932 287.17 287.352 287.485 287.59 287.667 287.757 287.775 287.842 288.022 288.23 288.217 288.65 288.435 288.485 288.97 288.835 289.01 289.197 289.467 289.76 289.935 290.12 290.307 290.42 290.5 290.532 290.47 290.44 290.492 290.6 290.767 290.912 291.117 291.337 291.555 291.76 291.945 292.07 292.247 292.415 292.63 292.852 293.007 293.19 293.612 293.87 293.927 293.825 293.91 294.012 294.152 294.327 294.48 294.665 294.84 295.01 295.18 295.365 295.555 295.792 296.052 296.322 296.53 296.735 297.097 298.085 298.87 299.52 300 300.42 300.81 301.12 301.455 301.747 302.015 302.155 302.45 302.637 302.787 303.21 304.065 304.767 304.475 305.987 305.61 304.862 305.455 305.93 306.347 306.935 308.055 308.765 308.447 309.43 309.567 310.117 310.622 311.18 311.762 312.287 312.78 313.477 313.98 314.32 315.05 315.635 316.202 316.757 317.43 318.065 318.645 319.245 319.812 320.382 321.08 321.657 322.247 322.827 323.422 323.975 324.78 325.355 325.975 326.63 327.292 327.89 328.64 329.36 329.757 330.39 330.932 331.515 332.227 332.725 333.347 333.872 334.34 334.917 335.402 335.862 336.31 336.497 336.647 336.747 337.337 337.832 338.292 339.109 341.314 341.834 342.714 343.639 344.387 345.169 346.032 347.164 348.637 349.677 350.762 351.837 352.872 354.259 355.422 356.204 356.909 357.507 357.952 358.199 358.062 358.457 359.247 359.807 360.102 360.709 361.667 362.462 363.127 363.649 364.272 365.217 366.079 366.934 367.577 368.177 368.714 369.18 369.572 369.802 369.897 369.912 369.954 370.099 370.224 370.347 370.577 370.984 371.414 371.849 372.319 372.739 373.132 373.982 374.904 375.877 376.547 376.972 377.402 377.734 378.127 378.649 378.954 379.464 380.189 380.932 381.477 381.967
293.373 293.343 293.275 293.268 293.228 293.185 293.138 293.07 293.02 292.885 292.775 292.648 292.503 292.395 292.3 292.188 292.09 291.993 291.9 291.78 291.648 291.503 291.368 291.22 291.073 290.958 290.863 290.773 290.683 290.58 290.485 290.44 290.353 290.253 290.093 289.858 289.645 289.495 289.383 289.31 289.2 289.148 289.048 288.998 288.93 288.893 288.828 288.748 288.683 288.588 288.44 288.395 288.35 288.28 288.208 287.823 287.138 286.678 285.88 285.835 285.85 285.943 286.01 286.04 286.04 286.008 285.995 285.963 285.908 285.89 285.835 285.828 285.773 285.783 285.785 285.813 285.8 285.783 285.773 285.758 285.79 285.763 285.73 285.69 285.678 285.62 285.566 285.559 285.641 285.568 285.384 285.406 285.44 285.4 285.401 285.439 285.334 285.281 285.179 285.037 284.981 285.146 285.148 285.228 285.205 285.055 285.021 284.982 284.92 284.875 284.901 284.887 284.851 285.023 285.092 285.102 285.045 284.905 284.615 284.435 285.07 284.985 284.89 284.8 284.767 284.752 284.685 284.655 284.618 284.585 284.521 284.493 284.458 284.437 284.418 284.404 284.565 284.822 284.322 284.265 284.212 284.26 284.36 284.442 284.525 284.59 284.647 284.782 284.922 285.082 285.23 285.315 285.387 285.512 285.667 285.807 285.952 286.075 286.212 286.36 286.652 286.902 287.192 287.322 287.402 287.475 287.567 287.6 287.627 287.685 287.797 287.972 288.112 288.207 288.545 288.4 288.395 288.972 288.817 288.882 289.047 289.21 289.397 289.65 289.825 289.937 290.022 290.052 290.02 290.077 290.197 290.382 290.527 290.737 290.977 291.205 291.432 291.63 291.8 291.957 292.13 292.277 292.452 292.64 293.012 293.4 293.445 293.31 293.477 293.617 293.697 293.817 294.01 294.165 294.325 294.472 294.68 294.857 295.04 295.242 295.407 295.627 295.877 296.087 296.267 296.445 296.825 297.825 298.495 299.06 299.592 299.99 300.397 300.77 301.052 301.315 301.57 301.845 302.13 302.355 302.457 302.587 302.885 303.117 303.735 304.482 305.34 304.812 305.17 305.767 306.367 306.865 307.452 307.852 308.307 308.885 309.197 309.84 310.452 311.017 311.612 312.167 312.55 313.072 314.017 314.275 314.815 315.387 315.932 316.535 317.172 317.725 318.395 318.922 319.432 320.06 320.727 321.187 321.652 322.17 322.835 323.572 324.222 324.85 325.517 326.055 326.655 327.315 328.065 328.582 329.057 329.692 330.252 330.845 331.547 332.187 332.742 333.225 333.79 334.215 334.587 334.992 335.3 335.482 335.647 335.664 336.347 337.197 338.247 339.564 340.832 341.769 342.479 343.254 344.009 344.777 346.049 347.024 347.724 348.787 349.914 352.309 353.609 353.649 354.704 355.322 355.974 356.427 356.682 356.817 357.059 357.527 358.274 358.772 359.087 359.592 360.252 361.089 361.944 362.767 363.557 364.467 365.267 365.914 366.687 367.214 367.734 368.194 368.517 368.802 368.969 368.994 369.024 369.124 369.069 369.029 369.292 369.789 370.254 370.714 371.434 371.857 372.674 373.572 374.487 375.359 375.882 376.262 376.824 377.057 377.517 377.849 378.234 378.857 379.497 380.109 380.744 381.332
293.295 293.233 293.213 293.183 293.168 293.08 293.005 292.973 292.873 292.788 292.715 292.593 292.455 292.365 292.263 292.198 292.11 292.02 291.908 291.773 291.603 291.458 291.315 291.178 291.045 290.963 290.935 290.858 290.773 290.668 290.638 290.598 290.5 290.395 290.253 290.038 289.775 289.583 289.483 289.4 289.298 289.183 289.115 289.018 288.995 288.955 288.855 288.798 288.71 288.62 288.513 288.428 288.368 288.288 288.193 287.83 287.228 286.835 285.85 285.838 285.793 285.838 285.918 285.988 286.005 285.953 285.925 285.903 285.885 285.85 285.793 285.748 285.733 285.72 285.74 285.75 285.763 285.768 285.725 285.708 285.71 285.718 285.683 285.655 285.633 285.612 285.551 285.472 285.566 285.62 285.608 285.45 285.358 285.361 285.337 285.352 285.271 285.179 285.083 285.22 285.299 285.324 285.193 285.224 285.145 285.137 285.039 284.961 284.913 284.87 284.845 284.833 284.837 284.912 284.987 285 285.035 284.982 284.722 284.42 284.702 284.987 284.905 284.842 284.802 284.77 284.706 284.68 284.656 284.616 284.555 284.531 284.506 284.517 284.537 284.847 284.582 284.412 284.291 284.232 284.233 284.305 284.332 284.357 284.39 284.445 284.537 284.735 284.952 285.092 285.195 285.277 285.34 285.455 285.635 285.757 285.882 286.012 286.087 286.32 286.647 286.927 287.12 287.23 287.292 287.37 287.41 287.48 287.537 287.595 287.647 287.727 287.87 287.887 288.24 288.377 288.29 288.375 288.79 288.612 288.77 288.847 288.967 289.125 289.247 289.365 289.507 289.642 289.722 289.832 289.992 290.2 290.412 290.627 290.875 291.067 291.29 291.46 291.617 291.805 292.022 292.162 292.712 292.815 292.762 292.785 292.945 293.1 293.27 293.41 293.545 293.685 293.852 293.975 294.177 294.352 294.57 294.775 294.922 295.08 295.262 295.442 295.64 295.852 296.035 296.22 296.562 297.52 298.105 298.557 299.092 299.555 299.962 300.352 300.7 300.96 301.222 301.56 301.797 302.005 302.105 302.212 302.397 302.61 303.092 304.492 305.465 305.1 305.057 305.69 306.205 306.715 307.59 308.082 308.112 308.597 309.042 309.687 310.327 310.9 311.427 311.925 312.297 312.81 313.645 314.06 314.517 315.1 315.617 316.292 316.915 317.365 317.962 318.52 319.05 319.582 320.2 320.77 321.16 321.677 322.28 322.942 323.707 324.33 324.897 325.48 326.077 326.755 327.32 327.845 328.325 328.8 329.407 330.1 330.657 331.382 331.855 332.442 332.992 333.335 333.657 333.97 334.35 334.322 335.112 337.862 337.749 338.067 339.019 339.824 340.552 341.249 342.077 342.932 343.842 344.657 345.242 346.014 347.049 348.129 350.299 352.414 351.807 353.009 353.792 354.387 354.829 355.247 355.564 356.014 356.419 356.817 357.502 358.039 358.357 358.729 359.312 360.074 361.092 362.149 362.997 363.647 364.307 365.059 365.914 366.334 366.687 367.079 367.342 367.694 367.882 367.927 367.934 368.012 367.804 367.799 368.067 368.554 369.032 369.854 370.697 371.354 372.344 373.297 374.199 374.832 375.117 375.672 376.219 376.504 376.804 377.132 377.634 378.294 378.992 379.539 379.932 380.457
293.198 293.145 293.113 293.088 293.053 292.96 292.895 292.835 292.74 292.673 292.585 292.463 292.363 292.29 292.228 292.178 292.108 291.963 291.843 291.673 291.543 291.413 291.255 291.145 291.075 291.03 290.995 290.948 290.9 290.828 290.788 290.705 290.613 290.51 290.373 290.215 289.953 289.76 289.663 289.583 289.453 289.355 289.238 289.138 289.05 288.998 288.943 288.88 288.78 288.635 288.53 288.47 288.423 288.338 288.175 287.86 287.208 286.905 285.863 285.9 285.943 285.823 285.873 285.965 285.953 285.935 285.91 285.865 285.848 285.825 285.763 285.723 285.693 285.67 285.69 285.708 285.718 285.718 285.705 285.668 285.663 285.675 285.65 285.615 285.573 285.581 285.513 285.43 285.481 285.565 285.636 285.605 285.445 285.325 285.278 285.299 285.235 285.169 285.237 285.51 285.464 285.431 285.313 285.284 285.188 285.213 285.127 285.004 284.873 284.887 284.826 284.813 284.803 284.825 284.94 284.985 284.98 284.992 284.837 284.347 284.397 284.677 284.912 284.867 284.81 284.785 284.723 284.723 284.68 284.643 284.592 284.575 284.556 284.587 284.876 284.523 284.409 284.345 284.291 284.244 284.227 284.272 284.315 284.312 284.302 284.317 284.417 284.675 284.905 285.092 285.175 285.215 285.285 285.422 285.582 285.695 285.817 285.905 286.012 286.265 286.572 286.812 286.962 287.087 287.165 287.215 287.292 287.357 287.427 287.487 287.525 287.6 287.632 287.652 287.73 288.192 288.255 288.227 288.467 288.495 288.455 288.595 288.69 288.735 288.825 288.955 289.192 289.367 289.472 289.627 289.83 290.087 290.3 290.495 290.737 290.917 291.12 291.292 291.48 291.665 292.012 292.485 292.3 292.35 292.497 292.602 292.73 292.89 293.065 293.247 293.382 293.547 293.67 293.807 294.027 294.252 294.442 294.632 294.782 294.96 295.125 295.275 295.422 295.6 295.772 295.995 296.287 297.22 297.767 298.115 298.635 299.135 299.565 300.01 300.325 300.65 300.94 301.192 301.357 301.497 301.66 301.777 301.847 302.222 302.667 303.715 305.36 305.475 304.895 305.485 305.977 306.535 308.035 307.375 307.757 308.32 308.907 309.507 310.167 310.827 311.28 311.742 312.047 312.495 313.137 313.862 314.262 314.952 315.432 315.97 316.507 316.91 317.447 318.075 318.602 319.052 319.54 320.12 320.692 321.282 321.855 322.29 323.115 323.782 324.302 324.747 325.6 326.137 326.577 327.042 327.515 327.867 328.437 329.122 329.807 330.405 331.007 331.587 332.075 332.43 332.687 332.825 332.992 333.392 334.379 336.907 336.979 337.922 338.687 339.269 340.112 341.022 341.964 342.964 343.344 343.649 344.584 345.442 346.382 347.487 348.674 350.947 351.144 352.154 352.797 353.204 353.547 353.977 354.572 355.254 355.887 356.459 356.947 357.429 357.892 358.337 358.777 359.437 360.422 361.419 362.112 362.634 363.264 364.097 364.757 365.257 365.597 365.872 366.232 366.437 366.532 366.527 366.547 366.627 366.569 366.634 366.974 367.327 368.212 369.227 370.039 371.094 372.077 373.059 373.712 374.049 374.557 375.147 375.482 375.834 376.114 376.534 377.047 377.664 378.434 379.079 379.354 379.664
293.123 293.055 293.033 292.988 292.95 292.873 292.805 292.773 292.713 292.625 292.513 292.403 292.303 292.263 292.22 292.135 292.038 291.925 291.735 291.605 291.48 291.37 291.3 291.198 291.133 291.083 291.08 291.028 290.96 290.938 290.89 290.84 290.745 290.685 290.498 290.338 290.188 290.003 289.913 289.785 289.658 289.535 289.41 289.278 289.088 289.035 288.983 288.94 288.83 288.735 288.625 288.533 288.45 288.375 288.238 287.883 287.255 286.955 285.935 285.895 285.938 285.823 285.815 285.87 285.948 285.933 285.905 285.855 285.82 285.785 285.728 285.71 285.675 285.635 285.613 285.63 285.665 285.658 285.655 285.648 285.618 285.63 285.613 285.583 285.56 285.548 285.516 285.439 285.397 285.507 285.599 285.63 285.597 285.456 285.465 285.475 285.519 285.458 285.498 285.477 285.426 285.37 285.352 285.341 285.253 285.208 285.195 285.146 284.968 284.847 284.81 284.761 284.697 284.71 284.812 284.995 285.02 284.967 284.905 284.622 284.265 284.39 284.752 284.942 284.839 284.8 284.753 284.721 284.682 284.651 284.637 284.611 284.688 284.754 284.527 284.404 284.353 284.315 284.282 284.26 284.218 284.186 284.253 284.263 284.242 284.25 284.267 284.5 284.767 284.987 285.082 285.092 285.18 285.357 285.542 285.632 285.685 285.747 285.922 286.142 286.412 286.64 286.817 286.932 287.047 287.132 287.197 287.237 287.317 287.36 287.412 287.472 287.497 287.535 287.602 287.722 288.19 288.152 288.122 288.562 288.345 288.367 288.437 288.5 288.627 288.757 288.945 289.135 289.302 289.485 289.697 289.932 290.137 290.355 290.54 290.752 290.952 291.17 291.665 291.925 291.832 291.91 292.055 292.185 292.317 292.427 292.545 292.717 292.835 293.02 293.187 293.332 293.497 293.685 293.89 294.087 294.287 294.472 294.627 294.81 294.945 295.097 295.25 295.42 295.61 295.805 295.99 296.71 297.352 297.795 298.182 298.702 299.215 299.672 299.98 300.265 300.57 300.712 300.825 300.952 301.07 301.085 301.36 301.73 302.357 302.875 305.09 305.367 304.642 305.28 305.845 306.417 306.512 306.935 307.422 308.015 308.732 309.297 310 310.575 311.075 311.365 311.725 312.232 312.787 313.58 314.132 314.657 315.167 315.582 316.03 316.475 317.067 317.727 318.262 318.645 318.972 319.52 320.17 320.777 321.352 321.83 322.657 323.087 323.485 324.262 325.067 325.395 325.647 326.187 326.617 326.932 327.557 328.255 328.99 329.567 330.152 330.69 331.297 331.575 331.662 332.047 332.012 331.982 334.342 334.894 336.467 337.439 338.139 338.772 339.74 340.829 341.762 341.962 342.432 343.022 343.832 344.824 345.714 346.822 347.964 349.207 350.387 351.182 351.652 351.99 352.522 353.179 353.702 354.557 355.182 356.004 356.434 356.819 357.352 357.819 358.167 358.669 359.529 360.494 361.227 361.74 362.184 363.024 363.712 364.122 364.387 364.789 365.182 365.422 365.429 365.302 365.287 365.337 365.267 365.382 365.747 366.457 367.534 368.524 369.722 370.754 371.727 372.647 373.012 373.119 374.044 374.439 374.647 375.064 375.452 375.854 376.407 377.112 377.734 378.304 378.667 379.014
293.09 293.033 292.973 292.91 292.868 292.815 292.78 292.69 292.64 292.56 292.463 292.378 292.273 292.233 292.17 292.1 291.98 291.825 291.7 291.583 291.443 291.358 291.34 291.333 291.28 291.21 291.168 291.09 291.09 291.07 291.038 290.96 290.923 290.868 290.74 290.583 290.375 290.213 290.088 289.98 289.873 289.763 289.635 289.483 289.278 289.13 289.073 289.045 288.973 288.883 288.745 288.603 288.495 288.383 288.24 287.938 287.31 286.933 286.365 285.873 285.883 285.878 285.815 285.783 285.815 285.875 285.883 285.85 285.828 285.77 285.718 285.673 285.623 285.623 285.618 285.578 285.583 285.608 285.605 285.588 285.558 285.583 285.593 285.55 285.503 285.51 285.493 285.414 285.329 285.446 285.574 285.576 285.561 285.518 285.525 285.555 285.564 285.524 285.496 285.464 285.415 285.359 285.329 285.305 285.265 285.233 285.219 285.17 285.069 284.978 284.803 284.729 284.675 284.682 284.687 284.78 285.032 284.98 284.887 284.84 284.412 284.265 284.626 284.771 284.896 284.807 284.753 284.736 284.71 284.68 284.72 284.771 284.673 284.48 284.451 284.422 284.367 284.339 284.316 284.294 284.301 284.239 284.191 284.198 284.213 284.217 284.187 284.267 284.482 284.727 284.935 285.05 285.112 285.317 285.495 285.56 285.56 285.67 285.882 286.005 286.215 286.43 286.64 286.807 286.935 286.982 287.087 287.137 287.22 287.26 287.29 287.36 287.41 287.452 287.512 287.537 287.877 288.247 288.037 288.02 288.392 288.18 288.287 288.357 288.48 288.612 288.822 288.962 289.157 289.352 289.525 289.757 289.98 290.172 290.415 290.665 291.082 291.395 291.387 291.362 291.542 291.702 291.84 292.012 292.15 292.3 292.425 292.525 292.642 292.762 292.98 293.157 293.325 293.497 293.73 293.95 294.152 294.325 294.497 294.627 294.765 294.892 295.047 295.217 295.415 295.597 295.747 296.262 296.842 297.362 297.822 298.285 298.785 299.137 299.54 299.842 300.047 300.145 300.202 300.342 300.432 300.482 300.902 301.362 302.002 302.997 305.19 305.24 304.635 305.29 305.79 305.86 306.145 306.72 307.222 307.8 308.392 309.025 309.752 310.292 310.735 311.045 311.477 312.007 312.595 313.275 314.012 314.272 314.645 315.155 315.612 316.217 316.84 317.385 317.94 318.235 318.585 319.075 319.75 320.44 321.005 321.492 321.832 322.302 323.022 323.785 324.34 324.457 324.442 324.982 325.387 325.907 326.655 327.412 328.142 328.727 329.307 329.817 330.332 330.575 330.182 332.52 330.44 331.757 333.434 334.992 336.077 336.969 337.762 338.737 339.552 340.189 340.662 341.117 341.722 342.402 343.284 344.089 345.004 346.012 347.192 348.502 350.047 350.162 350.664 351.097 351.629 352.279 352.664 353.177 354.289 356.684 356.007 356.054 356.332 356.757 357.022 357.614 358.654 359.642 360.187 360.554 361.112 361.934 362.569 363.034 363.337 363.634 363.842 364.012 364.007 363.929 363.884 363.952 363.967 364.169 364.759 366.059 367.204 368.127 369.239 370.189 371.269 371.972 371.857 372.509 373.369 373.587 373.724 374.334 374.799 375.224 375.832 376.599 377.104 377.509 377.912 378.134
293.04 292.985 292.938 292.865 292.82 292.78 292.728 292.665 292.58 292.483 292.44 292.355 292.29 292.225 292.135 292.015 291.895 291.758 291.655 291.538 291.45 291.403 291.408 291.4 291.36 291.3 291.228 291.178 291.18 291.15 291.133 291.105 291.043 291.023 290.983 290.845 290.663 290.46 290.335 290.238 290.128 290.013 289.895 289.745 289.535 289.33 289.205 289.138 289.123 289.048 288.9 288.733 288.585 288.445 288.253 287.935 287.378 286.915 286.448 285.863 285.843 285.823 285.768 285.733 285.738 285.798 285.845 285.843 285.79 285.773 285.738 285.663 285.62 285.585 285.57 285.568 285.568 285.54 285.535 285.525 285.538 285.53 285.513 285.498 285.5 285.475 285.478 285.453 285.336 285.322 285.482 285.531 285.535 285.527 285.504 285.555 285.569 285.482 285.461 285.403 285.403 285.346 285.293 285.259 285.23 285.214 285.182 285.177 285.14 285.007 284.807 284.745 284.697 284.64 284.62 284.572 284.722 285.125 285.12 284.855 284.622 284.512 284.415 284.539 284.767 286.465 286.5 284.766 284.737 285.011 284.952 284.621 284.566 284.53 284.484 284.454 284.415 284.403 284.389 284.381 284.392 284.352 284.263 284.199 284.151 284.12 284.152 284.15 284.237 284.42 284.722 284.972 285.105 285.232 285.36 285.462 285.445 285.627 285.745 285.832 285.962 286.232 286.442 286.6 286.747 286.867 286.95 287.032 287.107 287.155 287.19 287.272 287.292 287.377 287.425 287.435 287.492 287.695 288.065 287.927 288.145 288.272 288.075 288.177 288.325 288.52 288.7 288.872 289.015 289.212 289.362 289.56 289.807 290.16 290.665 291.092 290.727 290.802 290.98 291.157 291.327 291.495 291.66 291.85 291.962 292.125 292.235 292.31 292.407 292.552 292.765 292.945 293.14 293.37 293.585 293.8 294 294.147 294.315 294.467 294.587 294.71 294.86 295.035 295.23 295.365 295.52 295.712 296.352 296.957 297.442 297.827 298.25 298.515 298.962 299.25 299.447 299.57 299.715 299.76 299.77 300.127 300.617 301.13 301.997 304.27 305.125 305.68 305.795 305.42 305.307 305.505 305.847 306.447 307.047 307.692 308.172 308.757 309.347 309.955 310.425 310.802 311.282 311.84 312.38 312.94 313.692 313.945 314.27 314.86 315.487 316.1 316.635 317.005 317.49 317.83 318.175 318.767 319.472 320.132 320.617 320.955 321.335 321.77 322.512 323.025 323.33 323.25 323.097 323.447 323.962 324.855 325.925 326.725 327.372 328.035 328.52 328.987 329.43 329.375 329.497 329.932 331.037 332.292 333.764 334.749 335.602 336.582 337.639 338.167 338.679 339.349 339.949 340.414 341.047 341.714 342.409 343.202 344.212 345.199 346.419 347.667 348.599 349.212 349.882 350.422 351.032 351.49 351.664 352.157 353.042 354.359 354.707 354.847 355.122 355.524 355.847 356.484 357.602 358.597 358.912 359.329 360.012 360.897 361.607 362.129 362.37 362.567 362.719 362.762 362.639 362.397 362.412 362.469 362.784 363.229 364.337 365.737 366.739 367.544 368.559 369.494 370.499 370.809 370.727 371.717 372.429 372.637 373.037 373.602 374.009 374.654 375.419 376.129 376.479 376.814 377.054 377.224
293.02 292.96 292.893 292.853 292.813 292.715 292.69 292.63 292.54 292.475 292.428 292.348 292.263 292.183 292.08 291.96 291.835 291.703 291.6 291.52 291.5 291.53 291.518 291.465 291.443 291.365 291.308 291.305 291.265 291.255 291.215 291.198 291.185 291.19 291.148 291.09 290.935 290.735 290.58 290.458 290.348 290.273 290.193 290.098 289.903 289.618 289.43 289.325 289.25 289.175 289.035 288.873 288.703 288.523 288.283 287.928 287.43 287.098 286.455 285.84 285.82 285.87 285.913 285.845 285.75 285.733 285.81 285.803 285.793 285.755 285.703 285.683 285.638 285.595 285.545 285.543 285.533 285.503 285.508 285.5 285.5 285.488 285.465 285.453 285.43 285.418 285.42 285.425 285.368 285.229 285.356 285.446 285.448 285.474 285.447 285.463 285.485 285.431 285.393 285.371 285.329 285.294 285.243 285.19 285.161 285.145 285.135 285.121 285.111 285.091 285.002 284.85 284.702 284.66 284.64 284.567 284.572 284.642 284.887 284.872 284.932 284.94 285.968 284.453 284.785 285.013 284.978 284.949 284.896 285.067 284.848 284.678 284.637 284.608 284.577 284.523 284.498 284.53 284.503 284.462 284.5 284.442 284.374 284.301 284.255 284.193 284.152 284.092 284.115 284.175 284.415 284.785 285.072 285.2 285.285 285.305 285.44 285.542 285.592 285.695 285.827 286.025 286.212 286.405 286.555 286.707 286.812 286.91 286.965 287.052 287.095 287.15 287.21 287.265 287.337 287.36 287.392 287.437 288.032 287.867 287.845 288.062 288.155 288.055 288.237 288.417 288.577 288.717 288.872 289.067 289.225 289.52 289.962 290.18 290.012 290.237 290.427 290.647 290.795 290.977 291.15 291.315 291.477 291.65 291.8 291.9 292.02 292.117 292.227 292.37 292.55 292.767 293.002 293.215 293.462 293.627 293.815 293.97 294.112 294.255 294.377 294.55 294.73 294.882 295.045 295.16 295.28 295.32 295.765 296.392 296.825 297.162 297.452 297.98 298.29 298.567 298.84 299 299.025 299.05 299.242 299.87 300.43 301.307 302.25 303.232 303.64 304.825 304.65 304.94 304.84 305.125 305.627 306.162 306.817 307.435 307.935 308.43 309.012 309.592 310.045 310.515 311.057 311.64 312.08 312.57 313.015 313.707 314.225 314.582 315.34 315.887 316.327 316.625 316.975 317.34 317.815 318.58 319.222 319.75 320.13 320.37 320.657 321.11 321.745 322.137 322.227 322.24 322.112 322.345 323.022 323.912 324.982 325.92 326.547 327.19 327.627 327.99 328.285 328.227 329.197 329.827 331.755 332.462 333.542 334.364 335.394 336.412 336.789 337.399 338.042 338.649 339.144 339.554 340.157 340.967 341.577 342.284 343.384 344.584 345.719 346.844 347.737 348.519 349.294 349.839 350.392 350.899 350.949 351.177 351.917 352.932 353.419 353.472 353.882 354.494 355.049 355.824 357.004 357.522 357.689 358.119 358.954 360.052 360.807 361.324 361.559 361.549 361.454 361.449 361.259 361.017 361.104 361.419 361.927 362.684 364.009 365.239 366.124 366.954 367.849 368.599 369.247 369.217 369.664 370.784 371.327 371.882 372.419 372.939 373.367 374.014 374.924 375.482 375.749 376.074 376.262 376.524
292.988 292.94 292.935 292.845 292.79 292.738 292.64 292.593 292.515 292.468 292.413 292.338 292.253 292.138 292.03 291.95 291.885 291.815 291.728 291.613 291.593 291.643 291.613 291.543 291.51 291.483 291.425 291.388 291.385 291.335 291.338 291.313 291.32 291.325 291.33 291.275 291.148 290.978 290.825 290.698 290.593 290.513 290.488 290.49 290.3 289.948 289.683 289.535 289.435 289.298 289.138 289.013 288.853 288.615 288.313 287.94 287.475 287.103 286.435 285.868 285.793 285.85 285.903 285.89 285.825 285.658 285.678 285.758 285.77 285.763 285.748 285.698 285.635 285.605 285.583 285.56 285.52 285.503 285.488 285.46 285.44 285.463 285.455 285.413 285.395 285.365 285.373 285.403 285.355 285.225 285.253 285.409 285.448 285.435 285.379 285.435 285.446 285.393 285.352 285.341 285.285 285.225 285.166 285.155 285.119 285.103 285.06 285.067 285.062 285.045 285.047 284.992 284.867 284.7 284.595 284.59 284.505 284.475 284.527 284.592 284.542 284.665 285.038 284.726 285.317 286.477 286.374 285.278 285.966 284.773 284.739 284.717 284.695 284.675 284.635 284.616 284.579 284.555 284.522 284.478 284.489 284.44 284.374 284.33 284.298 284.24 284.203 284.13 284.072 284.055 284.137 284.407 284.84 285.055 285.052 285.175 285.367 285.435 285.515 285.567 285.71 285.88 286.035 286.245 286.39 286.537 286.672 286.785 286.845 286.922 286.965 287.03 287.097 287.157 287.23 287.272 287.305 287.34 287.407 287.94 287.777 287.772 288.102 287.982 288.1 288.28 288.412 288.567 288.802 289.207 289.412 289.665 289.475 289.632 289.817 290.047 290.257 290.44 290.64 290.805 290.992 291.16 291.285 291.44 291.572 291.69 291.812 291.92 292.015 292.155 292.345 292.562 292.837 293.057 293.257 293.445 293.617 293.77 293.93 294.09 294.24 294.42 294.565 294.71 294.835 294.94 295.067 295.095 295.28 295.727 296.125 296.282 296.87 297.232 297.547 297.87 298.235 298.322 298.222 298.462 298.867 299.64 300.63 301.267 301.707 302.405 303.06 303.517 303.882 304.222 304.487 304.88 305.42 305.915 306.645 307.11 307.645 308.14 308.647 309.175 309.62 310.177 310.79 311.345 311.792 312.085 312.455 313.035 313.955 314.385 315.002 315.52 315.907 316.235 316.492 316.867 317.677 318.347 318.892 319.33 319.517 319.682 320.067 320.47 320.947 321.225 321.347 321.502 321.485 321.697 322.385 323.16 324.432 325.237 325.86 326.282 326.41 326.83 327.145 327.347 327.877 329.467 330.937 332.045 333.234 334.417 334.499 335.18 336.012 336.714 337.339 337.869 338.364 338.812 339.442 340.177 340.897 341.684 342.952 344.192 345.249 346.254 347.179 347.864 348.647 349.099 349.487 349.777 349.982 350.284 351.004 351.902 352.232 352.344 352.779 353.424 354.357 355.379 355.982 356.242 356.454 356.942 357.809 358.734 359.607 360.247 360.472 360.412 360.269 360.127 359.944 360.014 360.272 360.667 361.274 362.197 363.714 364.642 365.419 366.219 366.982 367.507 367.592 367.849 368.964 369.637 370.352 371.279 371.712 372.149 372.597 373.354 374.019 374.509 374.924 375.244 375.412 375.509
292.97 292.935 292.885 292.815 292.738 292.668 292.618 292.568 292.513 292.463 292.428 292.35 292.235 292.16 292.105 292.103 292.055 291.945 291.865 291.753 291.715 291.725 291.703 291.655 291.61 291.585 291.513 291.51 291.483 291.485 291.5 291.485 291.488 291.485 291.438 291.428 291.343 291.178 291.045 290.918 290.815 290.738 290.77 290.77 290.52 290.2 289.973 289.78 289.613 289.485 289.333 289.133 288.948 288.673 288.325 287.965 287.525 287.073 286.81 285.905 285.825 285.888 285.878 285.855 285.885 285.735 285.603 285.623 285.688 285.738 285.74 285.73 285.675 285.63 285.603 285.56 285.51 285.478 285.453 285.443 285.408 285.415 285.425 285.395 285.353 285.338 285.335 285.345 285.31 285.243 285.225 285.3 285.383 285.433 285.384 285.394 285.396 285.347 285.304 285.283 285.209 285.14 285.101 285.08 285.072 285.044 285.025 285.01 285.017 284.985 285.015 285.05 285.025 284.88 284.747 284.57 284.47 284.52 284.445 284.435 284.436 284.529 284.67 285.976 286.267 286.774 286.099 284.864 285.316 284.904 284.816 284.749 284.744 284.738 284.681 284.629 284.639 284.586 284.554 284.535 284.533 284.483 284.426 284.381 284.358 284.327 284.288 284.19 284.13 284.07 284.077 284.142 284.38 284.587 284.685 285.137 285.285 285.33 285.402 285.487 285.607 285.72 285.857 286.035 286.197 286.355 286.527 286.625 286.705 286.795 286.872 286.93 286.982 287.042 287.1 287.175 287.2 287.222 287.297 287.627 287.917 287.747 287.757 288.232 287.965 288.122 288.302 288.647 289.035 288.932 288.897 289.06 289.227 289.4 289.602 289.847 290.062 290.292 290.447 290.622 290.797 290.952 291.075 291.21 291.365 291.497 291.58 291.717 291.83 291.96 292.182 292.42 292.642 292.855 293.035 293.21 293.41 293.585 293.775 293.917 294.092 294.21 294.377 294.49 294.585 294.72 294.84 294.93 295 295.237 295.482 295.747 296.2 296.515 296.86 297.132 297.3 297.485 297.745 298.092 298.617 299.602 300.142 300.887 301.5 302.162 302.79 303.235 303.63 303.902 304.257 304.745 305.235 305.745 306.492 306.84 307.175 307.752 308.305 308.74 309.242 309.885 310.447 310.947 311.375 311.7 312.075 312.772 313.442 314.26 314.63 314.995 315.377 315.712 316.085 316.575 317.3 317.877 318.367 318.775 318.952 319.175 319.542 319.83 320.227 320.645 320.685 320.745 320.88 321.105 321.78 322.517 323.795 324.587 325.165 325.337 325.13 325.597 326.177 326.795 328.32 329.605 330.627 332.022 332.569 333.187 333.672 334.339 335.147 335.859 336.527 337.207 337.817 338.347 338.877 339.629 340.352 341.319 342.654 343.742 344.604 345.549 346.217 346.859 347.644 348.222 348.487 348.812 349.157 349.614 350.397 350.907 351.057 351.237 351.892 352.999 354.087 354.632 354.859 354.949 355.237 355.759 356.512 357.332 358.069 358.582 358.799 358.809 358.762 358.747 358.867 359.249 359.587 360.067 360.712 361.767 363.087 363.979 364.629 365.474 366.067 366.559 366.497 367.409 368.217 368.897 369.727 370.342 370.799 371.322 371.892 372.667 373.117 373.549 374.142 374.452 374.437 374.329
292.963 292.93 292.868 292.823 292.72 292.65 292.59 292.553 292.52 292.478 292.428 292.375 292.3 292.248 292.175 292.178 292.12 292.058 291.958 291.865 291.825 291.843 291.79 291.758 291.703 291.655 291.608 291.615 291.613 291.618 291.635 291.628 291.625 291.565 291.543 291.53 291.5 291.373 291.27 291.135 291.055 291.008 290.943 290.875 290.678 290.448 290.21 290.035 289.825 289.663 289.488 289.248 289.025 288.763 288.473 288.063 287.593 287.138 286.898 285.908 285.8 285.815 285.853 285.833 285.853 285.813 285.713 285.6 285.573 285.64 285.695 285.738 285.663 285.625 285.593 285.545 285.498 285.47 285.44 285.425 285.42 285.413 285.398 285.385 285.345 285.328 285.295 285.305 285.283 285.263 285.195 285.27 285.338 285.373 285.369 285.365 285.3 285.293 285.267 285.186 285.144 285.084 285.037 285.019 285.001 284.992 284.977 284.975 284.97 284.937 284.907 284.872 285.047 285.085 284.935 284.737 284.595 284.467 284.445 284.463 284.346 284.246 284.333 285.059 286.885 285.948 285.513 284.246 284.627 284.775 284.868 284.757 284.781 284.803 284.778 284.743 284.728 284.665 284.623 284.598 284.554 284.557 284.534 284.493 284.44 284.38 284.341 284.314 284.24 284.14 284.062 284.075 284.242 284.425 284.57 284.977 285.17 285.195 285.27 285.4 285.485 285.56 285.727 285.892 286.05 286.23 286.365 286.467 286.587 286.697 286.74 286.805 286.87 286.955 286.987 287.022 287.062 287.155 287.23 287.252 287.565 287.875 287.697 287.882 288.23 288.547 288.517 288.585 288.482 288.59 288.72 288.867 289.032 289.207 289.427 289.66 289.882 290.105 290.267 290.427 290.572 290.752 290.895 291.005 291.17 291.292 291.407 291.527 291.655 291.802 291.985 292.175 292.38 292.59 292.782 293 293.235 293.425 293.617 293.762 293.912 294.037 294.145 294.282 294.39 294.495 294.662 294.74 294.677 294.887 295.327 295.625 295.905 296.162 296.5 296.722 296.915 297.122 297.45 297.922 298.407 299.027 299.892 300.602 301.265 301.935 302.485 302.972 303.375 303.627 303.987 304.55 305.077 305.502 306.07 306.58 306.88 307.41 308.017 308.457 308.962 309.595 310.165 310.552 311.025 311.512 312.047 312.72 313.265 313.7 314.367 314.58 314.847 315.157 315.702 316.27 316.917 317.375 317.702 318.022 318.272 318.55 318.885 319.082 319.605 320.092 319.982 319.902 320.22 320.53 321.04 321.945 323.04 323.852 324.28 324.397 324.522 324.947 325.655 326.822 328.107 329.522 330.255 330.762 331.527 332.244 332.784 333.462 334.294 335.059 335.719 336.474 337.242 337.849 338.474 339.197 339.892 340.917 342.354 343.267 343.789 344.347 344.877 345.549 346.242 347.009 347.519 347.924 348.324 348.784 349.304 349.614 349.877 350.509 351.662 352.769 353.319 353.547 353.537 353.772 354.192 354.782 355.337 355.952 356.659 357.132 357.244 357.297 357.417 357.597 357.972 358.414 358.902 359.554 360.344 361.792 364.412 363.109 363.747 364.524 365.069 365.337 365.467 366.729 367.347 367.799 368.924 369.569 370.057 370.629 371.134 371.794 372.184 372.494 373.089 373.459 373.479 373.454
