ncols 378
nrows 32
xllcorner    389078
yllcorner    477088
cellsize     2
NODATA_value -9999
586.974 587.359 587.441 587.195 587.111 586.936 586.798 586.746 586.474 586.37 586.783 586.882 587.046 587.413 587.867 588.527 589.266 589.952 590.518 591.096 591.654 592.123 592.82 593.332 593.922 594.67 595.36 596.16 596.771 597.293 597.498 597.632 597.847 597.891 598.04 598.191 598.489 598.702 599.07 599.396 599.503 599.486 599.542 599.534 599.564 599.317 599.146 599.187 599.238 599.507 599.587 599.541 599.975 599.933 599.849 600.038 600.381 600.708 600.977 601.083 601.067 601.066 601.032 601.062 601.116 601.161 601.122 600.944 600.953 600.997 601.062 601.134 601.218 601.242 601.38 601.648 601.753 601.7 601.578 601.846 601.94 602.015 602.009 602.028 602.307 602.703 603.042 603.248 603.435 603.583 603.293 603.343 603.333 603.175 602.858 602.24 602.613 602.82 602.999 603.237 603.3 603.015 603.19 603.538 603.887 604.018 604.152 604.366 604.58 604.759 604.643 604.604 604.57 604.836 605.01 604.955 604.924 604.838 604.699 604.355 603.503 603.15 602.921 602.305 602.403 602.451 602.371 602.396 602.57 602.622 602.591 602.415 602.372 602.463 602.243 602.006 601.762 601.542 601.508 601.476 601.471 601.241 601.024 600.335 599.543 598.724 597.836 596.697 596.082 595.12 594.435 593.443 592.454 591.277 590.624 589.798 589.204 588.133 587.98 587.677 587.806 587.78 587.815 587.775 587.767 587.829 588.032 588.076 588.097 588.23 588.318 588.318 588.451 588.545 588.771 588.79 588.741 588.899 588.915 588.967 588.994 588.97 589.042 589.013 589.139 589.014 589.249 589.194 589.046 589.231 589.312 589.217 588.987 588.618 588.65 588.703 588.504 588.394 588.594 588.969 588.995 588.984 589.035 588.509 588.362 588.433 588.26 588.121 587.923 588.011 588.043 588.049 588.315 588.836 588.334 588.287 588.489 589.203 589.384 589.463 589.323 589.197 589.115 588.961 588.863 588.684 588.543 588.425 588.408 588.316 588.113 587.955 587.825 587.587 587.48 587.273 587.045 586.751 586.606 586.335 586.136 585.8 585.575 585.293 585.136 585.07 584.76 584.604 584.288 583.925 583.646 583.344 583.183 582.999 582.782 582.643 582.335 582.029 581.781 581.553 581.384 581.25 580.902 580.697 580.543 580.331 580.165 579.996 579.899 579.714 579.441 579.144 578.924 578.717 578.647 578.517 578.551 578.289 577.916 577.796 577.63 577.43 577.229 577.069 576.933 576.76 576.514 576.323 576.226 575.808 575.466 575.092 574.87 574.848 574.714 574.458 574.313 574.121 573.93 573.823 573.261 572.501 572.229 572.584 572.596 572.368 572.664 572.733 572.734 572.955 573.034 572.968 572.94 572.909 572.854 572.728 572.829 572.686 572.729 572.647 572.444 572.457 572.326 572.32 572.18 572.264 572.178 572.16 572.063 571.887 571.791 571.719 571.674 571.474 571.241 571.113 570.989 570.907 570.791 570.667 570.52 570.397 570.167 570.018 569.969 569.692 569.54 569.486 569.328 569.177 569.162 569.122 568.876 568.633 568.484 568.508 568.335 568.133 567.901 567.788 567.43 567.475 567.295 566.914 566.785 566.74 566.335 565.643 565.234 565.078 565.009 564.969 564.581 564.268 564.096 563.761 563.359 562.92
587.398 587.505 587.213 586.983 586.913 586.776 586.752 586.709 586.746 586.848 586.791 586.795 586.919 587.277 587.748 588.55 589.206 589.798 590.341 590.925 591.488 592.035 592.541 593.213 594.024 594.795 595.394 596.156 596.869 597.317 597.698 597.762 598.092 598.352 598.35 598.539 598.538 598.899 599.266 599.51 599.738 599.748 599.742 599.617 599.6 599.561 599.316 599.156 599.485 599.727 599.743 600.23 600.095 599.874 599.888 599.996 600.345 600.673 601.003 601.111 601.134 601.162 600.972 601.128 601.165 601.157 601.045 601.031 601.038 601.062 601.105 601.199 601.328 601.368 601.478 601.752 602.471 601.697 601.708 602.003 602.042 602.144 602.105 602.104 602.084 602.576 602.815 603.19 603.582 603.679 603.605 603.601 603.654 603.417 603.358 602.939 602.601 602.927 603.066 603.234 603.143 603.005 602.939 603.267 603.627 603.734 603.871 604.187 604.485 604.682 604.766 604.616 604.555 604.889 604.801 605.023 604.926 604.753 604.622 604.056 603.241 602.369 601.871 602.574 602.491 602.54 602.429 602.404 602.447 602.521 602.279 602.258 602.304 602.19 601.952 601.777 601.541 601.515 601.521 601.537 601.413 601.313 601.046 600.498 599.799 598.57 597.655 596.863 595.895 594.875 594.349 593.057 592.344 591.234 590.481 589.693 589.035 588.351 587.845 587.738 587.712 587.811 587.875 587.823 587.78 587.793 587.974 588.217 588.305 588.44 588.563 588.63 588.977 588.764 588.873 588.877 589.103 589.384 589.503 589.28 589.19 589.115 589.136 589.114 589.151 589.22 589.156 589.094 589.045 588.908 589.148 589.226 589.11 588.903 588.694 588.605 588.556 588.345 588.725 588.955 589.01 589.033 589.014 588.673 588.63 588.627 588.572 588.463 588.296 588.316 588.553 588.526 588.68 588.799 588.715 588.597 588.793 589.243 590.012 589.918 589.75 589.74 589.566 589.474 589.228 589.139 588.922 588.714 588.609 588.476 588.41 588.251 588.027 587.846 587.734 587.471 587.242 587.128 586.918 586.614 586.368 586.012 585.768 585.413 585.339 585.289 584.995 584.837 584.471 584.174 583.88 583.426 583.429 583.121 582.926 582.765 582.521 582.195 581.946 581.703 581.518 581.388 581.047 580.741 580.566 580.449 580.287 580.159 579.971 579.781 579.553 579.289 578.994 578.863 578.782 578.727 578.5 578.238 577.906 577.881 577.682 577.528 577.372 577.258 577.102 576.921 576.686 576.427 576.252 575.986 575.685 575.327 575.219 574.908 574.828 574.724 574.443 574.043 573.909 573.706 573.427 573.042 572.374 573.131 573.08 573.04 572.79 572.804 572.943 573.063 573.24 573.214 573.285 573.222 573.174 573.155 572.992 572.946 572.942 572.823 572.757 572.594 572.599 572.579 572.407 572.389 572.43 572.437 572.169 572.142 571.954 571.848 571.834 571.63 571.372 571.286 571.299 571.006 570.822 570.753 570.553 570.417 570.487 570.312 570.241 570.053 569.824 569.683 569.449 569.365 569.204 569.198 569.112 568.846 568.707 568.57 568.376 568.152 568.036 567.752 567.691 567.429 567.341 567.19 567.033 566.886 565.856 565.533 565.309 565.233 565.467 565.334 564.509 563.999 563.941 563.802 563.303 562.777
587.177 587.302 587.078 586.874 586.771 586.57 586.48 586.696 586.761 586.763 586.834 586.884 586.858 587.249 587.64 588.395 589.204 589.675 590.407 590.949 591.503 591.99 592.562 593.147 593.938 594.712 595.491 596.243 596.656 597.296 597.843 598.089 598.262 598.499 598.703 598.805 598.932 599.176 599.46 599.604 599.743 599.862 599.94 599.824 599.762 599.847 599.582 599.388 599.476 600.042 600.323 600.379 599.976 599.735 600 600.259 600.612 600.763 601.021 601.108 601.124 601.116 601.091 601.081 601.13 600.975 601.015 601.047 601.087 601.143 601.215 601.252 601.366 601.489 601.581 601.703 603.027 601.831 601.928 602.047 602.202 602.231 602.215 602.265 602.313 602.41 602.8 603.24 603.545 603.704 603.666 603.685 603.678 603.529 603.479 603.2 602.67 603.069 603.111 603.31 603.079 603.013 602.969 603.033 603.089 602.819 603.061 603.773 604.512 604.829 604.816 604.642 604.594 604.556 604.491 604.591 604.777 604.624 604.522 604.081 603.136 602.357 601.851 601.982 602.3 602.341 602.391 602.416 602.299 602.144 602.15 602.11 602.052 602.043 601.879 601.815 601.571 601.48 601.469 601.57 601.416 601.242 600.845 600.452 599.637 598.495 597.444 596.661 595.722 594.619 593.559 592.778 591.749 590.851 590.364 589.82 589.049 588.449 587.773 587.679 587.64 587.675 587.739 587.784 587.757 587.68 587.577 587.79 588.234 588.325 588.393 588.852 589.005 589.129 589.197 588.979 589.195 589.513 589.687 589.453 589.28 589.364 589.28 589.217 589.185 589.15 589.147 589.133 589.055 589.008 589.014 589.062 589.004 588.791 588.694 588.498 588.471 588.629 589.003 589.125 589.159 589.223 589.225 588.962 588.788 588.909 588.978 588.717 588.705 588.752 588.832 589.416 589.958 589.908 589.298 589.01 589.103 590.017 590.27 590.138 590.047 590.026 589.914 589.803 589.581 589.472 589.306 589.104 589.077 588.858 588.747 588.605 588.305 588.127 587.846 587.644 587.436 587.3 587.072 586.841 586.528 586.151 585.827 585.773 585.457 585.306 585.079 584.95 584.74 584.431 583.987 583.57 583.449 583.254 583.005 582.77 582.496 582.252 582.002 581.797 581.545 581.352 581.183 580.985 580.745 580.577 580.392 580.253 580.061 579.884 579.579 579.5 579.258 579 578.852 578.69 578.587 578.274 577.918 577.816 577.78 577.677 577.527 577.403 577.262 576.991 576.737 576.584 576.334 575.893 575.604 575.366 575.279 575.077 574.868 574.814 574.652 574.205 573.975 573.596 573.378 573.096 573.263 573.29 573.312 573.259 573.037 573.149 573.301 573.36 573.378 573.482 573.613 573.631 573.381 573.464 573.28 573.109 573.06 573.112 572.962 572.727 572.713 572.636 572.566 572.57 572.469 572.371 572.347 572.263 572.028 571.991 571.844 571.585 571.521 571.298 571.255 571.165 571.011 570.881 570.785 570.621 570.355 570.484 570.306 570.131 569.911 569.692 569.624 569.569 569.306 569.297 569.215 568.984 568.858 568.671 568.464 568.415 568.163 567.917 567.72 567.575 567.404 567.375 567.292 566.867 566.113 565.406 565.248 565.656 565.486 565.326 564.784 564.355 563.972 563.542 563.212 562.6
586.962 587.177 587.033 586.908 586.716 585.996 586.153 586.616 586.71 586.806 586.56 586.572 586.905 587.283 587.598 588.189 588.547 589.419 590.194 590.827 591.411 591.846 592.627 593.332 593.803 594.522 595.368 596.075 597.023 597.693 598.1 598.329 598.473 598.57 598.582 598.905 599.112 599.451 599.534 599.769 599.784 599.787 599.931 599.981 599.9 599.997 599.774 599.291 599.564 600.129 600.133 600.14 599.817 599.726 599.789 600.293 600.651 600.98 601.253 601.196 601.129 601.143 601.069 601.066 601.017 601.02 601.176 601.089 601.126 601.238 601.332 601.475 601.594 601.771 601.804 601.879 602.191 602.18 602.008 602.137 602.241 602.292 602.241 602.352 602.339 602.402 602.805 603.201 603.487 603.893 603.796 603.739 603.686 603.676 603.679 603.719 603.656 603.15 603.191 603.203 603.055 603.015 603.012 603.029 603.085 603.031 603.098 603.719 604.308 604.756 604.915 604.789 604.563 604.496 604.495 604.454 604.569 604.446 604.374 604.153 603.715 602.791 601.755 601.611 601.745 602.188 602.089 602.011 602.116 602.065 601.965 601.996 602.113 602.015 602 601.956 601.616 601.462 601.581 601.514 601.198 601.14 600.779 600.254 599.397 598.601 597.572 596.531 595.753 594.738 593.682 592.451 591.743 590.908 590.451 589.816 589.285 588.736 587.987 587.798 587.594 587.601 587.671 587.702 587.645 587.58 587.375 587.464 587.94 588.315 588.379 588.586 589.091 589.343 589.236 589.116 589.518 589.648 589.716 589.728 589.601 589.479 589.414 589.349 589.306 589.304 589.27 589.1 589.019 588.918 588.775 588.715 588.575 588.636 588.618 588.592 588.813 589.007 589.198 589.222 589.325 589.413 589.412 589.173 589.097 589.025 589.236 589.128 588.979 589.017 589.272 590.27 590.869 590.647 589.719 589.407 589.679 590.167 590.536 590.56 590.431 590.347 590.294 590.123 590.073 589.875 589.614 589.441 589.244 589.125 588.965 588.846 588.596 588.42 588.246 587.883 587.595 587.457 587.167 586.985 586.696 586.455 586.046 585.873 585.657 585.366 585.277 585.104 584.764 584.487 584.126 583.804 583.584 583.359 583.09 582.78 582.535 582.31 582.145 581.896 581.698 581.517 581.262 581.007 580.785 580.647 580.487 580.315 580.126 580.024 579.84 579.599 579.258 579.008 578.925 578.779 578.562 578.357 578.095 577.994 577.912 577.81 577.6 577.4 577.189 577.043 576.891 576.721 576.542 576.298 575.958 575.647 575.535 575.353 575.3 575.149 574.931 574.373 573.976 573.744 573.241 573.132 573.407 573.572 573.493 573.628 573.537 573.856 573.795 573.641 573.584 573.637 573.712 573.706 573.656 573.706 573.464 573.492 573.277 573.267 573.097 573.006 572.964 572.796 572.755 572.626 572.658 572.554 572.383 572.372 572.23 572.154 571.923 571.698 571.47 571.462 571.492 571.259 571.265 571.082 570.9 570.762 570.649 570.487 570.411 570.296 570.129 569.946 569.917 569.655 569.411 569.207 569.176 569.094 568.943 568.715 568.535 568.456 568.229 568.062 567.856 567.698 567.501 567.311 567.235 566.952 566.243 565.721 565.622 565.417 565.416 565.053 564.796 564.371 564.084 563.548 563.058 562.828
586.854 587.018 586.987 586.912 586.672 586.33 586.062 586.615 586.657 586.714 586.519 586.546 586.746 587.274 587.597 588.033 588.581 589.297 590.042 590.594 591.091 591.68 592.514 593.285 593.822 594.359 595.382 596.315 597.199 597.844 598.377 598.575 598.584 598.656 598.87 599.153 599.367 599.482 599.596 599.733 599.814 599.921 599.942 599.914 599.931 599.945 599.807 599.459 599.686 599.977 599.956 599.781 599.629 599.633 599.817 600.225 600.747 601.062 601.273 601.211 601.227 601.248 601.182 601.247 601.184 601.273 601.284 601.318 601.365 601.495 601.422 601.502 601.664 601.853 601.825 601.748 602.229 602.838 601.975 602.141 602.208 602.328 602.433 602.441 602.398 602.58 602.9 603.295 603.715 603.789 603.862 603.75 603.686 603.661 603.751 603.809 603.5 603.098 603.213 603.281 603.062 603.033 603.017 603.013 603.171 603.171 603.479 603.92 604.271 605.044 605.156 605.042 604.785 604.485 604.442 604.429 604.582 604.406 604.167 604.023 603.342 602.868 602.175 601.782 601.91 601.877 601.908 601.792 601.849 601.825 601.868 601.934 601.948 601.981 602.012 602.169 601.792 601.282 601.129 601.217 600.753 600.497 600.254 600.057 599.201 598.178 597.205 596.406 595.502 594.704 593.654 592.585 591.617 590.99 590.221 589.643 589.376 588.693 588.27 587.989 587.467 587.456 587.58 587.523 587.432 587.279 586.859 587.001 587.846 587.993 588.293 588.276 588.539 588.824 589.047 589.401 589.603 589.544 589.557 589.568 589.56 589.425 589.364 589.446 589.387 589.389 589.337 589.143 589.047 588.796 588.703 588.532 588.518 588.607 588.643 588.734 589.05 589.253 589.321 589.377 589.479 589.638 589.896 589.422 589.394 589.472 589.546 589.724 589.444 589.54 589.92 590.961 591.392 591.208 590.32 590.033 590.271 590.603 591.023 590.921 590.696 590.658 590.653 590.438 590.235 590.122 589.989 589.753 589.551 589.344 589.11 589.057 588.904 588.69 588.406 588.154 587.874 587.768 587.474 587.082 586.825 586.672 586.263 585.946 585.686 585.557 585.376 585.189 584.935 584.56 584.169 583.895 583.743 583.487 583.173 582.898 582.587 582.41 582.17 581.955 581.72 581.501 581.311 581.006 580.772 580.674 580.462 580.335 580.088 580.012 579.854 579.607 579.329 579.153 578.988 578.817 578.595 578.523 578.401 578.32 578.208 577.994 577.726 577.538 577.372 577.266 577.039 576.81 576.521 576.227 575.939 575.837 575.664 575.662 575.467 575.329 575.069 574.514 574.041 573.701 573.071 573.335 573.825 573.949 574.065 574.053 574.124 574.222 574.238 574.106 573.787 573.832 573.86 573.918 573.826 573.821 573.726 573.646 573.732 573.42 573.385 573.278 573.156 572.972 572.868 572.939 572.794 572.822 572.622 572.526 572.489 572.282 572.273 571.978 571.943 571.631 571.603 571.616 571.343 571.119 571.132 570.97 570.862 570.704 570.543 570.461 570.315 570.056 569.988 569.746 569.598 569.404 569.257 569.15 569.074 568.739 568.653 568.442 568.207 568.129 567.995 567.732 567.503 567.396 567.287 566.813 566.446 566.077 565.314 565.115 565.028 565.048 564.764 564.354 564.234 564.115 563.723 563.546
586.772 586.896 586.891 586.873 586.728 586.662 586.581 586.727 586.717 586.633 586.508 586.603 586.675 587.095 587.424 587.871 588.539 589.054 589.749 590.188 590.856 591.546 592.507 593.375 593.962 594.621 595.139 596.33 597.247 597.888 598.489 598.674 598.754 598.892 599.233 599.521 599.607 599.658 599.691 599.759 599.952 599.934 599.979 599.961 599.951 599.972 599.875 599.625 599.665 599.689 599.607 599.51 599.544 599.659 599.927 600.233 600.684 601.039 601.192 601.205 601.234 601.335 601.292 601.262 601.292 601.411 601.46 601.527 601.507 601.572 601.61 601.616 601.719 601.87 601.843 601.909 602.097 602.838 602.162 602.086 602.147 602.327 602.378 602.472 602.418 602.483 603.215 603.365 603.957 603.762 603.98 603.833 603.614 603.658 603.873 603.887 603.82 603.56 603.371 603.518 603.604 603.25 602.97 603.039 603.414 603.809 603.946 604.309 604.657 605.021 605.014 604.959 604.757 604.546 604.399 604.399 604.314 604.299 604.126 603.721 603.243 602.641 602.183 601.944 601.796 601.74 601.642 601.714 601.803 601.69 601.701 601.655 601.834 601.945 601.866 601.704 601.186 601.143 600.954 600.536 600.328 600.403 600.22 599.562 598.903 597.944 597.069 596.226 595.269 594.551 593.617 592.538 591.675 591.111 590.499 590.102 589.573 589.159 588.656 588.137 587.839 587.635 587.383 587.392 587.303 587.245 587.153 587.302 587.689 587.889 588.098 588.148 588.273 588.38 588.976 589.426 589.49 589.58 589.511 589.462 589.432 589.458 589.434 589.503 589.528 589.465 589.442 589.305 588.994 588.779 588.714 588.691 588.536 588.586 588.604 588.827 589.37 589.566 589.657 589.777 590.037 590.241 590.229 590.155 590.159 590.034 590.147 590.289 590.133 590.008 590.39 591.473 591.656 591.739 591.059 590.669 591.336 591.284 591.492 591.347 591.208 590.941 590.825 590.785 590.672 590.393 590.21 590.044 589.796 589.57 589.324 589.229 589.048 588.915 588.602 588.34 588.029 587.782 587.503 587.304 586.942 586.681 586.31 586.002 585.817 585.657 585.463 585.223 585.002 584.774 584.345 583.929 583.768 583.575 583.314 583.099 582.75 582.543 582.265 581.995 581.878 581.713 581.337 581.101 580.944 580.805 580.542 580.404 580.257 580.086 579.956 579.677 579.424 579.207 579.128 578.998 578.802 578.653 578.597 578.422 578.234 578.07 577.848 577.599 577.483 577.388 577.138 576.927 576.582 576.277 576.089 576.068 575.979 575.869 575.738 575.492 574.965 574.627 574.212 573.791 573.295 573.525 573.923 574.159 574.308 574.418 574.497 574.652 574.445 574.351 574.238 574.122 574.167 574.045 574.005 574.025 573.975 573.984 573.813 573.702 573.696 573.501 573.335 573.235 573.138 573.016 573.032 572.946 572.79 572.76 572.624 572.414 572.333 572.17 572.076 571.835 571.656 571.633 571.493 571.199 571.246 571.154 570.935 570.842 570.835 570.68 570.585 570.682 570.321 570.133 569.823 569.751 569.612 569.509 569.513 569.339 569.178 568.862 568.662 568.516 568.247 568.013 567.485 567.288 567.087 566.782 566.377 565.905 565.678 565.475 565.293 565.042 564.765 564.536 564.214 564.222 563.796 563.591
586.757 586.751 586.739 586.65 586.671 586.556 586.609 586.695 586.673 586.615 586.534 586.59 586.758 587.075 587.543 587.817 588.321 589.001 589.43 589.765 590.545 591.449 592.518 593.396 593.896 594.441 595.449 596.323 597.285 597.846 598.449 598.701 598.899 599.081 599.404 599.676 599.747 599.83 599.946 599.856 599.914 599.915 600.008 599.976 599.938 599.82 599.796 599.601 599.563 599.532 599.421 599.407 599.476 599.729 600.031 600.316 600.652 601.012 601.119 601.272 601.222 601.285 601.31 601.382 601.375 601.425 601.452 601.514 601.557 601.572 601.679 601.791 601.901 601.943 601.938 601.993 601.989 603.023 602.526 602.082 602.125 602.374 602.417 602.383 602.267 602.303 603.179 603.542 603.775 603.795 603.888 603.746 603.648 603.731 603.94 603.948 603.721 603.541 603.427 603.523 603.581 603.522 603.03 603.161 603.385 603.928 604.328 604.637 604.987 604.968 604.953 604.864 604.789 604.619 604.484 604.226 603.905 603.984 603.962 603.305 602.743 602.558 602.069 601.915 601.708 601.681 601.6 601.605 601.511 601.542 601.467 601.572 601.62 601.711 601.489 601.248 601.108 601.026 600.92 600.567 600.416 600.359 600.163 599.319 598.729 598.048 596.952 596.059 595.215 594.566 593.393 592.599 591.735 591.23 590.603 590.079 589.638 589.231 588.879 588.35 588.023 587.663 587.348 587.219 587.262 587.187 587.271 587.457 587.605 587.64 587.633 587.238 586.987 587.499 588.539 589.143 589.5 589.641 589.717 589.583 589.593 589.544 589.507 589.5 589.534 589.514 589.508 589.381 589.133 588.898 588.771 588.677 588.586 588.558 588.643 588.84 589.343 589.711 590.101 590.197 590.406 590.794 591.075 590.984 590.807 590.733 590.829 590.703 590.76 590.546 591.025 591.908 592.157 592.206 592.035 592.202 592.022 591.861 591.767 591.718 591.606 591.467 591.22 590.957 590.9 590.712 590.549 590.197 590.041 589.789 589.561 589.436 589.157 589.029 588.725 588.498 588.158 587.979 587.712 587.369 587.064 586.869 586.48 586.19 585.933 585.755 585.585 585.368 585.08 584.753 584.26 584.102 583.985 583.615 583.312 583.084 582.82 582.644 582.332 582.128 581.842 581.68 581.404 581.22 580.899 580.746 580.563 580.445 580.293 580.089 579.937 579.76 579.454 579.318 579.237 579.113 578.97 578.856 578.666 578.611 578.411 578.152 577.93 577.731 577.608 577.477 577.269 577.009 576.74 576.453 576.221 576.105 576.032 575.99 575.817 575.615 575.126 574.386 573.603 573.394 573.582 574.192 574.344 574.605 574.861 574.852 574.913 574.946 574.767 574.687 574.575 574.438 574.264 574.289 574.288 574.167 574.165 574.062 573.974 573.911 573.893 573.578 573.418 573.31 573.29 573.227 573.152 573.009 573.03 572.786 572.608 572.552 572.596 572.368 572.242 572.001 571.991 571.919 571.741 571.598 571.468 571.378 571.372 570.973 571.173 570.786 570.795 570.739 570.45 570.265 570.045 569.9 569.701 569.465 569.492 569.414 569.106 568.975 568.8 568.51 568.209 567.788 567.449 567.197 566.908 566.689 566.704 566.49 566.425 566.251 566.249 565.182 565.091 565.138 564.814 564.515 564.57 564.383
586.601 586.663 586.557 586.426 586.495 586.441 586.533 586.625 586.599 586.592 586.581 586.7 586.865 587.108 587.401 587.86 588.305 588.693 589.079 589.642 590.336 591.445 592.428 593.381 594.072 594.607 595.415 596.494 597.427 597.881 598.398 598.77 598.959 599.277 599.477 599.685 599.883 599.933 599.976 600.006 600.091 599.963 599.906 599.99 599.946 599.841 599.712 599.475 599.44 599.377 599.348 599.326 599.46 599.758 600.003 600.31 600.557 600.773 601.017 601.231 601.308 601.25 601.334 601.374 601.424 601.454 601.464 601.523 601.619 601.7 601.755 601.803 601.869 601.933 602.086 602.102 602.128 602.861 602.948 602.219 602.076 602.303 602.384 602.389 602.315 602.299 603.033 603.402 603.75 603.734 603.813 603.763 603.725 603.73 603.933 604.023 603.815 603.495 603.482 603.555 603.577 603.547 603.496 603.388 603.284 603.57 603.835 604.099 604.026 604.801 604.76 604.734 604.728 604.562 604.44 604.128 603.935 603.791 603.576 603.076 602.552 602.466 602.095 601.791 601.647 601.583 601.471 601.462 601.483 601.375 601.374 601.397 601.535 601.297 601.147 600.938 600.972 600.827 600.756 600.322 600.184 600.161 599.918 599.275 598.316 597.532 596.953 595.862 595.099 594.286 593.575 592.673 592.122 591.331 590.666 590.33 589.917 589.676 589.24 588.745 588.481 588.069 587.54 587.381 587.057 587.074 587.134 587.19 587.308 587.24 587.146 587.136 587.122 587.598 588.46 589.192 589.473 589.583 589.621 589.641 589.591 589.488 589.554 589.608 589.514 589.475 589.552 589.448 589.154 589.057 588.886 588.612 588.58 588.674 588.756 589.063 589.556 590.122 590.537 590.573 591.017 591.348 591.837 591.755 591.866 591.741 591.841 591.823 591.898 591.635 591.46 592.351 592.547 592.529 592.55 592.535 592.291 592.181 592.047 592.047 591.941 591.669 591.501 591.204 591.23 590.982 590.761 590.464 590.243 589.993 589.853 589.594 589.294 589.091 588.833 588.627 588.412 588.192 587.664 587.623 587.308 587.027 586.527 586.206 586.025 585.921 585.722 585.483 585.148 584.927 584.545 584.224 584.101 583.95 583.47 583.211 582.866 582.667 582.373 582.068 581.864 581.602 581.287 581.099 580.871 580.667 580.52 580.345 580.232 580.071 579.883 579.698 579.535 579.422 579.326 579.2 579.115 579.022 578.885 578.637 578.469 578.319 578.025 577.885 577.7 577.559 577.371 577.075 576.723 576.514 576.507 576.521 576.336 576.148 575.982 575.724 575.102 574.71 574.015 574.082 574.178 574.739 575.051 575.086 575.095 575.133 575.123 575.042 574.969 575.018 574.869 574.739 574.516 574.515 574.443 574.439 574.397 574.268 574.138 574.016 574.015 573.853 573.618 573.514 573.549 573.403 573.3 573.34 573.161 573.116 572.976 572.858 572.801 572.55 572.364 572.197 572.106 571.959 571.947 571.752 571.644 571.574 571.204 571.221 571.04 570.981 570.916 570.691 570.569 570.513 570.225 570.025 569.827 569.667 569.601 569.586 569.408 569.214 568.969 568.677 568.157 567.73 566.961 566.526 566.554 566.935 566.931 566.916 566.797 566.88 566.538 566.132 565.232 565.249 565.026 564.954 564.931 564.914
586.487 586.414 586.418 586.333 586.415 586.387 586.367 586.38 586.543 586.583 586.653 586.82 587 587.246 587.543 587.796 588.196 588.533 588.844 589.397 590.326 591.476 592.567 593.417 593.946 594.78 595.648 596.372 597.086 597.804 598.44 598.827 599.088 599.308 599.471 599.645 599.852 600.002 600.036 600.109 600.148 600.104 600.005 599.951 599.864 599.908 599.851 599.572 599.448 599.296 599.239 599.228 599.408 599.751 599.929 600.297 600.52 600.661 600.901 601.159 601.325 601.385 601.352 601.372 601.376 601.484 601.509 601.624 601.758 601.817 601.864 601.859 602.011 602.076 602.044 602.112 602.133 602.164 602.332 602.313 602.338 602.317 602.349 602.33 602.321 602.185 603.051 603.706 603.892 603.858 603.864 603.952 604.033 603.915 604.013 604.064 603.987 603.567 603.513 603.58 603.581 603.578 603.524 603.403 603.328 603.343 603.511 603.734 604.008 604.567 604.753 604.694 604.591 604.475 604.328 604.227 603.716 603.571 603.096 602.575 602.436 602.241 601.918 601.729 601.65 601.6 601.603 601.532 601.421 601.37 601.332 601.25 601.27 601.176 601.026 600.978 600.684 600.375 600.241 599.927 599.691 599.858 599.569 598.991 598.453 597.989 597.151 596.431 595.324 594.462 593.84 593.103 592.272 591.555 591.26 590.44 590.097 589.781 589.277 588.966 588.665 588.21 587.786 587.433 587.153 586.926 587.115 587.245 587.175 586.929 587.137 587.052 587.158 587.675 588.45 589.079 588.96 588.882 589.108 589.366 589.63 589.553 589.535 589.544 589.532 589.577 589.631 589.613 589.48 589.293 589.343 589.23 589.448 589.497 589.692 589.854 590.229 590.553 590.607 590.763 591.287 591.834 592.222 592.223 592.149 592.32 592.415 592.442 592.621 592.486 592.381 592.706 592.839 592.895 592.818 592.844 592.672 592.64 592.569 592.43 592.183 592.023 591.81 591.479 591.416 591.201 591.029 590.675 590.53 590.332 590.07 589.784 589.534 589.26 588.981 588.749 588.438 588.281 587.971 587.791 587.474 587.058 586.716 586.493 586.316 586.086 585.781 585.699 585.399 585.034 584.726 584.338 584.171 583.995 583.722 583.298 583.065 582.716 582.501 582.213 581.867 581.698 581.403 581.157 580.959 580.74 580.63 580.405 580.192 580.096 579.966 579.791 579.593 579.509 579.395 579.295 579.2 579.112 578.87 578.744 578.435 578.204 578.083 577.91 577.68 577.543 577.338 577.072 576.886 576.762 576.632 576.553 576.466 576.208 576.007 575.64 574.921 574.694 573.871 574.659 575.128 575.347 575.342 575.354 575.367 575.317 575.398 575.448 575.409 575.36 575.288 575.114 574.779 574.758 574.722 574.623 574.518 574.436 574.292 574.214 574.165 574.019 574.001 573.743 573.548 573.629 573.384 573.3 573.239 573.209 573.135 573.187 572.917 572.708 572.51 572.391 572.24 572.273 572.047 571.844 571.725 571.663 571.563 571.425 571.305 571.273 571.167 570.981 570.903 570.74 570.48 570.232 570.013 569.963 569.704 569.528 569.383 569.181 569.074 568.748 567.961 567.521 567.017 566.362 566.579 566.821 566.842 566.933 566.849 566.778 566.621 566.353 566.135 565.898 565.743 565.362 565.369 565.433
586.516 586.36 586.323 586.172 586.166 586.119 586.028 586.095 586.314 586.668 586.84 586.959 587.037 587.244 587.627 587.982 588.311 588.461 588.862 589.56 590.505 591.352 592.286 593.28 594.285 594.784 595.529 596.286 597.057 597.883 598.312 598.69 599.078 599.26 599.42 599.665 599.713 599.873 600.072 600.148 600.174 600.138 600.018 599.942 599.952 600.028 599.763 599.559 599.479 599.284 599.302 599.244 599.343 599.594 599.8 600.119 600.34 600.528 600.741 600.911 601.169 601.255 601.445 601.433 601.441 601.529 601.632 601.715 601.832 601.842 601.928 602.016 601.997 602.055 602.042 602.109 602.143 602.176 602.164 602.181 602.234 602.242 602.191 602.161 602.164 602.73 603.182 603.627 603.826 603.954 603.955 604.212 604.379 604.13 604.146 604.047 603.824 603.425 603.354 603.54 603.56 603.512 603.517 603.434 603.305 603.075 603.177 603.549 604.181 604.443 604.413 604.48 604.374 604.289 604.149 604.043 603.658 603.282 602.779 602.193 602.135 602 601.856 601.722 601.701 601.714 601.638 601.588 601.446 601.375 601.422 601.235 601.292 601.108 601.128 600.962 600.516 600.238 600.136 599.928 599.891 599.803 599.587 598.997 598.43 597.827 596.998 596.231 595.404 594.463 593.756 593.034 592.384 591.549 590.948 590.642 590.26 589.959 589.709 589.357 589.36 588.709 588.25 587.86 587.617 587.651 587.574 587.571 587.444 587.315 587.255 587.356 587.632 588.108 588.484 588.504 588.445 588.345 588.48 589.232 589.537 589.58 589.541 589.505 589.613 589.599 589.653 589.668 589.572 589.539 589.667 589.592 589.751 590.001 590.181 590.431 590.633 590.776 590.714 590.865 591.688 592.577 592.902 592.81 592.974 592.738 592.72 592.843 592.931 593.086 592.97 593.177 593.266 593.238 593.096 593.016 593.134 592.907 592.906 592.729 592.466 592.401 591.982 591.829 591.667 591.37 591.055 590.917 590.752 590.518 590.259 589.968 589.655 589.391 589.286 588.975 588.581 588.303 588.073 587.912 587.592 587.333 586.875 586.605 586.414 586.21 585.969 585.708 585.501 585.125 584.755 584.486 584.312 584.063 583.803 583.452 583.164 582.885 582.597 582.304 582.042 581.859 581.712 581.238 581.1 580.817 580.569 580.417 580.185 580.102 580.036 579.86 579.812 579.573 579.531 579.399 579.244 579.093 578.92 578.621 578.385 578.158 577.964 577.915 577.782 577.584 577.379 577.132 576.945 576.819 576.811 576.67 576.48 576.115 576.066 575.603 574.951 574.482 574.512 575.206 575.492 575.507 575.567 575.595 575.546 575.57 575.601 575.566 575.568 575.51 575.463 575.222 574.992 575.028 574.807 574.794 574.612 574.623 574.512 574.333 574.349 574.365 574.192 574.061 573.928 573.857 573.687 573.556 573.581 573.547 573.401 573.306 573.091 572.997 572.782 572.617 572.666 572.435 572.218 571.998 571.863 571.774 571.711 571.422 571.312 571.261 571.229 571.094 570.942 570.705 570.435 570.304 570.019 569.956 569.717 569.481 569.389 569.313 569.009 568.506 567.953 567.353 566.867 566.886 566.172 567.106 567.337 567.261 567.238 567.19 567 566.853 566.723 566.399 566.075 565.562 565.579 565.801
586.39 586.326 586.183 586.016 585.858 585.929 585.87 585.936 586.333 586.675 586.992 587.167 587.182 587.497 587.849 588.029 588.245 588.443 588.925 589.722 590.529 591.272 592.353 593.301 594.165 594.919 595.763 596.288 597.112 597.823 598.311 598.728 598.967 599.12 599.197 599.541 599.832 600.032 600.048 600.234 600.152 600.092 599.999 599.972 599.903 599.954 599.853 599.636 599.369 599.411 599.355 599.372 599.207 599.464 599.711 600.033 600.228 600.437 600.605 600.769 600.933 601.214 601.386 601.477 601.542 601.544 601.691 601.839 601.905 601.894 601.929 601.931 601.948 602.021 602.096 602.111 602.155 602.139 602.287 603.063 602.134 602.136 602.136 602.137 602.318 602.982 603.404 603.501 603.887 604.044 604.111 604.362 604.608 604.374 604.138 603.911 603.542 603.188 603.235 603.34 603.445 603.402 603.432 603.416 603.367 603.06 603.063 603.633 603.953 604.162 604.355 604.325 604.221 604.11 603.903 603.558 603.484 603.192 602.656 602.018 601.885 601.99 601.792 601.741 601.719 601.655 601.614 601.613 601.583 601.487 601.329 601.291 601.211 600.987 600.951 600.798 600.353 600.266 600.365 600.041 600.038 599.669 599.211 598.69 598.553 597.945 597.199 596.36 595.356 594.753 594.061 593.39 592.685 592.163 591.663 591.301 591.024 590.537 590.362 589.975 589.578 589.101 588.499 588.278 587.953 587.747 587.683 587.665 587.532 587.418 587.369 587.404 587.716 588.191 588.353 588.416 588.065 588.011 588.221 588.657 589.492 589.531 589.548 589.729 589.636 589.619 589.64 589.77 590.02 589.938 589.996 590.123 590.232 590.515 590.843 591.171 591.351 591.53 591.275 591.918 592.399 593.238 593.5 593.586 593.296 593.13 593.068 593.327 593.279 593.514 593.331 593.5 593.533 593.615 593.41 593.277 593.56 593.317 593.186 593.047 592.681 592.52 592.258 592.082 591.851 591.626 591.332 591.206 590.882 590.716 590.428 590.089 589.78 589.628 589.412 589.135 588.781 588.473 588.248 588.046 587.705 587.393 587.066 586.777 586.464 586.257 586.058 585.806 585.503 585.366 584.86 584.571 584.457 584.241 584.039 583.774 583.446 583.072 582.752 582.429 582.148 582.009 581.77 581.336 581.13 580.8 580.554 580.43 580.231 580.103 579.983 579.913 579.797 579.684 579.589 579.387 579.244 579.037 578.853 578.629 578.397 578.226 578.089 577.93 577.767 577.693 577.518 577.412 577.278 577.221 577.15 576.831 576.521 576.245 575.922 575.314 574.827 574.323 574.916 575.664 575.81 575.901 575.843 575.859 575.933 575.912 575.956 575.849 575.817 575.706 575.708 575.531 575.397 575.249 575.143 575.096 575.052 574.865 574.783 574.551 574.45 574.317 574.252 574.144 574.053 573.967 573.778 573.676 573.68 573.641 573.486 573.281 573.112 573.045 572.738 572.705 572.497 572.531 572.385 572.161 571.998 571.927 571.826 571.633 571.422 571.504 571.412 571.347 571.149 570.862 570.823 570.65 570.189 569.97 569.921 569.768 569.567 569.622 568.845 568.019 567.471 567.188 567.017 566.717 567.21 567.335 567.381 567.316 567.273 567.051 567.046 566.865 566.55 566.411 565.819 565.737 565.644 566.189
586.254 586.202 586.03 585.982 585.829 585.87 585.763 585.867 586.258 586.672 586.984 587.445 587.584 587.653 587.886 588.177 588.36 588.426 589.062 589.948 590.872 591.952 592.523 593.593 594.236 594.776 595.558 596.405 597.302 598.011 598.395 598.642 598.824 599.031 599.133 599.337 599.633 599.791 599.915 600.088 600.152 600.082 599.981 599.92 599.873 599.873 599.81 599.605 599.359 599.423 599.64 599.543 599.118 599.281 599.644 599.936 600.144 600.373 600.512 600.719 600.926 601.152 601.409 601.489 601.641 601.641 601.885 601.982 602.008 602.036 601.91 601.923 602 602.059 602.134 602.118 602.098 601.97 602.097 602.307 602.176 601.984 601.981 601.998 602.085 603.096 603.456 603.672 604.013 604.012 604.62 604.601 604.316 604.005 603.756 603.695 603.303 603.156 603.171 603.313 603.435 603.46 603.347 603.371 603.27 603.049 603.086 603.614 603.789 603.802 603.915 604.064 604.019 603.872 603.591 602.983 602.621 601.988 601.726 601.081 601.203 601.089 601.349 601.641 601.687 601.65 601.669 601.583 601.599 601.428 601.294 601.252 601.204 600.947 600.751 600.562 600.381 599.968 599.817 599.786 599.778 599.524 599.214 598.732 598.269 597.581 597.003 596.021 595.497 594.751 594.084 593.538 592.865 592.444 592.218 591.722 591.068 590.626 590.57 590.14 589.94 589.33 588.846 588.511 588.444 588.06 588.093 588.008 587.921 587.899 587.736 587.647 587.647 587.736 587.801 587.703 587.388 587.163 588.073 588.728 589.334 589.598 589.595 589.621 589.675 589.695 589.688 589.833 590.104 590.185 590.234 590.326 590.533 590.901 591.22 591.457 591.676 591.866 591.538 592.12 593.106 593.645 593.888 593.853 593.775 593.637 593.53 593.757 593.89 593.949 593.681 593.749 593.875 593.874 593.785 593.674 593.821 593.628 593.503 593.346 592.96 592.563 592.403 592.225 592.058 591.866 591.558 591.397 591.128 590.882 590.523 590.364 590.126 589.763 589.537 589.215 588.876 588.639 588.34 588.039 587.878 587.522 587.245 587.015 586.674 586.408 586.109 585.909 585.615 585.408 585.078 584.721 584.552 584.434 584.264 583.928 583.6 583.289 582.96 582.507 582.302 582.114 581.793 581.378 581.094 580.829 580.703 580.358 580.27 580.165 580.039 579.837 579.853 579.735 579.58 579.351 579.125 578.929 578.716 578.601 578.459 578.284 578.167 578.102 577.852 577.929 577.848 577.723 577.548 577.283 577.091 576.752 576.385 575.994 575.412 574.985 575.126 575.094 575.976 576.343 576.259 576.25 576.097 576.081 576.084 576.097 576.141 576.017 575.999 575.845 575.795 575.682 575.622 575.526 575.279 575.255 575.095 574.918 574.772 574.629 574.582 574.286 574.36 574.201 574.227 574.081 573.951 573.918 573.913 573.841 573.607 573.529 573.329 573.164 573.112 573.122 572.804 572.71 572.699 572.448 572.258 572.171 572.083 571.71 571.567 571.547 571.424 571.373 571.135 571.037 570.9 570.737 570.32 569.958 569.797 569.778 569.71 569.528 569.126 567.81 567.282 567.038 567.665 567.802 567.699 567.688 567.69 567.539 567.423 567.333 567.295 567.091 566.911 566.715 566.59 566.285 566.21 566.273
586.258 586.028 585.912 585.748 585.683 585.644 585.696 585.839 586.001 586.394 586.756 587.106 587.44 587.674 587.965 588.072 588.263 588.6 589.55 590.207 590.911 591.794 592.86 593.647 594.412 594.919 595.555 596.435 597.168 597.953 598.369 598.596 598.828 598.95 599.022 599.15 599.512 599.626 599.659 599.918 599.939 600.026 599.918 599.886 599.853 599.865 599.884 599.527 599.375 599.598 599.712 599.487 599.246 598.914 599.502 599.853 600.132 600.461 600.62 600.762 600.882 601.091 601.391 601.538 601.7 601.743 601.823 601.993 602.034 602.018 602.027 601.976 602.044 602.078 602.121 602 602.009 601.96 602.022 602.111 602.067 601.903 601.854 602.003 602.359 603.021 603.512 603.84 603.948 604.655 604.789 604.76 604.102 603.797 603.511 603.421 603.161 603.021 603.159 603.341 603.365 603.399 603.377 603.375 603.199 602.938 602.865 603.197 602.994 602.955 603.121 603.588 603.766 603.429 602.98 602.399 601.928 601.709 601.545 600.997 600.916 601.073 601.269 601.572 601.661 601.736 601.663 601.584 601.574 601.485 601.464 601.335 601.126 600.638 600.609 600.428 600.152 599.831 599.638 599.524 599.464 599.305 598.88 598.484 598.091 597.484 596.831 596.25 595.398 594.939 594.394 593.979 593.49 593.165 592.829 592.408 592.009 591.67 591.195 590.649 590.455 589.867 589.63 589.219 588.723 588.381 588.266 588.298 588.235 588.227 588.222 588.076 587.851 587.706 587.77 587.679 587.384 587.184 587.91 588.618 589.398 589.683 589.729 589.71 589.684 589.786 589.915 590.174 590.367 590.441 590.644 590.818 591.148 591.607 591.803 591.869 591.934 592.284 592.384 592.664 593.837 594.155 594.216 594.248 594.169 594.078 594.075 594.107 594.242 594.321 594.044 593.916 593.906 593.886 593.932 593.909 593.935 593.894 593.634 593.578 593.157 592.795 592.583 592.472 592.242 591.972 591.742 591.44 591.298 591.057 590.725 590.459 590.229 589.946 589.669 589.341 589.021 588.771 588.535 588.279 587.924 587.687 587.367 587.161 586.889 586.568 586.233 585.987 585.801 585.599 585.08 584.878 584.661 584.522 584.31 584.013 583.708 583.412 583.095 582.684 582.399 582.223 581.829 581.427 581.009 580.969 580.857 580.534 580.416 580.231 580.095 579.992 579.858 579.718 579.705 579.417 579.131 578.994 578.831 578.815 578.686 578.54 578.429 578.368 578.259 578.047 577.952 577.845 577.663 577.457 577.236 576.855 576.38 575.913 575.45 575.137 575.808 575.708 576.279 576.422 576.347 576.405 576.319 576.307 576.253 576.276 576.341 576.319 576.2 576.247 576.078 575.961 575.877 575.823 575.655 575.564 575.496 575.333 575.089 574.875 574.792 574.67 574.552 574.427 574.409 574.197 574.084 574.003 573.994 573.909 573.827 573.606 573.364 573.166 573.205 573.142 572.983 572.867 572.689 572.508 572.239 572.265 572.22 571.902 571.564 571.735 571.557 571.469 571.354 571.234 571.032 570.925 570.45 570.153 569.905 569.628 569.633 569.262 568.515 567.833 567.66 567.997 568.251 568.095 567.997 567.944 567.807 567.683 567.695 567.567 567.475 567.062 566.944 566.798 566.544 566.364 566.435 566.486
586.102 585.878 585.699 585.571 585.544 585.608 585.599 585.719 586.025 586.328 586.668 586.904 587.239 587.472 587.813 588.086 588.347 588.731 589.359 590.196 591.37 592.066 592.822 593.808 594.482 595.038 595.554 596.174 597.182 597.789 598.177 598.453 598.655 598.887 599.028 599.187 599.371 599.489 599.548 599.653 599.774 599.903 599.862 599.934 599.822 599.81 599.721 599.501 599.519 599.752 599.734 599.783 599.714 599.492 599.638 599.76 600.099 600.328 600.471 600.819 600.867 601.131 601.402 601.535 601.682 601.772 601.831 601.953 602.009 602.048 602.073 601.965 601.966 601.993 602.022 601.963 601.976 601.962 602.004 602.001 602.338 601.933 601.937 602.367 602.861 603.109 603.419 603.695 604.097 604.504 604.667 604.514 603.987 603.796 603.742 603.611 603.263 603.1 603.193 603.335 603.37 603.388 603.354 603.276 603.187 602.915 602.997 602.968 602.809 602.656 603.052 603.438 603.655 603.09 602.227 601.837 601.548 601.25 600.82 600.499 600.764 600.81 601.268 601.557 601.74 601.772 601.852 601.925 602.029 601.67 601.645 601.087 600.908 600.615 600.394 600.287 600.006 599.819 599.662 599.477 599.271 598.952 598.72 598.264 597.692 597.25 596.772 596.27 595.656 595.289 594.729 594.208 594.031 593.62 593.249 592.773 592.185 591.853 591.485 591.221 590.781 590.322 589.728 589.317 589.062 588.538 588.464 588.604 588.599 588.56 588.553 588.377 588.27 588.138 588.038 587.916 587.887 587.698 587.816 588.422 588.69 589.285 589.701 589.783 589.978 590.071 590.553 590.646 590.924 591.11 591.421 591.326 591.601 591.909 592.317 592.15 592.178 592.594 592.902 592.909 593.648 594.528 594.63 594.729 594.524 594.436 594.4 594.376 594.45 594.51 594.174 594.084 593.984 593.971 593.955 593.964 594.01 594.015 593.968 593.752 593.298 593.005 592.748 592.495 592.217 591.958 591.801 591.602 591.398 591.155 590.907 590.581 590.267 590.038 589.882 589.57 589.256 588.953 588.653 588.377 588.093 587.861 587.571 587.337 587.077 586.663 586.376 586.167 585.847 585.603 585.189 584.968 584.755 584.62 584.353 583.998 583.739 583.508 583.208 582.833 582.514 582.251 582.022 581.592 581.113 580.951 580.852 580.639 580.466 580.239 580.144 579.983 579.889 579.846 579.742 579.524 579.316 579.124 578.984 578.936 578.746 578.707 578.654 578.528 578.418 578.27 578.15 577.979 577.717 577.475 577.145 576.619 575.674 575.59 575.769 575.882 576.887 576.88 576.984 576.953 576.908 577.007 576.696 576.762 576.619 576.589 576.578 576.488 576.455 576.336 576.142 576.116 575.998 575.95 575.821 575.711 575.522 575.394 575.228 575.071 574.878 574.679 574.536 574.562 574.383 574.288 574.15 574.196 574.107 574.101 574.086 573.818 573.737 573.574 573.422 573.217 573.117 573.158 572.987 572.624 572.551 572.516 572.273 571.992 571.827 571.745 571.615 571.501 571.411 571.221 570.972 570.562 570.21 569.793 569.272 569.396 569.025 568.583 568.201 567.922 567.955 568.348 568.296 568.242 568.183 568.121 567.995 567.927 567.972 567.779 567.637 567.249 567.168 566.896 566.804 566.67 566.943 567.205
586.037 585.769 585.57 585.493 585.42 585.529 585.553 585.723 585.894 586.205 586.536 586.811 587.048 587.275 587.664 588.098 588.436 588.845 589.573 590.692 591.358 592.137 592.806 593.628 594.257 594.906 595.54 596.414 597.106 597.704 598.126 598.426 598.641 598.782 598.997 599.199 599.435 599.51 599.498 599.534 599.568 599.65 599.702 599.705 599.604 599.705 599.548 599.5 599.513 599.758 599.808 599.94 599.968 599.981 600.033 600.112 600.3 600.438 600.674 600.818 600.952 601.226 601.265 601.459 601.584 601.652 601.697 601.892 601.927 602.029 601.967 601.941 602.013 601.963 601.903 601.934 601.926 601.911 601.948 601.961 602.076 601.891 601.935 602.386 602.781 603.163 603.485 603.797 604.204 604.278 604.413 604.118 603.875 603.628 603.643 603.678 603.493 602.99 603.145 603.297 603.343 603.362 603.341 603.186 603.037 602.772 602.682 602.59 602.575 602.45 602.974 603.207 603.275 602.491 601.678 600.962 600.787 600.959 600.774 600.49 600.763 600.939 601.342 601.68 601.774 601.986 602.152 602.136 601.885 601.488 601.063 601.139 600.654 600.475 600.278 600.026 599.895 599.726 599.609 599.325 599.031 598.864 598.668 598.285 597.619 597.06 596.347 595.963 595.675 595.209 595.025 594.685 594.445 594.181 593.766 593.231 592.736 592.336 592.073 591.592 591.245 590.684 590.257 589.798 589.439 589.191 589.048 588.987 589.184 589.067 589.032 588.908 588.753 588.529 588.335 588.18 588.051 587.976 588.044 588.242 588.106 589.214 589.809 590.156 590.302 590.556 590.867 591.035 591.321 591.325 591.77 592.098 592.173 592.385 592.809 592.937 592.966 593.132 593.642 593.813 594.022 594.875 595.006 595.092 594.931 595.039 594.95 594.86 594.744 594.693 594.452 594.244 594.167 594.064 594.052 594.112 594.193 594.132 594.033 593.895 593.563 593.184 592.945 592.567 591.756 591.58 591.802 591.702 591.592 591.248 590.912 590.671 590.253 590.167 589.977 589.685 589.43 589.157 588.815 588.511 588.235 587.885 587.645 587.51 587.223 586.798 586.484 586.299 586.037 585.704 585.333 585.042 584.841 584.637 584.3 584.024 583.743 583.526 583.262 582.968 582.577 582.36 582.088 581.771 581.324 580.975 580.793 580.732 580.551 580.356 580.215 580.193 580.173 580.083 579.806 579.569 579.421 579.298 579.188 579.043 579.01 578.966 578.766 578.724 578.587 578.457 578.282 578.046 577.869 577.533 577.092 576.179 575.882 575.74 575.905 576.646 576.933 577.037 577.08 577.145 577.017 577.076 576.834 576.886 576.738 576.624 576.686 576.549 576.493 576.394 576.287 576.251 576.211 576.161 576.169 575.972 575.777 575.728 575.602 575.321 575.103 575.178 575.11 574.769 574.538 574.529 574.479 574.372 574.353 574.245 574.159 573.935 573.866 573.703 573.56 573.196 573.194 573.117 572.87 572.697 572.711 572.442 572.269 571.959 571.809 571.733 571.545 571.356 571.188 570.964 570.093 569.85 569.441 569.294 568.761 569.284 569.359 569.247 569.219 569.047 568.904 568.856 568.707 568.43 568.883 568.639 568.228 568.309 568.563 568.355 567.788 567.791 567.462 567.254 566.886 566.818 567.082 567.768
585.925 585.756 585.546 585.431 585.257 585.277 585.431 585.631 585.927 586.22 586.411 586.572 586.74 587.006 587.585 588.153 588.603 589.218 589.644 590.663 591.711 592.357 592.829 593.53 594.2 594.832 595.492 596.26 597.145 597.591 598.064 598.379 598.514 598.782 598.933 599.087 599.359 599.453 599.542 599.484 599.493 599.502 599.503 599.515 599.548 599.598 599.575 599.517 599.455 599.7 599.897 600.016 600.114 600.186 600.197 600.343 600.446 600.551 600.737 600.811 600.91 601.068 601.161 601.302 601.441 601.547 601.641 601.748 601.8 601.861 601.832 601.867 601.972 601.908 601.776 601.863 601.865 601.892 601.955 601.876 602.539 601.911 601.995 602.214 602.557 603.045 603.251 603.413 603.885 603.803 603.636 603.491 603.398 603.287 603.358 603.512 603.363 602.987 603.144 603.324 603.337 603.348 603.326 603.24 602.897 602.754 602.638 602.555 602.685 602.884 603.138 603.193 603.04 602.389 601.835 600.861 600.748 600.988 600.794 600.865 600.784 601.144 601.482 601.883 602.235 602.368 602.33 601.935 601.291 600.693 600.713 600.531 600.293 600.095 599.999 599.959 599.888 599.773 599.674 599.474 599.227 598.926 598.641 598.305 597.664 596.943 596.715 596.301 595.93 595.91 595.789 595.306 595.047 594.745 594.365 593.852 593.46 592.91 592.442 592.018 591.474 590.921 590.333 590.004 589.711 589.379 589.274 589.285 589.299 589.311 589.251 589.041 589.038 588.747 588.54 588.629 588.341 588.321 588.607 588.748 589.181 589.546 590.078 590.581 591.042 591.315 591.387 591.705 592.056 592.097 592.221 592.652 592.811 593.309 593.56 593.808 593.776 593.624 593.788 594.663 595.067 595.703 595.411 595.503 595.516 595.261 595.193 595.255 595.207 595.057 594.801 594.617 594.31 594.247 594.181 594.18 594.248 594.178 594.094 594.028 593.759 593.265 592.987 592.315 591.559 591.117 591.582 591.755 591.625 591.368 590.851 590.045 589.929 590.064 589.989 589.758 589.534 589.258 588.947 588.634 588.388 588.054 587.782 587.457 587.249 586.902 586.711 586.449 586.152 585.78 585.377 585.028 584.839 584.589 584.292 584.04 583.782 583.538 583.274 583.002 582.765 582.598 582.227 581.992 581.644 581.218 580.915 580.81 580.699 580.496 580.333 580.261 580.186 580.087 579.854 579.618 579.45 579.414 579.36 579.287 579.163 579.131 578.978 578.859 578.716 578.541 578.341 578.18 577.736 577.476 576.736 576.123 575.85 575.826 576.113 576.999 577.293 577.376 577.469 577.593 577.513 577.369 577.313 577.202 577.147 577.118 577.015 576.899 576.771 576.546 576.58 576.507 576.471 576.443 576.229 576.043 575.85 575.788 575.672 575.301 575.352 575.242 575.059 574.775 574.654 574.614 574.581 574.408 574.377 574.363 574.179 573.961 573.935 573.916 573.573 573.431 573.166 573.07 572.99 572.873 572.809 572.688 572.546 572.463 572.295 571.916 571.698 571.633 571.208 570.857 570.082 569.323 569.361 568.972 568.923 569.535 569.323 569.461 569.505 569.339 568.972 568.98 568.992 568.761 568.94 568.878 568.652 568.651 568.682 568.551 568.125 567.829 567.708 567.272 567.111 567.089 567.354 567.803
585.812 585.617 585.489 585.332 584.933 584.885 585.103 585.407 585.807 586.006 586.171 586.238 586.482 586.904 587.55 588.207 588.662 589.18 589.94 590.948 591.849 592.477 592.973 593.457 594.017 594.717 595.745 596.569 597.064 597.515 597.919 598.238 598.546 598.768 598.861 599.038 599.188 599.288 599.324 599.393 599.404 599.29 599.315 599.462 599.51 599.501 599.488 599.427 599.471 599.644 599.828 600.032 600.14 600.091 600.158 600.353 600.474 600.422 600.496 600.596 600.705 600.917 601.031 601.163 601.286 601.377 601.472 601.599 601.687 601.662 601.652 601.704 601.755 601.83 601.761 601.752 601.798 601.841 601.788 601.856 601.936 601.935 602.034 602.366 602.566 602.868 603.228 603.363 603.388 603.502 603.325 603.29 603.175 603.118 603.26 603.4 603.064 602.988 603.309 603.284 603.361 603.307 603.238 603.106 602.912 602.723 602.565 602.532 602.801 603.095 603.214 603.149 603.011 602.44 601.819 601.188 600.658 600.706 600.904 601.121 601.177 601.536 601.689 602.101 602.223 602.24 602.122 601.649 601.153 600.624 600.415 600.105 600.012 599.913 599.826 599.873 599.818 599.885 599.924 599.704 599.382 599.132 598.796 598.242 597.672 597.01 596.805 596.676 596.655 596.458 595.937 595.645 595.725 595.228 594.756 594.233 593.718 593.323 593.046 592.526 592.034 591.382 590.937 590.444 589.964 589.737 589.669 589.722 589.643 589.645 589.526 589.462 589.504 589.384 589.369 589.236 589.249 589.338 589.297 589.577 589.519 589.85 590.443 590.722 591.215 591.5 591.869 592.208 592.229 592.678 592.773 592.984 593.126 593.661 594.045 594.17 594.162 594.452 595.1 595.275 595.774 596.223 595.973 595.88 596.087 596.089 595.878 595.651 595.458 595.295 595.058 594.913 594.76 594.549 594.467 594.308 594.258 594.214 594.141 594.059 593.895 593.482 593.127 592.506 591.036 591.209 591.713 591.871 591.75 591.433 590.65 589.895 589.669 589.762 590.059 589.874 589.614 589.351 589.061 588.745 588.496 588.128 587.826 587.63 587.341 587.163 586.841 586.615 586.276 585.89 585.306 585.042 584.87 584.561 584.273 584.032 583.733 583.526 583.284 583.005 582.781 582.56 582.287 582.096 581.743 581.352 581.078 580.844 580.712 580.612 580.295 580.327 580.169 580.035 579.902 579.768 579.585 579.624 579.63 579.579 579.43 579.293 579.141 578.946 578.821 578.647 578.4 578.245 577.914 577.48 576.574 576.252 576.141 576.139 576.16 577.369 577.55 577.748 577.691 577.662 577.587 577.545 577.406 577.256 577.197 577.182 577.032 576.892 576.949 576.647 576.679 576.588 576.623 576.616 576.278 576.078 576.072 576.073 575.968 575.725 575.495 575.367 575.366 575.033 574.948 574.89 574.974 574.792 574.748 574.634 574.499 574.305 574.132 573.984 573.863 573.64 573.431 573.226 573.153 572.89 572.869 572.935 572.715 572.418 572.179 572.004 571.582 571.338 570.811 570.613 570.133 569.336 569.164 568.712 569.392 569.854 569.865 569.725 569.652 569.542 569.473 569.477 569.54 569.257 569.309 569.266 568.921 569.037 568.931 568.794 568.705 568.214 568.235 567.704 566.832 567.387 567.98 568.306
585.716 585.548 585.328 585.259 584.841 584.615 585.11 585.247 585.344 585.57 585.888 585.984 586.185 586.63 587.432 588.403 589.112 589.421 590.083 591.028 591.976 592.606 593.045 593.342 594.071 595.144 595.833 596.333 597.07 597.633 598.02 598.231 598.498 598.701 598.785 598.874 599.01 599.118 599.186 599.192 599.126 599.171 599.281 599.442 599.458 599.536 599.51 599.527 599.572 599.67 599.741 599.902 599.948 600.163 600.219 600.317 600.316 600.32 600.435 600.575 600.705 600.778 600.93 600.979 601.097 601.234 601.322 601.356 601.428 601.444 601.554 601.603 601.67 601.691 601.746 601.699 601.659 601.75 601.757 601.722 601.705 602.348 601.914 602.344 602.527 602.734 602.847 602.988 603.078 602.874 602.953 602.958 602.988 603.066 603.144 603.008 602.947 603.096 603.211 603.267 603.324 603.301 603.122 602.912 602.734 602.653 602.593 602.57 602.827 603.046 603.113 602.98 602.809 602.437 601.792 601.323 600.846 600.56 600.704 601.078 601.167 601.518 601.929 602.19 602.236 602.199 602.02 601.318 600.896 600.526 600.077 599.748 599.617 599.536 599.502 599.479 599.828 600.066 600.118 600.024 599.692 599.326 598.907 598.561 598.075 597.6 597.191 596.88 597.147 597.116 596.675 596.402 596.098 595.846 595.339 594.98 594.432 594.166 593.798 593.315 592.862 592.103 591.706 590.86 590.436 590.214 590.01 590.017 589.92 590.054 589.737 589.787 589.669 589.648 589.636 589.427 589.598 589.7 589.816 590.102 590.189 590.517 590.834 591.473 591.887 592.4 592.519 592.91 593.201 593.211 593.599 593.782 594.178 594.444 594.743 594.897 595.028 595.332 595.666 595.944 596.11 596.255 596.159 596.144 596.207 596.135 595.944 595.748 595.652 595.399 595.161 595.04 594.915 594.808 594.695 594.508 594.309 594.146 594.186 594.057 593.886 593.643 593.354 592.627 592.008 591.861 591.991 592.012 591.817 591.46 590.34 589.701 589.663 589.931 590.211 590.008 589.699 589.521 589.294 588.913 588.58 588.214 587.912 587.696 587.461 587.224 586.947 586.662 586.331 585.842 585.282 585.208 585.048 584.604 584.359 584.083 583.756 583.534 583.191 582.906 582.749 582.611 582.425 582.156 581.859 581.406 581.155 581.027 580.839 580.741 580.537 580.406 580.234 580.16 580.053 579.953 579.85 579.911 579.774 579.644 579.559 579.364 579.163 579.03 578.892 578.72 578.463 578.201 577.902 577.035 576.421 576.269 576.098 576.055 577.076 577.509 577.701 577.824 577.91 577.791 577.884 577.796 577.794 577.702 577.62 577.478 577.438 577.322 577.243 577.052 576.877 576.729 576.775 576.687 576.538 576.464 576.278 576.285 576.067 575.953 575.704 575.501 575.393 575.282 575.122 574.921 575.008 574.928 574.836 574.759 574.611 574.456 574.166 573.946 573.947 573.756 573.571 573.336 573.136 573.117 573.103 573.134 572.881 572.404 572.112 571.574 571.196 570.774 570.535 570.645 570.33 569.999 568.917 570.366 570.007 570.014 569.99 569.962 569.825 569.882 569.734 569.866 569.603 569.744 569.693 569.522 568.991 569.158 569.154 569.084 568.937 568.593 568.306 567.269 567.261 567.813 568.136 568.462
585.565 585.407 585.365 585.22 585.144 585.154 585.17 585.062 585.201 585.368 585.609 585.662 585.917 586.576 587.401 588.346 589.28 589.719 590.099 590.917 591.814 592.429 592.839 593.55 594.267 595.141 595.822 596.491 596.801 597.287 597.707 598.108 598.364 598.502 598.6 598.803 598.835 598.989 599.022 599.107 599.097 599.162 599.27 599.465 599.588 599.64 599.495 599.548 599.698 599.719 599.801 599.842 599.901 600.039 600.131 600.237 600.387 600.158 600.363 600.49 600.516 600.633 600.779 600.847 600.9 601.006 601.146 601.243 601.286 601.345 601.385 601.462 601.537 601.673 601.666 601.643 601.622 601.58 601.522 601.504 601.569 601.819 601.942 601.917 602.382 602.681 602.603 602.74 602.59 602.504 602.447 602.785 602.984 603.042 603.034 602.805 602.986 603.149 603.283 603.326 603.356 603.134 602.92 602.849 602.725 602.676 602.576 602.618 602.674 602.755 602.773 602.751 602.66 602.456 601.671 601.07 601.072 600.944 600.568 600.652 601.076 601.526 601.852 601.718 601.624 601.379 601.27 600.836 600.437 600.094 599.86 599.679 599.607 599.514 599.37 599.414 599.534 599.998 600.235 600.191 600.029 599.623 599.139 598.752 598.257 597.745 597.553 597.342 597.327 597.237 597.078 596.827 596.469 596.253 595.812 595.133 595.036 594.547 594.125 593.524 592.955 592.531 591.719 591.213 590.84 590.639 590.412 590.718 590.658 590.634 590.56 590.468 590.446 590.642 590.782 590.713 590.841 591.226 591.223 591.317 591.53 591.619 591.907 592.435 592.569 592.764 592.925 593.337 593.646 593.755 593.776 594.19 594.471 594.922 594.961 595.326 595.777 595.977 596.069 596.247 596.364 596.435 596.452 596.292 596.312 596.262 596.147 596.104 595.912 595.672 595.502 595.368 595.265 595.041 594.896 594.75 594.529 594.331 594.188 594.091 593.932 593.774 593.572 593.198 592.624 592.312 592.252 592.237 592.179 591.712 590.959 590.403 590.025 590.021 590.384 590.073 589.808 589.587 589.357 589.054 588.76 588.425 588.061 587.795 587.561 587.32 587.124 586.727 586.377 585.982 585.502 585.359 585.109 584.741 584.415 584.089 583.754 583.505 583.286 582.977 582.759 582.673 582.403 582.177 581.938 581.578 581.106 581.147 581.103 580.894 580.689 580.562 580.393 580.248 580.08 580.046 579.998 580.006 579.953 579.734 579.571 579.455 579.346 579.139 578.945 578.755 578.488 578.158 577.922 577.437 576.612 576.391 576.568 577.446 577.614 577.793 578.024 578.09 578.156 578.117 578.085 578.07 577.981 577.907 577.744 577.644 577.512 577.43 577.314 577.209 577.112 576.938 576.793 576.789 576.656 576.579 576.342 576.344 576.213 576.029 575.893 575.751 575.628 575.404 575.332 575.374 575.215 575.183 575.152 575.005 574.766 574.601 574.408 574.195 574.075 573.941 573.75 573.589 573.346 573.275 573.298 573.131 572.394 571.764 571.57 571.148 570.415 570.588 570.441 570.596 570.649 570.607 570.968 570.847 570.638 570.437 570.505 570.24 570.117 570.226 570.117 570.013 570.027 569.98 569.814 569.658 569.454 569.62 569.468 569.4 569.292 568.995 568.926 568.479 567.885 568.052 568.225 568.534
585.504 585.399 585.21 585.147 585.111 585.07 585.184 585.126 585.185 585.314 585.366 585.43 585.551 586.305 587.161 588.095 589.062 589.592 589.967 590.548 591.616 592.402 593.242 593.975 594.556 595.187 595.667 596.222 596.721 597.108 597.542 597.827 598.171 598.394 598.506 598.695 598.792 598.821 598.943 599.117 599.121 599.134 599.425 599.601 599.748 599.696 599.631 599.627 599.644 599.692 599.692 599.769 599.803 599.908 599.948 600.136 600.073 600.068 600.298 600.378 600.461 600.468 600.627 600.701 600.796 600.852 600.974 600.975 601.121 601.22 601.212 601.251 601.519 601.557 601.609 601.604 601.649 601.484 601.401 601.417 601.465 602.452 601.949 602.061 602.282 602.362 602.194 602.353 602.312 602.082 602.222 602.364 602.893 602.896 602.855 602.866 603.061 603.18 603.291 603.264 603.122 603.035 602.868 602.849 602.654 602.633 602.479 602.509 602.677 602.502 602.424 602.465 602.43 602.176 601.825 601.273 601.09 601.065 600.912 600.65 600.885 601.28 601.543 601.559 601.447 601.232 600.974 600.382 600.009 599.979 599.686 599.527 599.583 599.58 599.203 599.323 599.566 599.957 600.157 600.19 600.2 599.92 599.417 598.913 598.253 597.797 597.652 597.52 597.374 597.27 597.26 597.048 596.773 596.355 596.239 595.944 595.419 595.388 595.026 594.458 594.003 593.495 592.869 592.236 591.658 591.437 591.368 591.247 591.249 591.259 591.048 590.878 590.909 591.216 591.238 591.432 591.766 591.53 591.682 591.7 591.994 592.403 592.652 593.126 593.066 593.309 593.63 593.973 594.351 594.623 594.801 595.11 595.423 595.591 595.533 596.036 596.542 596.708 596.725 596.618 596.71 596.69 596.657 596.67 596.544 596.59 596.426 596.384 596.185 595.971 595.801 595.651 595.51 595.341 595.092 594.891 594.604 594.416 594.426 594.323 594.145 594.099 593.919 593.484 593.38 592.9 592.56 592.419 592.331 591.972 591.452 590.994 590.798 590.507 590.496 590.086 589.745 589.561 589.343 589.101 588.804 588.359 588.163 587.992 587.649 587.309 587.037 586.86 586.426 585.804 585.435 585.325 585.211 584.769 584.204 583.953 583.804 583.593 583.353 583.045 582.761 582.608 582.36 582.184 581.853 581.566 581.376 581.271 581.205 581.057 580.925 580.807 580.603 580.464 580.394 580.282 580.244 580.138 580.032 579.876 579.748 579.535 579.41 579.236 579.024 578.852 578.577 578.323 577.79 577.185 576.466 576.439 577.501 577.653 577.828 578.085 578.194 578.251 578.358 578.393 578.328 578.251 578.165 578.13 577.946 578.019 577.868 577.749 577.636 577.359 577.251 577.161 577.076 576.891 576.831 576.728 576.763 576.557 576.484 576.323 576.031 575.951 575.708 575.537 575.397 575.363 575.195 575.354 575.261 575.079 574.825 574.524 574.443 574.377 574.257 574.088 573.833 573.778 573.428 573.375 573.141 572.957 571.978 571.569 571.406 571.193 570.68 571.009 570.96 571.01 571.134 571.304 571.247 571.179 570.936 570.855 570.726 570.634 570.558 570.372 570.367 570.367 570.278 570.201 569.882 569.765 569.675 569.666 569.647 569.519 569.549 569.516 569.359 569.334 569.159 568.599 568.104 568.69
585.41 585.227 585.078 585.025 585.081 585.161 585.153 585.169 585.278 585.307 585.342 585.303 585.593 586.194 587.036 587.79 588.673 589.295 589.885 590.415 591.367 592.607 593.339 593.986 594.546 595.175 595.77 596.105 596.491 596.868 597.278 597.609 597.948 598.236 598.406 598.629 598.663 598.733 598.879 598.948 599.09 599.187 599.451 599.706 599.87 599.793 599.727 599.658 599.663 599.693 599.719 599.68 599.719 599.775 599.779 599.826 599.922 599.923 600.154 600.229 600.359 600.372 600.511 600.554 600.637 600.752 600.835 600.951 600.979 601.018 601.061 601.089 601.281 601.359 601.457 601.458 601.538 601.351 601.404 601.411 601.545 601.677 602.177 601.8 601.75 601.827 601.84 601.981 602.014 602.111 602.182 602.425 602.593 602.749 602.835 602.916 603.021 603.18 603.236 603.19 602.922 602.856 602.907 602.731 602.672 602.603 602.542 602.418 602.4 602.301 602.156 602.31 602.114 601.836 601.727 601.315 601.263 601.011 600.929 600.762 600.715 600.985 601.215 601.136 600.902 600.714 600.464 600.048 599.624 599.726 599.682 599.614 599.62 599.576 599.333 599.364 599.46 599.573 599.735 600.025 600.091 599.933 599.448 598.863 598.244 598.058 597.797 597.556 597.344 597.116 597.307 597.215 597.014 596.763 596.448 596.395 596.018 595.842 595.457 595.096 594.547 594.226 593.618 593.036 592.014 591.927 591.821 591.684 591.622 591.656 591.504 591.537 591.685 591.807 592.118 592.444 592.679 592.727 592.789 592.881 593.176 593.216 593.549 593.554 593.811 594.081 594.366 594.812 594.946 595.374 595.446 595.617 595.934 596.126 596.275 596.562 597.022 597.083 596.937 596.997 597.098 597.098 596.947 597.035 596.966 596.777 596.686 596.531 596.344 596.13 595.955 595.904 595.873 595.683 595.276 595.149 594.937 594.732 594.57 594.426 594.326 594.432 594.177 593.919 593.573 593.27 592.879 592.668 592.515 592.148 591.667 591.217 590.955 590.765 590.463 590.009 589.708 589.517 589.346 589.123 588.841 588.567 588.254 587.961 587.599 587.381 586.986 586.764 586.372 585.851 585.507 585.239 585.053 584.669 584.313 583.909 583.649 583.523 583.464 583.137 582.922 582.654 582.443 582.248 581.944 581.694 581.579 581.414 581.273 581.128 580.991 580.875 580.701 580.649 580.522 580.429 580.28 580.163 580.064 579.955 579.815 579.655 579.481 579.226 579.041 578.828 578.538 578.332 578.052 577.93 577.711 577.65 577.884 578.206 578.415 578.721 578.776 578.714 578.682 578.595 578.493 578.457 578.4 578.249 578.23 578.061 577.965 577.954 577.899 577.646 577.549 577.343 577.144 576.974 576.96 576.863 576.867 576.766 576.615 576.377 576.284 576.133 575.903 575.844 575.666 575.529 575.393 575.376 575.485 575.255 575.025 574.817 574.656 574.666 574.614 574.467 574.259 573.963 573.727 573.407 573.242 572.741 571.891 571.828 571.639 571.552 570.917 571.244 571.312 571.328 571.344 571.526 571.419 571.243 571.276 571.266 571.09 570.774 570.778 570.632 570.433 570.495 570.529 570.381 570.244 570.039 569.87 569.783 569.747 569.739 569.665 569.61 569.59 569.358 569.055 568.796 568.289 568.365
585.251 585.127 585.01 584.995 584.997 585.12 585.067 585.085 585.072 585.167 585.237 585.258 585.526 586.151 586.753 587.544 588.417 589.112 589.976 590.563 591.367 592.389 593.377 593.913 594.286 594.926 595.576 596.105 596.461 596.767 597.07 597.235 597.621 598.072 598.268 598.537 598.564 598.625 598.722 598.871 599.045 599.219 599.408 599.757 599.886 599.806 599.696 599.625 599.67 599.749 599.728 599.659 599.657 599.715 599.77 599.82 599.839 599.937 600 600.098 600.207 600.329 600.374 600.422 600.53 600.698 600.829 600.825 600.911 600.814 600.881 600.921 601.003 601.079 601.167 601.315 601.461 601.464 601.588 601.533 601.534 601.776 601.926 601.904 601.75 601.621 601.695 601.854 602.01 602.191 602.259 602.314 602.482 602.605 602.854 602.966 603.125 603.101 603.054 603.094 602.954 602.866 602.92 602.814 602.669 602.611 602.59 602.551 602.428 602.279 602.141 602.046 601.919 601.839 601.654 601.442 601.222 601.039 600.942 600.803 600.638 600.754 600.712 600.525 600.609 600.54 600.224 599.913 599.771 599.796 599.746 599.577 599.622 599.564 599.421 599.343 599.272 599.302 599.525 599.866 600.119 599.739 599.395 598.863 598.541 598.415 598.189 597.925 597.659 597.399 597.369 597.194 597.214 597.026 596.688 596.566 596.195 596.106 595.772 595.452 595.06 594.738 594.026 593.784 593.291 593.027 592.709 592.611 592.573 592.558 592.671 592.59 592.739 593.022 592.964 593.014 593.079 593.295 593.351 593.47 593.447 593.485 593.929 594.201 594.191 594.437 594.968 595.319 595.497 595.757 596.082 596.355 596.442 596.751 596.976 597.364 597.645 597.564 597.49 597.526 597.473 597.395 597.503 597.591 597.412 597.034 596.884 596.792 596.471 596.324 596.233 596.173 596.073 595.831 595.431 595.443 595.291 595.145 594.81 594.869 594.693 594.589 594.355 594.043 593.857 593.525 593.17 592.923 592.653 592.412 591.896 591.633 591.199 590.856 590.545 590.218 590.007 589.747 589.354 589.123 588.869 588.548 588.155 587.854 587.654 587.364 586.973 586.74 586.388 585.958 585.401 584.896 584.674 584.491 584.235 583.802 583.59 583.456 583.398 583.148 582.979 582.813 582.61 582.278 581.987 581.787 581.6 581.568 581.368 581.29 581.308 581.018 580.933 580.977 580.77 580.704 580.564 580.223 580.153 580.04 579.837 579.649 579.56 579.351 579.071 578.784 578.536 578.418 578.287 578.003 577.819 577.876 578.228 578.601 578.757 578.946 579 578.975 578.755 578.756 578.811 578.671 578.472 578.538 578.401 578.269 578.136 578.108 577.986 577.902 577.922 577.73 577.427 577.392 577.134 577.006 577 576.922 576.67 576.645 576.561 576.453 576.248 575.92 575.832 575.595 575.556 575.451 575.507 575.468 575.113 574.992 574.875 574.723 574.616 574.579 574.382 574.141 573.742 573.348 573.064 572.443 572.084 572.148 572.182 571.963 571.659 571.551 571.473 571.586 571.776 571.776 571.529 571.434 571.399 571.496 571.296 571.256 570.997 570.768 570.521 570.596 570.583 570.501 570.434 570.293 570.128 569.875 569.906 569.952 569.862 569.917 569.78 569.796 569.351 569.186 568.471 568.745
585.135 585.042 584.96 584.981 584.941 585.006 584.916 585.009 584.978 585.022 585.084 585.166 585.323 585.869 586.664 587.564 588.115 589.145 589.94 590.726 591.33 592.187 593.167 593.781 594.11 594.692 595.323 595.922 596.332 596.573 596.866 597.057 597.446 597.795 598.181 598.461 598.518 598.503 598.588 598.657 599.001 599.297 599.543 599.881 600.054 599.963 599.87 599.861 599.746 599.766 599.669 599.689 599.724 599.756 599.793 599.81 599.873 599.78 599.812 599.862 600.019 600.14 600.245 600.37 600.484 600.578 600.662 600.65 600.695 600.618 600.774 601.033 601.103 601.186 601.285 601.427 601.546 601.645 601.722 601.748 601.64 601.643 601.719 602.339 601.577 601.486 601.667 601.789 602.027 602.184 602.392 602.449 602.579 602.785 602.883 603.013 603.068 603.132 603.108 603.104 603 602.933 602.912 602.783 602.712 602.646 602.569 602.463 602.368 602.332 602.162 602.02 601.95 601.952 601.66 601.545 601.291 601.27 601.02 600.872 600.619 600.697 600.503 600.378 600.466 600.483 599.754 599.823 599.921 599.908 599.682 599.607 599.622 599.669 599.57 599.64 599.25 599.121 599.292 599.915 599.903 599.573 599.171 598.949 598.756 598.614 598.373 598.189 597.969 597.737 597.406 597.345 597.333 597.267 596.963 596.723 596.706 596.332 595.956 595.781 595.51 595.019 594.562 594.09 593.845 593.494 593.302 593.136 593.209 593.549 593.219 593.203 593.175 593.27 593.399 593.823 593.732 593.865 594.133 594.382 594.349 594.743 594.716 595.334 595.182 595.347 595.745 596.359 596.617 596.633 597.066 597.279 597.424 597.666 597.819 598.011 597.998 597.944 597.834 597.822 597.759 597.771 597.838 597.731 597.736 597.44 597.221 596.904 596.75 596.64 596.488 596.489 596.136 595.831 595.622 595.673 595.778 595.449 595.147 594.99 594.889 594.759 594.543 594.325 594.026 593.696 593.359 593.052 592.865 592.53 592.248 591.919 591.588 591.361 590.926 590.588 590.263 589.909 589.657 589.224 588.918 588.67 588.298 588.048 587.821 587.419 587.049 586.609 586.039 585.789 585.413 584.548 584.438 584.185 583.956 583.754 583.554 583.473 583.387 583.125 582.966 582.886 582.708 582.505 582.117 581.888 581.793 581.751 581.619 581.541 581.42 581.239 581.122 581.066 580.914 580.788 580.634 580.322 580.2 580.042 579.82 579.702 579.608 579.394 579.122 578.766 578.658 578.566 578.382 578.314 578.36 578.348 578.744 579.084 579.209 579.478 579.4 579.287 579.119 579.021 578.987 578.911 578.871 578.734 578.607 578.474 578.53 578.22 578.217 578.081 577.991 577.89 577.811 577.612 577.437 577.301 577.056 577.119 577.063 576.714 576.712 576.562 576.279 576.031 575.996 575.848 575.613 575.561 575.547 575.527 575.231 575.11 574.982 574.858 574.701 574.577 574.396 573.941 573.689 573.412 572.777 572.06 572.174 572.3 572.329 572.536 572.229 571.732 571.659 572.093 572.08 571.765 571.612 571.619 571.606 571.618 571.473 571.425 571.393 571.112 571.112 570.787 570.752 570.621 570.579 570.495 570.281 570.222 570.192 570.128 570.071 570.057 569.982 569.86 569.595 569.303 568.661 568.863
585.042 584.917 584.96 584.94 584.946 584.848 584.8 584.813 584.832 584.434 584.835 585.025 585.255 585.841 586.621 587.42 587.894 588.947 590.055 590.552 591.09 592.203 593.098 593.784 594.217 594.48 594.899 595.519 596.049 596.367 596.362 596.839 597.129 597.482 597.922 598.266 598.218 598.343 598.587 598.827 599.036 599.457 599.734 599.793 600.032 600.114 600.056 599.961 599.854 599.737 599.715 599.851 599.8 599.831 599.825 599.883 599.887 599.804 599.797 599.752 599.902 599.913 600.096 600.276 600.34 600.42 600.43 600.499 600.428 600.369 600.909 601.179 601.356 601.383 601.474 601.48 601.482 601.607 601.772 601.736 601.697 601.586 601.645 602.102 601.572 601.539 601.753 601.896 602.022 602.098 602.356 602.512 602.748 602.891 602.975 603.022 602.989 603.097 603.154 603.015 603.001 602.986 602.897 602.837 602.742 602.786 602.678 602.621 602.5 602.509 602.258 602.062 601.965 601.794 601.651 601.49 601.301 601.224 601.093 600.874 600.785 600.618 600.427 600.225 600.285 600.219 599.88 599.977 599.911 599.846 599.807 599.666 599.639 599.661 599.578 599.585 599.392 599.247 599.553 599.872 599.881 599.562 599.371 599.062 598.899 598.732 598.596 598.458 598.162 597.872 597.834 597.608 597.468 597.467 597.175 597.102 596.918 596.683 596.345 596.173 595.997 595.515 595.012 594.592 594.26 594.002 593.987 593.792 593.968 594.386 594.258 594.165 594.274 594.289 594.378 594.529 594.558 594.962 594.883 595.014 595.114 595.29 595.316 595.745 595.613 595.826 596.416 596.883 597.257 597.498 597.672 597.759 597.9 598.084 598.342 598.396 598.275 598.355 598.228 598.141 598.222 598.316 598.378 598.245 598.122 597.915 597.456 597.22 596.998 596.942 596.883 596.911 596.275 596.157 596.01 596.36 596.364 595.892 595.594 595.161 594.98 594.825 594.641 594.478 594.354 594.011 593.557 593.182 593.109 592.752 592.367 592.239 591.71 591.452 591.116 590.808 590.481 590.182 589.777 589.455 588.787 588.693 588.387 587.924 587.586 587.317 586.97 586.398 585.941 585.686 585.294 584.835 584.578 584.068 584.07 583.883 583.523 583.446 583.316 583.105 582.951 582.832 582.58 582.443 582.155 582.011 581.898 581.95 581.777 581.65 581.599 581.369 581.293 581.164 580.97 580.93 580.857 580.439 580.292 580.275 579.855 579.761 579.744 579.53 579.107 578.924 578.669 578.607 578.648 578.621 578.568 578.644 579.167 579.283 579.538 579.632 579.597 579.488 579.278 579.215 579.071 579.05 578.981 578.833 578.758 578.671 578.557 578.413 578.363 578.207 578.084 578.005 577.895 577.75 577.679 577.493 577.348 577.239 577.141 577.187 577.008 576.844 576.401 576.274 576.038 575.91 575.831 575.62 575.516 575.401 575.3 575.072 574.967 574.87 574.777 574.565 573.986 573.802 573.697 573.412 572.743 571.62 572.621 572.616 572.706 572.962 572.329 572.168 572.317 572.268 572.14 571.963 571.777 571.707 571.712 571.659 571.638 571.534 571.521 571.175 571.107 570.913 570.776 570.741 570.699 570.686 570.602 570.592 570.385 570.261 570.269 570.114 570.077 569.962 569.811 569.402 569.117 569.14
584.927 584.934 584.788 584.848 584.752 584.737 584.707 584.809 584.78 584.48 584.763 584.93 585.181 585.661 586.503 587.116 587.797 588.714 589.63 590.595 591.262 591.969 592.912 593.611 594.063 594.295 594.732 595.18 595.607 595.902 596.218 596.451 596.74 597.225 597.673 597.905 598.04 598.241 598.585 598.904 599.266 599.502 599.748 599.845 600.007 600.253 600.171 600.105 599.945 599.87 599.828 599.802 599.838 599.883 599.928 599.929 600.01 600.038 599.965 599.844 599.777 599.812 599.927 600.003 600.051 600.169 600.145 600.235 599.954 600.013 600.744 601.197 601.297 601.398 601.43 601.492 601.529 601.648 601.679 601.749 601.759 601.653 601.635 602.234 601.56 601.616 601.713 601.855 602.096 602.238 602.415 602.611 602.807 603.109 602.956 603.062 603.093 603.115 603.089 603.016 603.002 602.956 602.891 602.788 602.706 602.69 602.654 602.541 602.523 602.468 602.335 602.185 602.032 601.915 601.68 601.46 601.315 601.248 601.038 600.93 600.746 600.658 600.564 600.38 600.295 600.101 599.931 599.984 599.88 599.844 599.728 599.641 599.655 599.732 599.525 599.633 599.576 599.563 599.714 599.898 599.921 599.766 599.5 599.369 599.183 599.094 598.896 598.691 598.522 598.244 598.111 597.784 597.708 597.553 597.435 597.263 597.092 596.968 596.737 596.509 596.344 595.894 595.284 595.086 595.062 594.771 594.536 594.533 594.686 594.846 594.866 594.888 594.925 595.005 594.916 595.147 595.17 595.138 595.497 595.395 595.86 596.004 596.211 596.508 596.697 596.927 597.351 597.785 598.155 598.397 598.513 598.763 598.952 598.78 598.794 598.764 598.741 598.684 598.614 598.608 598.714 598.78 598.923 598.802 598.436 598.053 597.726 597.458 597.322 597.41 597.468 597.21 596.554 596.513 596.5 596.804 596.418 596.159 595.893 595.409 595.05 594.771 594.727 594.531 594.46 594.26 593.724 593.399 593.139 592.938 592.573 592.418 592.015 591.68 591.229 590.773 590.409 590.101 589.754 589.304 588.763 588.381 588.201 587.859 587.375 587.193 586.875 586.412 586.059 585.665 585.269 584.905 584.568 583.987 583.734 583.822 583.599 583.725 583.29 583.141 582.913 582.738 582.605 582.57 582.313 582.185 582.114 582.045 581.949 581.855 581.7 581.586 581.519 581.228 581.162 581.069 580.959 580.833 580.416 580.388 579.997 579.909 579.876 579.74 579.47 579.163 578.956 578.896 578.901 578.934 579.016 579.412 579.751 579.992 579.903 579.975 579.934 579.775 579.611 579.311 579.286 579.27 579.201 579.129 578.979 578.875 578.763 578.708 578.406 578.376 578.193 578.007 577.956 578.027 577.736 577.531 577.455 577.412 577.284 577.162 577.214 576.896 576.598 576.453 576.269 576.207 576.019 575.723 575.701 575.606 575.471 575.288 575.14 574.993 574.913 574.514 574.008 573.786 573.709 573.566 572.984 572.259 572.518 572.616 573.003 573.033 572.743 572.331 572.619 572.423 572.178 572.115 572.019 571.92 571.84 571.846 571.844 571.711 571.655 571.555 571.504 571.385 571.389 571.121 570.883 570.896 570.874 570.724 570.709 570.81 570.567 570.541 570.413 570.243 569.959 569.406 569.086 569.451
584.802 584.68 584.615 584.641 584.509 584.497 584.592 584.635 584.529 584.534 584.66 584.81 584.931 585.575 586.085 586.753 587.526 588.586 589.463 590.32 591.076 591.972 592.971 593.47 593.83 594.199 594.525 594.841 595.168 595.583 595.833 596.021 596.24 596.846 597.267 597.549 597.923 598.066 598.544 598.927 599.328 599.53 599.731 599.934 600.071 600.317 600.185 599.996 599.999 599.887 599.845 599.873 599.915 599.981 600.006 600.043 600.07 600.041 600.089 600.163 600.102 599.867 599.589 599.705 599.689 599.719 599.877 600.052 599.821 600.334 600.819 601.234 601.289 601.386 601.45 601.517 601.578 601.559 601.549 601.73 601.663 601.597 601.513 601.756 602.117 601.613 601.772 601.887 602.123 602.346 602.502 602.581 602.768 603.016 603.002 603.124 603.1 603.098 603.05 603.057 603 602.966 602.856 602.858 602.794 602.761 602.661 602.666 602.685 602.509 602.426 602.227 602.117 601.908 601.691 601.55 601.367 601.163 601.075 600.978 600.894 600.688 600.621 600.558 600.346 600.169 600.049 599.902 599.896 599.86 599.76 599.703 599.745 599.738 599.707 599.734 599.659 599.665 599.671 599.753 599.795 599.767 599.633 599.448 599.347 599.135 598.995 598.768 598.621 598.528 598.374 598.03 597.953 597.732 597.691 597.553 597.47 597.341 597.157 596.835 596.616 596.262 596.025 595.883 595.631 595.424 595.178 595.117 595.13 595.179 595.477 595.786 595.864 595.727 595.827 595.835 596.1 596.431 596.714 597.018 597.104 597.338 597.308 597.254 597.229 597.535 598.131 598.388 598.639 598.89 599.099 599.24 599.386 599.329 599.325 599.241 599.065 599.009 599.016 598.897 598.918 599.332 599.308 599.127 598.799 598.529 598.123 598.138 597.94 598.111 598.013 597.661 597.35 597.143 597.157 597.09 596.687 596.497 596.228 596.106 595.492 594.909 594.8 594.636 594.451 594.291 593.922 593.378 593.337 593.01 592.703 592.539 592.061 591.607 591.27 590.958 590.563 590.089 589.725 589.368 589.015 588.362 588.149 587.928 587.524 587.394 587.131 586.735 586.251 585.606 585.187 584.693 583.641 583.38 583.203 583.326 583.678 583.733 583.507 583.176 583.041 582.81 582.621 582.383 582.3 582.28 582.231 582.134 582.054 581.974 581.784 581.716 581.713 581.513 581.359 581.132 581.056 580.723 580.414 580.198 580.033 580.024 580.033 580.044 579.882 579.544 579.563 579.551 579.626 579.419 579.457 579.737 580.029 580.205 580.301 580.264 580.039 579.936 579.712 579.505 579.572 579.428 579.373 579.198 579.162 579.054 578.828 578.803 578.624 578.519 578.303 578.198 578.152 578.14 577.795 577.638 577.599 577.399 577.281 577.195 577.034 576.888 576.814 576.631 576.412 576.233 576.048 575.799 575.773 575.662 575.542 575.529 575.182 575.077 575.066 574.455 574.119 573.752 573.772 573.46 573.113 573.297 573.346 573.391 573.509 573.278 573.082 572.896 572.786 572.694 572.658 572.409 572.318 572.152 571.966 571.91 571.924 571.826 571.825 571.721 571.549 571.394 571.268 571.197 571.127 570.93 570.91 570.876 570.866 570.784 570.668 570.591 570.662 570.323 570.002 569.395 569.302 569.842
584.598 584.379 584.524 584.469 584.46 584.417 584.523 584.568 584.442 584.505 584.518 584.604 584.858 585.199 585.821 586.477 587.403 588.129 589.111 590.438 591.279 591.786 592.503 593.198 593.534 593.93 594.322 594.722 594.952 595.226 595.574 595.783 595.936 596.484 596.919 597.239 597.589 598.041 598.524 599.103 599.417 599.466 599.613 599.779 600.118 600.238 600.074 599.941 599.936 599.968 599.945 599.945 599.961 600.066 600.061 600.133 600.059 599.998 600.081 600.166 600.217 599.95 599.314 599.147 599.091 599.254 599.831 600.183 600.496 600.676 601.007 601.285 601.362 601.466 601.429 601.553 601.549 601.546 601.59 601.53 601.552 601.538 601.495 601.494 601.898 601.869 601.814 601.931 602.211 602.45 602.624 602.718 602.894 603.036 603.102 603.128 603.152 603.144 603.094 603.035 602.927 602.893 602.857 602.813 602.794 602.728 602.605 602.617 602.51 602.435 602.318 602.186 602.073 601.964 601.558 601.455 601.225 601.193 601.096 600.952 600.797 600.694 600.682 600.448 600.278 600.159 600.087 599.961 599.915 599.848 599.705 599.847 599.797 599.734 599.748 599.781 599.865 599.834 599.648 599.685 599.746 599.823 599.86 599.894 599.771 599.51 599.276 599.17 598.912 598.793 598.62 598.339 598.154 598.006 597.863 597.8 597.581 597.354 597.399 597.077 596.937 596.705 596.469 596.337 596.062 595.994 595.815 595.58 595.435 595.588 595.906 596.282 596.438 596.444 596.468 596.41 596.773 597.187 597.425 597.611 597.481 597.649 597.717 597.758 597.824 598.266 598.659 599.183 599.522 599.845 599.976 600.134 600.007 599.893 599.769 599.593 599.529 599.503 599.413 599.446 599.635 599.603 599.573 599.516 599.385 599.155 598.994 598.873 598.821 598.686 598.552 598.261 598.038 597.761 597.431 597.258 597.056 596.785 596.601 596.282 595.8 595.145 594.979 594.808 594.637 594.125 593.839 593.607 593.415 593.155 592.729 592.362 592.053 591.267 590.885 590.74 590.621 590.253 589.972 589.689 589.283 588.721 588.323 588.146 587.837 587.64 587.267 586.825 586.171 585.56 584.846 584.002 583.656 583.281 582.941 583.066 583.521 583.709 583.545 583.332 583.152 582.973 582.802 582.532 582.431 582.39 582.381 582.304 582.167 582.203 582.107 582.058 581.958 581.739 581.537 581.223 580.814 580.415 580.467 580.182 580.032 580.421 580.589 580.552 580.475 580.442 580.192 580.159 579.98 579.703 579.934 580.336 580.539 580.307 580.343 580.451 580.087 579.962 579.966 579.892 579.755 579.731 579.625 579.516 579.338 579.158 579.107 578.875 578.834 578.833 578.463 578.311 578.307 578.205 578.071 577.799 577.948 577.719 577.441 577.359 577.227 577.016 577.292 577.101 576.782 576.522 576.421 576.081 575.857 575.812 575.753 575.631 575.452 575.375 575.266 574.793 574.29 573.974 573.843 573.69 573.558 573.659 573.585 573.565 573.469 573.394 573.25 572.997 572.919 572.653 572.598 572.492 572.334 572.22 572.151 571.911 571.963 571.937 571.907 571.823 571.703 571.635 571.546 571.489 571.526 571.387 571.323 571.314 571.306 571.251 571.103 571.049 571.035 570.912 569.912 569.513 569.909 570.383
584.211 584.164 584.325 584.329 584.36 584.264 584.308 584.35 584.346 584.344 584.42 584.443 584.674 585.016 585.358 586.084 587.055 587.987 588.927 590.031 590.964 591.553 592.255 592.862 593.317 593.598 594.053 594.492 594.816 594.973 595.414 595.527 595.705 596.153 596.521 597.034 597.823 598.289 598.609 598.944 599.317 599.434 599.584 599.88 600.02 600.122 599.938 599.91 599.929 599.987 600.078 600.103 600.107 600.091 600.042 600.023 600.025 600.002 599.998 600.034 600.195 599.702 599.263 598.659 599.14 599.495 599.848 600.122 600.455 600.684 600.871 601.166 601.275 601.384 601.411 601.469 601.498 601.569 601.557 601.455 601.389 601.376 601.47 601.525 601.761 601.802 601.802 601.914 602.323 602.352 602.462 602.739 602.923 603.067 603.079 603.094 603.097 603.136 603.123 603.115 603.021 602.901 602.86 602.814 602.76 602.754 602.653 602.57 602.537 602.441 602.301 602.161 602.022 601.852 601.67 601.539 601.321 601.189 601.07 601.004 600.859 600.659 600.499 600.405 600.332 600.274 600.125 599.983 599.981 599.86 599.871 599.827 600.023 600.035 599.975 599.959 599.88 599.901 599.892 599.872 599.84 599.838 599.857 599.875 599.774 599.622 599.488 599.342 599.088 598.972 598.742 598.52 598.304 598.077 597.955 597.869 597.791 597.626 597.53 597.371 597.185 596.997 596.83 596.647 596.541 596.378 596.3 596.191 596.084 596.124 596.425 596.689 597.04 597.102 596.93 597.29 597.517 597.823 598.159 598.404 598.47 598.705 598.729 598.542 598.839 599.099 599.632 599.97 599.943 600.186 600.337 600.377 600.312 600.158 600.026 599.995 599.875 599.712 599.65 599.548 599.72 599.541 599.756 599.732 599.573 599.421 599.321 599.142 599.08 598.897 598.84 598.611 598.344 598.035 597.708 597.432 597.206 597.166 596.873 596.405 595.94 595.522 595.142 595.103 594.6 594.222 593.982 593.684 593.492 593.143 592.648 592.092 591.534 590.913 590.507 590.314 590.318 590.205 590.003 589.798 589.435 589.086 588.575 588.378 588.109 587.809 587.279 586.928 586.292 585.396 584.437 583.756 583.829 583.536 582.867 583.047 583.38 583.606 583.562 583.514 583.144 583.039 583.041 582.812 582.624 582.579 582.589 582.565 582.492 582.395 582.373 582.241 582.129 581.848 581.676 581.242 580.597 580.634 580.697 580.738 580.799 580.909 580.763 580.79 580.831 580.716 580.598 580.577 580.343 580.102 580.168 580.438 580.868 580.67 580.731 580.608 580.309 580.097 580.244 580.149 579.994 579.841 579.817 579.663 579.571 579.463 579.51 579.354 579.243 579.074 578.999 578.749 578.468 578.348 578.298 578.224 578.254 577.883 577.619 577.666 577.459 577.202 577.28 577.186 576.883 576.723 576.808 576.394 575.845 575.815 575.776 575.68 575.636 575.336 575.436 575.088 574.359 574.174 574.023 573.957 574.134 574.086 574.037 573.784 573.751 573.879 573.586 573.378 573.252 573.233 573.107 572.914 572.691 572.669 572.49 572.386 572.422 572.201 572.101 571.989 571.894 571.776 571.693 571.649 571.622 571.501 571.442 571.439 571.413 571.331 571.283 571 570.96 570.587 569.554 569.631 570.111 570.402
583.704 583.742 583.773 584.121 584.156 584.088 584.097 584.115 584.244 584.003 584.225 584.384 584.502 584.804 585.27 585.708 586.563 587.551 588.862 589.902 590.671 591.187 591.973 592.449 592.952 593.339 593.555 594.035 594.445 594.787 594.942 595.394 595.737 595.996 596.48 597.061 597.662 598.259 598.627 598.97 599.077 599.254 599.518 599.737 599.896 599.93 599.931 600.027 600.16 600.279 600.31 600.222 600.189 600.145 600.032 600.01 600.01 600.039 600.057 600.063 600.097 599.696 599.436 599.362 599.444 599.707 599.956 600.179 600.423 600.685 600.834 600.832 601.024 600.964 600.981 601.264 601.31 601.551 601.55 601.526 601.451 601.408 601.447 601.463 602.133 601.956 601.894 602.047 602.13 602.414 602.431 602.541 602.882 603.212 603.081 603.178 603.204 603.201 603.256 603.178 603.042 603.091 603.019 602.937 602.855 602.79 602.68 602.616 602.543 602.384 602.261 602.13 601.991 601.894 601.655 601.512 601.366 601.169 601.09 600.873 600.867 600.66 600.516 600.57 600.256 600.255 600.148 600.11 600.005 599.951 599.888 599.921 599.941 599.979 599.997 599.929 599.97 599.922 599.872 599.906 599.929 599.877 599.877 599.941 599.903 599.836 599.73 599.549 599.421 599.388 599.123 598.954 598.773 598.563 598.332 598.098 598.054 597.913 597.77 597.599 597.425 597.268 597.109 597.011 596.875 596.949 596.822 596.855 596.631 596.538 596.747 597.058 597.523 597.687 597.839 597.571 597.964 598.426 598.759 598.933 598.996 599.04 599.095 599.232 599.522 599.848 600.244 600.359 600.497 600.677 600.61 600.763 600.78 600.705 600.711 600.33 600.247 600.137 599.832 599.278 599.369 599.398 599.565 599.797 599.822 599.681 599.592 599.659 599.484 599.285 599.111 598.786 598.451 598.139 597.932 597.677 597.515 597.271 596.943 596.579 596.184 595.963 595.763 595.296 594.864 594.358 594.036 593.866 593.628 593.185 592.504 591.891 591.247 590.495 590.025 589.692 589.824 590.154 590.055 589.803 589.523 589.12 588.797 588.529 588.34 587.905 587.379 586.711 586.34 585.347 584.414 583.758 583.673 583.413 582.773 582.975 583.48 583.739 583.846 583.513 583.18 583.032 583.121 582.961 582.799 582.763 582.748 582.756 582.688 582.665 582.648 582.468 582.382 581.683 581.42 580.957 580.789 580.971 581.075 581.386 581.303 581.147 581.282 581.45 581.49 581.429 581.276 581.061 581.028 580.849 580.841 580.98 581.075 581.146 580.985 580.861 580.74 580.599 580.444 580.338 580.194 580.063 579.952 579.828 579.777 579.662 579.644 579.543 579.345 579.276 579.202 578.878 578.543 578.405 578.281 578.421 578.363 578.074 577.8 577.872 577.568 577.393 577.338 577.137 577.039 577.108 577.077 576.632 576.213 576.078 575.936 575.831 575.682 575.652 575.412 574.93 574.405 574.047 574.103 574.321 574.39 574.404 574.225 574.03 573.95 573.875 573.606 573.459 573.34 573.234 573.039 572.997 572.887 572.864 572.61 572.419 572.322 572.171 572.008 572.013 572.071 571.914 571.931 571.838 571.851 571.79 571.672 571.625 571.611 571.622 571.516 571.482 571.22 570.972 570.233 570.178 570.537 571.021
583.534 583.389 583.748 583.927 583.915 583.989 583.945 584.021 584.118 584.079 584.377 584.6 584.646 584.628 584.961 585.564 586.654 587.579 588.376 589.448 590.486 591.384 591.881 592.287 592.602 592.831 593.052 593.515 594.13 594.379 594.844 595.442 595.708 596.063 596.443 596.948 597.573 598.124 598.507 598.706 598.893 599.13 599.483 599.678 599.804 599.984 600.132 600.407 600.387 600.341 600.344 600.282 600.277 600.132 600.088 600.05 600.064 600.054 600.071 600.052 600.066 599.852 599.656 599.616 599.779 599.87 599.929 600.033 600.378 600.646 600.763 600.779 600.899 600.896 600.913 600.948 601.309 601.54 601.524 601.532 601.459 601.427 601.664 601.408 601.483 602.757 601.798 602.066 602.237 602.365 602.369 602.471 602.755 602.897 603.111 603.265 603.316 603.284 603.321 603.263 603.114 603.043 602.898 602.789 602.823 602.789 602.629 602.586 602.512 602.33 602.362 602.111 601.99 601.862 601.659 601.47 601.348 601.24 601.045 600.908 600.877 600.715 600.607 600.495 600.415 600.432 600.182 600.09 600 600.097 600.01 600.009 599.984 599.974 599.985 600.057 600.064 599.995 600.037 599.904 599.851 599.885 599.913 599.937 599.945 599.888 599.813 599.661 599.555 599.466 599.198 598.987 598.87 598.712 598.52 598.324 598.175 598.114 597.982 597.871 597.703 597.594 597.515 597.525 597.414 597.448 597.43 597.222 597.108 597 597.412 597.905 598.306 598.312 598.235 598.151 598.583 598.699 598.993 599.165 599.186 599.441 599.967 600.211 600.455 600.601 600.789 600.967 601.001 601.126 601.351 601.195 601.277 601.125 600.982 600.765 600.465 600.178 599.474 598.754 598.813 598.643 599.092 599.666 599.973 600.093 600.051 599.985 599.891 599.611 599.299 599.067 598.712 598.42 598.131 597.935 597.643 597.373 597.166 596.875 596.561 596.29 595.865 595.622 595.338 594.736 594.25 593.93 593.667 592.99 592.519 591.829 591.167 590.054 589.433 589.497 589.599 590.091 590.102 589.807 589.476 589.116 588.864 588.619 588.397 587.989 587.203 586.367 586.059 585.321 584.857 584.049 583.669 583.315 583.278 583.665 583.924 584.286 584.299 583.78 583.434 583.154 583.056 583.076 582.932 582.905 582.911 582.942 582.917 582.826 582.816 582.674 582.428 581.781 581.13 580.93 580.992 581.291 581.446 581.694 581.705 581.41 581.567 581.695 581.879 581.724 581.535 581.592 581.375 581.405 581.174 581.366 581.365 581.331 581.233 581.05 580.891 580.878 580.634 580.575 580.453 580.317 580.147 580.019 579.971 579.973 579.903 579.871 579.688 579.553 579.04 578.725 578.639 578.634 578.61 578.501 578.471 578.248 578.022 577.922 577.778 577.521 577.552 577.375 577.177 577.188 576.997 576.675 576.451 576.232 575.905 575.831 575.806 575.601 575.376 574.636 574.395 573.458 574.028 574.449 574.534 574.658 574.412 574.26 574.228 574.061 573.839 573.863 573.569 573.443 573.478 573.308 573.306 573.383 573.226 572.915 572.91 572.641 572.538 572.433 572.327 572.253 572.208 572.171 572.027 572.065 571.857 571.741 571.773 571.712 571.676 571.618 571.402 570.695 570.358 570.537 570.79 571.171
583.34 583.461 583.607 583.709 583.609 583.734 583.847 583.968 583.876 584.073 584.41 584.689 584.778 584.735 585.028 585.394 586.211 587.153 588.312 589.353 590.092 590.905 591.495 591.993 592.324 592.523 592.762 593.114 593.422 593.945 594.566 595.165 595.726 596.075 596.379 596.819 597.514 597.926 598.222 598.459 598.827 599.149 599.328 599.538 599.857 600.063 600.391 600.458 600.381 600.344 600.318 600.264 600.253 600.19 600.152 600.076 600.093 600.124 600.067 600.078 599.949 599.925 599.946 599.893 599.944 599.957 599.955 600.013 600.244 600.518 600.747 600.76 600.848 600.875 600.92 600.917 601.172 601.47 601.504 601.464 601.465 601.496 601.514 601.444 601.65 602.394 602.101 602.406 602.426 602.536 602.537 602.603 602.734 602.887 603.047 603.315 603.391 603.282 603.395 603.327 603.377 603.234 603.013 602.936 602.896 602.841 602.678 602.495 602.546 602.409 602.311 602.133 601.922 601.813 601.582 601.543 601.342 601.199 600.987 601.025 600.77 600.674 600.635 600.618 600.334 600.326 600.154 600.11 600.058 600.093 600.095 600.031 600.042 600.072 600.089 600.078 600.029 599.967 600.003 599.986 599.902 600.054 599.925 599.977 599.997 599.945 599.935 599.762 599.673 599.69 599.5 599.408 599.255 599.036 598.938 598.854 598.775 598.646 598.475 598.08 598.103 597.852 597.843 597.766 597.77 597.702 597.692 597.632 597.534 597.57 598.041 598.688 598.856 598.76 598.433 598.65 598.753 599.008 599.329 599.477 599.746 600.278 600.474 600.67 600.944 601.153 601.121 601.266 601.364 601.438 601.481 601.46 601.496 601.376 600.889 601.057 600.773 600.398 599.584 599.326 598.342 597.399 598.497 599.308 599.951 600.347 600.376 600.217 600.076 599.923 599.631 599.247 598.859 598.457 598.345 598.073 597.854 597.501 597.269 597.007 596.76 596.555 596.095 595.729 595.352 594.672 594.281 594.02 593.826 593.259 592.49 591.977 591.206 590.222 589.736 589.464 589.828 590.024 589.923 589.589 589.165 589.151 588.955 588.687 588.384 588.01 586.937 586.103 585.229 585.061 584.885 584.4 584.063 583.754 583.833 584.088 584.38 584.343 584.584 584.099 583.617 583.447 583.323 583.096 582.997 582.969 582.972 582.957 582.977 582.952 582.929 582.786 582.462 581.9 580.933 580.936 581.274 581.644 581.62 582.066 582.243 582.189 582.368 582.395 582.43 582.279 582.179 582.173 582.108 581.803 581.85 581.751 581.708 581.58 581.376 581.368 581.229 581.073 580.99 580.873 580.754 580.621 580.416 580.296 580.258 580.149 580.072 579.937 579.639 579.369 578.944 578.773 578.709 578.693 578.527 578.586 578.448 578.163 578.006 577.906 577.974 577.647 577.889 577.552 577.343 577.333 577.043 576.881 576.643 576.474 576.098 576.003 575.824 575.61 575.578 575.119 574.706 574.927 574.547 574.866 574.818 574.807 574.699 574.53 574.48 574.352 574.302 574.021 573.767 573.569 573.592 573.552 573.527 573.395 573.257 573.217 573.027 572.704 572.606 572.387 572.254 572.349 572.217 572.262 572.153 572.246 572.088 571.959 571.942 571.925 571.908 571.89 571.521 571.305 570.678 570.661 571.235 571.298
582.783 583.201 583.372 583.414 583.456 583.524 583.618 583.855 583.793 584.026 584.469 584.631 584.671 584.749 584.995 585.56 586.131 587.167 587.884 589.023 590.014 590.663 591.114 591.61 591.872 592.055 592.458 592.664 593.187 593.878 594.547 595.148 595.514 595.802 596.301 596.916 597.351 597.744 598.053 598.336 598.671 598.989 599.272 599.552 599.941 600.377 600.57 600.598 600.451 600.323 600.312 600.221 600.211 600.229 600.164 600.095 600.076 600.09 600.076 600.035 599.979 599.956 599.943 599.91 599.864 599.919 599.93 599.995 600.186 600.325 600.544 600.618 600.59 600.793 600.823 600.927 601.011 601.38 601.438 601.362 601.294 601.221 601.163 601.326 601.666 601.786 602.541 602.56 602.47 602.495 602.704 602.739 602.775 603.188 603.24 603.211 603.439 603.418 603.409 603.411 603.398 603.264 603.16 603.026 602.904 602.744 602.702 602.559 602.458 602.393 602.28 602.105 601.872 601.701 601.585 601.429 601.347 601.184 601.126 601.022 600.763 600.633 600.602 600.456 600.362 600.238 600.257 600.251 600.157 600.16 600.148 600.122 600.092 600.11 600.032 600.07 599.99 600.028 600.068 599.969 599.974 600.084 600.082 600.157 600.051 599.986 599.969 599.87 599.851 599.765 599.597 599.508 599.358 599.215 598.982 598.972 598.94 598.778 598.692 598.518 598.399 598.268 598.137 598.078 598.023 598.104 598.187 598.057 598.026 597.908 598.52 599.02 599.162 599.157 598.998 598.947 599.102 599.313 599.974 600.227 600.249 600.864 601.112 601.449 601.5 601.69 601.911 601.823 601.7 601.825 601.826 601.883 601.665 601.823 602 601.739 601.291 601.107 600.546 600.219 599.393 598.961 598.87 599.51 600.07 600.513 600.549 600.452 600.252 600.105 599.683 599.398 599.073 598.671 598.564 598.265 598.022 597.659 597.323 597.076 596.88 596.428 595.987 595.424 595.061 594.844 594.355 594.107 593.992 593.242 592.665 592.249 591.68 590.881 590.01 589.79 590.163 590.1 589.824 589.107 588.816 588.925 588.96 588.63 588.368 587.897 587.064 586.215 585.307 585.07 585.031 584.997 584.69 584.234 584.023 584.313 584.872 584.725 584.594 584.197 583.97 583.89 583.571 583.301 583.105 583.118 583.054 583.035 583.001 582.942 582.927 582.818 582.495 581.858 581.462 581.542 581.428 581.856 582.623 582.78 582.982 583.014 582.704 582.562 582.626 582.595 582.575 582.34 582.242 582.031 581.984 581.941 581.777 581.808 581.611 581.531 581.345 581.27 581.01 580.938 580.766 580.589 580.595 580.5 580.434 580.362 580.259 580.15 579.379 579.192 579.096 578.94 578.859 578.841 578.748 578.646 578.612 578.616 578.372 578.218 578.148 578.142 578.089 578.012 577.62 577.464 577.433 577.326 577.022 576.552 576.341 576.119 575.951 575.695 575.575 575.201 575.038 574.509 574.994 575.01 574.885 574.758 574.702 574.629 574.444 574.363 574.372 574.348 573.988 573.937 574.092 573.87 573.849 573.736 573.59 573.542 573.451 573.298 573.372 573.057 572.841 572.638 572.547 572.419 572.431 572.446 572.248 572.227 572.159 572.277 572.1 572.163 571.961 570.957 570.732 571.346 571.377 571.247
