ncols 377
nrows 31
xllcorner    389148
yllcorner    479052
cellsize     2
NODATA_value -9999
391.504 392.349 393.409 393.799 393.739 393.552 393.299 393.007 392.757 392.594 392.389 392.187 391.852 391.574 391.469 391.162 391.137 391.082 391.054 390.952 390.762 390.609 390.464 390.269 389.907 389.352 388.392 387.572 388.082 388.609 388.422 388.239 387.959 387.662 387.417 387.099 386.644 386.519 386.537 386.249 385.979 385.649 385.339 385.024 384.619 384.179 383.399 382.494 382.222 382.469 382.627 382.547 382.384 382.337 382.307 382.317 382.359 382.229 382.042 381.872 381.757 381.532 381.369 381.337 381.324 381.254 381.124 380.924 380.782 380.547 380.272 380.042 379.844 379.642 379.312 379.157 379.112 378.882 378.754 378.607 378.422 378.184 378.009 377.817 377.642 377.439 377.362 377.279 377.087 376.869 376.639 376.479 376.272 376.114 375.837 375.529 375.224 374.887 374.589 374.267 373.977 373.717 373.489 373.232 373.057 372.954 372.897 372.924 372.979 373.067 373.019 372.979 372.922 372.834 372.672 372.412 372.087 371.812 371.494 371.204 370.977 370.732 370.527 370.022 369.317 369.004 368.764 368.387 368.097 367.902 367.829 367.812 367.809 367.899 367.694 367.404 367.172 367.244 367.254 367.062 366.867 366.719 366.602 366.527 366.457 366.369 366.324 366.234 366.082 365.892 365.682 365.494 365.324 365.174 364.997 364.902 364.719 364.514 364.249 363.929 363.702 363.489 363.382 363.174 363.047 362.847 362.719 362.454 362.274 362.072 361.909 361.812 361.614 361.472 361.192 360.872 360.587 360.319 360.024 359.744 359.584 359.312 358.947 358.654 358.457 358.182 357.874 357.597 357.347 357.014 356.687 356.407 356.074 355.774 355.644 355.482 355.307 355.097 354.909 354.697 354.547 354.314 354.059 353.704 353.354 353.084 352.857 352.709 352.507 352.259 352.039 351.877 351.687 351.554 351.482 351.352 351.219 351.144 351.024 350.929 350.802 350.832 350.809 350.762 350.674 350.514 350.282 350.012 349.744 349.467 349.249 348.939 348.564 348.149 347.837 347.414 347.002 346.607 346.192 345.857 345.382 345.022 344.612 344.164 343.472 342.369 341.639 341.117 340.707 340.397 340.137 339.987 339.857 339.782 339.607 339.549 339.492 339.439 339.439 339.484 339.557 339.492 339.294 339.047 338.747 338.442 338.067 337.647 337.179 336.714 336.364 335.959 335.499 335.119 334.714 334.184 333.587 333.052 332.557 331.849 331.274 330.747 330.299 329.919 329.339 328.787 328.254 327.879 327.549 327.124 326.752 326.594 326.452 326.259 326.167 326.079 326.007 325.869 325.679 325.504 325.349 325.167 325.017 324.784 324.567 324.269 323.987 323.597 323.197 322.807 322.469 322.259 322.102 321.949 321.804 321.622 321.452 321.369 321.329 321.444 321.437 321.182 320.862 320.579 320.037 319.602 319.182 318.689 318.267 317.919 317.672 317.432 317.224 316.997 316.829 316.677 316.512 316.294 316.244 316.187 316.229 316.222 316.282 316.444 316.664 316.967 316.982 316.994 316.849 316.544 316.277 315.972 315.652 315.352 315.059 314.767 314.534 314.204 313.974 313.734 313.472 313.239 313.024 312.744 312.389 311.927 311.482 311.137 310.832 310.642 310.519 310.342 310.104 309.914 309.719 309.454 309.329
392.004 392.807 393.907 394.214 394.059 393.797 393.514 393.249 393.112 392.977 392.774 392.529 392.257 392.039 391.909 391.807 391.704 391.692 391.654 391.522 391.337 391.114 390.992 390.779 390.392 389.754 389.002 388.559 388.879 389.157 389.052 388.829 388.569 388.347 388.052 387.552 386.834 386.527 386.837 386.682 386.407 386.012 385.582 385.317 384.852 384.359 383.692 382.857 382.849 383.277 383.404 383.259 382.972 382.857 382.857 382.802 382.769 382.627 382.414 382.227 382.109 381.972 381.804 381.842 381.879 381.799 381.642 381.407 381.197 380.899 380.654 380.429 380.239 380.057 379.744 379.589 379.489 379.389 379.179 379.069 378.867 378.542 378.407 378.239 378.024 377.904 377.837 377.697 377.544 377.249 376.987 376.817 376.609 376.324 376.029 375.644 375.272 374.957 374.752 374.399 374.112 373.884 373.702 373.522 373.367 373.302 373.227 373.254 373.354 373.414 373.409 373.344 373.274 373.159 372.967 372.669 372.342 372.124 371.869 371.612 371.442 371.252 371.009 370.614 369.962 369.352 369.024 368.682 368.417 368.382 368.554 368.497 368.254 368.154 368.074 367.719 367.119 367.557 367.589 367.329 367.122 366.982 366.894 366.757 366.702 366.569 366.437 366.349 366.217 366.027 365.797 365.722 365.537 365.344 365.234 365.119 364.977 364.797 364.559 364.237 364.009 363.829 363.599 363.352 363.209 363.062 362.944 362.764 362.594 362.442 362.264 362.147 362.049 361.899 361.682 361.324 361.062 360.744 360.397 360.064 359.792 359.482 359.209 358.894 358.647 358.379 358.029 357.719 357.399 357.094 356.864 356.669 356.412 356.184 356.007 355.839 355.759 355.592 355.429 355.179 354.899 354.699 354.414 354.114 353.757 353.459 353.214 352.994 352.767 352.604 352.384 352.214 352.052 351.972 351.859 351.704 351.597 351.532 351.519 351.512 351.397 351.304 351.239 351.134 351.059 350.879 350.597 350.337 350.102 349.837 349.647 349.322 349.007 348.664 348.287 347.857 347.499 347.142 346.777 346.449 346.079 345.724 345.467 344.899 344.449 343.742 342.462 341.817 341.354 340.884 340.509 340.292 340.134 340.052 339.892 339.822 339.759 339.762 339.874 340.022 340.114 340.019 339.892 339.632 339.347 339.002 338.524 338.084 337.599 337.207 336.869 336.497 336.062 335.654 335.209 334.702 334.134 333.517 332.937 332.387 331.847 331.304 330.844 330.379 329.922 329.474 328.909 328.169 327.652 327.429 327.037 326.777 326.609 326.509 326.387 326.307 326.184 326.044 325.894 325.687 325.507 325.269 325.157 324.954 324.807 324.479 324.182 323.832 323.512 323.194 322.829 322.402 322.147 322.017 321.907 321.814 321.744 321.767 321.722 321.687 321.497 321.059 320.689 320.359 319.859 319.582 319.207 318.754 318.372 318.129 317.924 317.719 317.497 317.334 317.127 316.962 316.832 316.679 316.627 316.567 316.534 316.552 316.727 316.904 317.199 317.344 317.319 317.272 317.032 316.842 316.587 316.144 315.792 315.544 315.254 314.969 314.697 314.394 314.144 313.934 313.712 313.544 313.242 313.004 312.767 312.299 311.857 311.544 311.119 310.867 310.684 310.629 310.559 310.402 310.154 310.007 309.664
392.344 393.189 394.197 394.424 394.267 394.024 393.757 393.557 393.472 393.332 393.099 392.877 392.679 392.547 392.442 392.397 392.324 392.229 392.124 391.984 391.787 391.659 391.499 391.257 390.867 390.309 389.849 389.729 389.807 389.774 389.627 389.367 389.122 388.887 388.557 388.042 387.462 387.022 387.072 386.924 386.689 386.199 385.752 385.327 384.737 384.084 383.549 382.999 383.382 383.874 383.864 383.714 383.464 383.402 383.402 383.219 383.129 383.022 382.854 382.707 382.597 382.492 382.372 382.352 382.374 382.249 382.139 381.944 381.734 381.452 381.194 380.877 380.682 380.407 380.219 380.094 379.989 379.832 379.649 379.484 379.284 379.039 378.822 378.642 378.432 378.292 378.229 378.092 377.907 377.657 377.412 377.194 376.922 376.599 376.232 375.724 375.407 375.107 374.849 374.514 374.292 374.222 374.024 373.854 373.742 373.647 373.589 373.594 373.647 373.694 373.659 373.647 373.614 373.499 373.217 372.919 372.652 372.432 372.199 371.929 371.794 371.594 371.324 370.954 370.262 369.822 369.577 369.282 369.119 368.999 368.894 368.977 368.864 368.547 368.539 368.744 368.117 367.704 367.922 367.717 367.437 367.327 367.209 367.037 366.924 366.764 366.637 366.532 366.367 366.224 366.049 365.962 365.767 365.612 365.512 365.312 365.164 365.042 364.814 364.607 364.349 364.052 363.864 363.604 363.434 363.274 363.077 362.924 362.862 362.734 362.597 362.522 362.479 362.249 361.992 361.749 361.472 361.129 360.732 360.252 359.932 359.642 359.359 359.057 358.762 358.432 358.167 357.794 357.464 357.199 357.007 356.832 356.682 356.519 356.314 356.164 356.074 355.997 355.767 355.492 355.192 354.992 354.704 354.422 354.154 353.902 353.717 353.444 353.139 352.979 352.819 352.604 352.472 352.304 352.169 352.064 352.054 352.014 352.052 352.064 351.982 351.802 351.652 351.527 351.394 351.257 351.044 350.789 350.517 350.332 350.097 349.749 349.427 349.104 348.724 348.327 347.989 347.604 347.282 346.959 346.617 346.249 345.874 345.432 345.057 344.452 343.482 342.694 342.232 341.604 341.119 340.672 340.482 340.274 340.322 340.182 340.032 340.054 340.219 340.417 340.492 340.394 340.314 340.079 339.784 339.442 338.994 338.522 337.999 337.647 337.319 336.987 336.614 336.167 335.687 335.192 334.657 334.067 333.437 332.852 332.389 331.839 331.344 330.887 330.357 329.864 329.317 328.789 328.244 327.697 327.294 327.084 326.884 326.744 326.662 326.537 326.447 326.274 326.097 325.869 325.704 325.502 325.339 325.167 324.987 324.809 324.509 324.164 323.859 323.617 323.407 322.949 322.604 322.299 322.077 321.937 321.922 321.937 321.772 321.539 321.227 320.944 320.609 320.217 319.902 319.542 319.252 318.839 318.577 318.294 318.069 317.907 317.744 317.572 317.459 317.357 317.262 317.147 317.024 316.999 317.089 317.172 317.294 317.372 317.519 317.629 317.602 317.459 317.252 316.999 316.709 316.357 315.932 315.624 315.347 315.102 314.824 314.579 314.317 314.129 313.872 313.749 313.524 313.294 313.134 312.992 312.689 312.274 311.764 311.469 311.212 311.014 310.924 310.999 310.644 310.517 310.257
392.824 393.404 394.327 394.524 394.409 394.264 394.039 393.899 393.792 393.674 393.452 393.242 393.104 393.012 392.919 392.844 392.812 392.752 392.592 392.414 392.252 392.122 391.959 391.697 391.424 391.019 390.672 390.507 390.412 390.257 390.039 389.767 389.542 389.317 388.952 388.559 388.147 387.767 387.399 387.307 386.942 386.457 385.954 385.179 384.247 383.674 383.397 383.327 383.687 384.109 384.174 384.069 383.942 383.849 383.777 383.707 383.602 383.447 383.297 383.227 383.134 382.992 382.889 382.852 382.834 382.754 382.589 382.432 382.244 381.994 381.662 381.397 381.197 380.999 380.802 380.644 380.507 380.339 380.182 379.979 379.717 379.417 379.172 379.004 378.849 378.769 378.619 378.467 378.282 378.029 377.789 377.502 377.159 376.754 376.349 375.967 375.634 375.297 375.052 374.829 374.689 374.347 374.159 374.114 374.087 373.987 373.967 373.954 373.944 373.914 373.939 373.917 373.852 373.677 373.427 373.192 372.917 372.714 372.492 372.249 372.092 371.847 371.462 371.002 370.649 370.424 370.207 370.077 369.972 370.027 369.914 369.617 369.297 369.089 368.962 369.034 368.874 368.439 368.317 368.057 367.799 367.589 367.444 367.332 367.274 366.999 366.864 366.692 366.539 366.452 366.279 366.149 366.052 365.874 365.677 365.494 365.389 365.174 364.974 364.802 364.539 364.297 364.134 363.919 363.652 363.432 363.259 363.117 363.057 363.002 362.927 362.869 362.769 362.587 362.392 362.122 361.872 361.422 360.939 360.444 360.137 359.857 359.507 359.202 358.907 358.537 358.234 357.884 357.679 357.369 357.157 357.004 356.867 356.664 356.534 356.404 356.334 356.252 356.032 355.714 355.537 355.324 355.109 354.844 354.602 354.399 354.154 353.894 353.622 353.389 353.212 353.104 352.902 352.727 352.534 352.464 352.469 352.529 352.607 352.574 352.494 352.317 352.132 351.962 351.777 351.599 351.409 351.199 350.964 350.712 350.437 350.114 349.752 349.462 349.227 348.922 348.532 348.077 347.719 347.429 347.244 346.754 346.319 345.884 345.407 344.942 344.469 343.904 343.224 342.419 341.752 341.157 340.874 340.644 340.517 340.439 340.344 340.329 340.472 340.744 340.842 340.902 340.652 340.467 340.157 339.847 339.509 339.084 338.682 338.267 337.782 337.459 337.102 336.667 336.177 335.702 335.214 334.704 334.034 333.397 332.859 332.377 331.859 331.414 330.902 330.327 329.664 329.094 328.697 328.227 327.674 327.372 327.212 327.032 326.927 326.847 326.724 326.544 326.334 326.127 325.909 325.744 325.552 325.449 325.307 325.102 325.009 324.684 324.314 323.952 323.779 323.437 323.127 322.754 322.477 322.342 322.214 322.019 321.639 321.372 321.062 320.762 320.514 320.169 319.899 319.552 319.259 318.979 318.732 318.612 318.457 318.277 318.157 318.029 317.969 317.999 317.987 317.819 317.612 317.584 317.617 317.664 317.684 317.814 317.954 318.017 317.924 317.672 317.422 317.112 316.809 316.497 316.124 315.774 315.509 315.309 314.974 314.804 314.582 314.389 314.217 314.179 313.822 313.619 313.474 313.322 313.214 312.889 312.487 312.222 311.867 311.567 311.347 311.204 311.084 310.932 310.624
393.137 393.509 394.197 394.594 394.599 394.459 394.349 394.254 394.099 393.954 393.789 393.642 393.544 393.497 393.389 393.354 393.234 393.152 393.009 392.794 392.662 392.527 392.364 392.109 391.834 391.514 391.239 391.002 390.862 390.609 390.394 390.114 389.887 389.657 389.304 388.982 388.667 388.314 387.952 387.614 387.267 386.779 386.227 384.977 383.779 383.677 383.667 383.819 383.914 384.299 384.532 384.357 384.252 384.022 383.964 384.034 384.007 383.897 383.792 383.677 383.617 383.522 383.404 383.357 383.332 383.262 383.132 382.962 382.717 382.497 382.177 381.967 381.814 381.569 381.404 381.239 381.029 380.839 380.707 380.457 380.227 379.889 379.219 379.237 379.322 379.174 379.007 378.804 378.654 378.384 378.102 377.752 377.404 376.997 376.534 376.122 375.857 375.584 375.384 375.137 374.842 374.332 374.192 374.334 374.432 374.354 374.314 374.279 374.319 374.319 374.284 374.217 374.074 373.859 373.657 373.469 373.184 372.927 372.682 372.534 372.382 372.059 371.674 371.212 371.027 370.927 370.749 370.647 370.614 370.557 370.457 370.179 369.784 369.579 369.394 368.832 369.159 368.777 368.662 368.427 368.357 367.922 367.722 367.534 367.324 367.234 367.132 366.919 366.777 366.647 366.474 366.407 366.247 366.137 365.952 365.757 365.589 365.369 365.172 364.914 364.734 364.542 364.369 364.172 363.944 363.709 363.494 363.362 363.339 363.289 363.257 363.192 363.059 362.899 362.664 362.384 362.082 361.612 361.009 360.602 360.242 359.874 359.592 359.269 358.997 358.697 358.387 358.044 357.827 357.579 357.392 357.202 357.089 357.049 356.914 356.732 356.617 356.542 356.384 356.102 355.909 355.672 355.454 355.267 355.104 354.852 354.562 354.284 353.964 353.747 353.602 353.517 353.367 353.192 353.067 353.022 352.962 353.012 353.027 352.964 352.822 352.662 352.492 352.402 352.217 351.949 351.737 351.539 351.342 351.064 350.792 350.514 350.194 349.874 349.599 349.309 349.002 348.637 348.219 347.927 347.632 347.217 346.837 346.352 345.872 345.492 345.202 344.882 344.324 343.309 342.372 341.767 341.389 341.172 340.867 340.754 340.669 340.592 340.709 340.974 341.154 341.314 340.967 340.842 340.532 340.167 339.922 339.559 339.214 338.824 338.334 337.939 337.552 337.112 336.634 336.192 335.694 335.134 334.562 333.917 333.327 332.832 332.417 331.914 331.444 330.792 330.229 329.607 329.027 328.609 328.157 327.684 327.484 327.364 327.242 327.169 326.984 326.809 326.617 326.369 326.184 326.014 325.882 325.829 325.722 325.539 325.372 325.184 324.934 324.509 324.149 323.769 323.412 323.137 322.837 322.652 322.489 322.107 321.717 321.424 321.142 320.869 320.582 320.332 320.167 319.947 319.682 319.452 319.187 319.034 318.899 318.772 318.657 318.557 318.497 318.482 318.479 318.364 318.237 318.154 318.194 318.334 318.197 318.304 318.344 318.364 318.289 318.097 317.724 317.299 316.872 316.554 316.279 315.984 315.644 315.397 315.102 314.977 314.807 314.649 314.514 314.399 314.179 314.042 313.869 313.674 313.472 313.344 313.067 312.757 312.469 312.217 311.957 311.669 311.484 311.302 311.072
393.342 393.622 394.237 394.592 394.754 394.729 394.612 394.492 394.367 394.234 394.097 393.974 393.914 393.902 393.812 393.667 393.607 393.477 393.294 393.042 392.964 392.867 392.699 392.574 392.262 391.902 391.679 391.417 391.272 390.942 390.697 390.454 390.184 389.929 389.599 389.277 388.994 388.717 388.367 387.927 387.484 386.892 386.142 385.054 384.064 384.284 384.327 384.277 384.684 385.037 384.964 384.729 384.592 384.279 384.082 384.314 384.379 384.314 384.314 384.144 384.067 383.974 383.914 383.879 383.872 383.777 383.577 383.369 383.117 382.927 382.667 382.464 382.299 382.079 381.892 381.714 381.477 381.219 381.054 380.814 380.594 380.242 379.747 379.747 379.782 379.624 379.429 379.207 378.982 378.662 378.304 377.972 377.599 377.227 376.804 376.432 376.202 375.922 375.674 375.349 374.947 374.599 374.544 374.692 374.764 374.684 374.692 374.699 374.679 374.682 374.597 374.467 374.262 374.119 373.894 373.642 373.412 373.199 372.967 372.817 372.609 372.357 371.959 371.547 371.372 371.297 371.329 371.252 371.079 370.919 370.787 370.629 370.377 370.179 369.967 369.654 368.924 368.889 368.919 368.684 368.459 368.149 367.992 367.799 367.629 367.424 367.359 367.142 367.034 366.937 366.779 366.644 366.517 366.362 366.222 365.954 365.792 365.607 365.367 365.097 364.917 364.757 364.537 364.384 364.194 363.989 363.762 363.602 363.492 363.482 363.472 363.474 363.342 363.152 362.927 362.627 362.172 361.669 361.102 360.674 360.334 359.974 359.679 359.402 359.134 358.929 358.602 358.272 357.974 357.794 357.604 357.419 357.342 357.172 357.074 356.997 356.872 356.834 356.714 356.487 356.267 356.044 355.792 355.589 355.442 355.212 354.939 354.654 354.397 354.167 354.039 354.007 353.764 353.672 353.577 353.464 353.377 353.424 353.427 353.272 353.137 352.932 352.822 352.734 352.642 352.404 352.152 351.947 351.727 351.397 351.094 350.929 350.674 350.377 350.014 349.724 349.427 349.094 348.619 348.269 347.917 347.564 347.219 346.879 346.344 345.784 345.474 345.277 344.974 344.114 343.127 342.599 342.254 341.867 341.429 341.077 340.982 340.897 340.964 341.189 341.372 341.384 341.232 341.084 340.849 340.549 340.284 339.974 339.564 339.197 338.777 338.442 337.977 337.539 337.119 336.657 336.147 335.594 335.062 334.399 333.759 333.174 332.784 332.319 331.759 331.249 330.704 330.494 329.764 329.162 328.609 328.187 327.932 327.727 327.589 327.454 327.282 327.072 326.892 326.674 326.557 326.299 326.129 326.124 326.082 326.004 325.797 325.552 325.272 324.839 324.547 324.172 323.754 323.409 323.029 322.767 322.642 322.327 321.914 321.537 321.274 321.032 320.827 320.614 320.417 320.289 320.124 319.927 319.669 319.709 319.519 319.312 319.214 319.142 319.107 319.127 319.167 319.092 318.852 318.742 318.854 318.839 318.759 318.842 318.817 318.819 318.732 318.532 318.152 317.692 317.112 316.639 316.367 316.214 315.869 315.637 315.357 315.184 315.074 314.994 314.924 314.759 314.632 314.409 314.207 314.017 313.762 313.547 313.334 313.159 313.017 312.827 312.622 312.227 311.879 311.667 311.532
393.727 393.974 394.317 394.732 394.934 394.934 394.822 394.682 394.584 394.477 394.394 394.284 394.242 394.192 394.109 394.022 393.907 393.719 393.512 393.337 393.262 393.184 392.977 392.739 392.527 392.277 392.002 391.782 391.547 391.244 391.007 390.737 390.452 390.122 389.802 389.462 389.177 388.964 388.532 388.089 387.539 386.864 386.099 385.142 384.449 384.564 384.819 384.467 384.597 385.377 385.424 385.219 385.059 384.947 384.894 384.862 384.802 384.742 384.664 384.597 384.509 384.474 384.394 384.342 384.219 384.162 383.979 383.737 383.432 383.234 383.022 382.797 382.637 382.554 382.287 382.132 381.912 381.652 381.452 381.199 380.932 380.702 380.519 380.359 380.222 380.052 379.789 379.507 379.269 378.919 378.572 378.239 377.862 377.434 377.089 376.782 376.509 376.269 375.952 375.514 375.179 375.019 374.832 374.914 375.094 375.087 375.109 375.099 375.027 374.954 374.894 374.704 374.484 374.334 374.124 373.867 373.634 373.434 373.214 372.954 372.759 372.542 372.197 371.919 371.792 371.747 371.842 371.794 371.692 371.394 371.167 371.057 370.932 370.774 370.517 370.199 369.997 369.362 369.139 368.819 368.569 368.374 368.199 368.049 367.889 367.794 367.749 367.482 367.387 367.332 367.132 366.894 366.737 366.502 366.267 366.099 366.034 365.812 365.589 365.354 365.147 365.002 364.834 364.612 364.419 364.249 364.049 363.854 363.757 363.754 363.729 363.724 363.572 363.399 363.177 362.817 362.279 361.744 361.207 360.837 360.447 360.077 359.814 359.554 359.329 359.132 358.897 358.627 358.329 358.039 357.842 357.707 357.642 357.554 357.424 357.322 357.287 357.172 357.009 356.757 356.579 356.322 356.112 355.894 355.702 355.439 355.189 354.974 354.752 354.622 354.487 354.339 354.214 354.047 353.897 353.814 353.754 353.782 353.719 353.597 353.469 353.244 353.114 353.002 352.894 352.742 352.487 352.282 351.977 351.672 351.449 351.267 351.002 350.734 350.432 350.082 349.832 349.514 349.004 348.554 348.184 347.849 347.527 347.152 346.674 346.222 345.962 345.512 345.207 344.584 343.974 343.674 343.082 342.687 342.154 341.619 341.422 341.214 341.214 341.287 341.477 341.534 341.474 341.227 341.012 340.832 340.632 340.359 340.002 339.627 339.202 338.822 338.429 337.952 337.574 337.094 336.544 336.009 335.499 334.844 334.189 333.542 333.074 332.607 332.062 331.567 331.109 330.674 330.304 329.862 329.262 328.682 328.382 328.179 327.967 327.812 327.592 327.332 327.114 326.937 326.839 326.562 326.439 326.389 326.414 326.372 326.279 326.039 325.632 325.262 324.807 324.454 324.044 323.737 323.339 322.962 322.732 322.414 322.089 321.732 321.487 321.287 321.244 321.074 320.787 320.624 320.469 320.409 320.244 320.154 320.039 319.967 319.907 319.924 319.877 319.802 319.722 319.577 319.474 319.372 319.384 319.344 319.307 319.397 319.474 319.474 319.292 318.987 318.589 318.124 317.512 316.972 316.514 316.189 316.057 315.929 315.612 315.477 315.394 315.377 315.379 315.149 315.132 314.917 314.609 314.399 314.134 313.852 313.607 313.449 313.292 313.184 312.954 312.619 312.264 312.012 311.852
394.432 394.504 394.632 394.989 395.169 395.144 395.022 394.919 394.839 394.789 394.712 394.619 394.519 394.439 394.389 394.347 394.177 393.969 393.742 393.709 393.549 393.382 393.244 393.019 392.757 392.552 392.322 392.052 391.774 391.524 391.242 390.977 390.674 390.359 390.044 389.699 389.337 389.019 388.577 388.117 387.567 386.934 386.169 385.337 384.944 385.087 385.069 385.162 385.222 385.654 385.792 385.527 385.537 385.587 385.519 385.392 385.342 385.222 385.112 385.054 384.989 384.924 384.867 384.772 384.587 384.459 384.359 384.094 383.822 383.564 383.239 383.094 382.904 382.827 382.687 382.494 382.294 382.029 381.789 381.559 381.347 381.139 380.952 380.779 380.614 380.384 380.107 379.837 379.539 379.239 378.899 378.492 378.084 377.727 377.447 377.082 376.802 376.554 376.247 375.864 375.552 375.507 375.337 375.212 375.349 375.517 375.504 375.439 375.304 375.169 375.077 374.864 374.669 374.489 374.362 374.117 373.854 373.647 373.397 373.122 372.827 372.579 372.499 372.357 372.269 372.274 372.337 372.317 372.192 371.992 371.587 371.349 371.279 371.187 371.007 370.502 370.102 369.749 369.604 369.154 368.794 368.632 368.452 368.344 368.169 368.124 368.034 367.867 367.862 367.607 367.429 367.214 366.994 366.719 366.504 366.277 366.144 366.024 365.814 365.609 365.447 365.317 365.132 364.919 364.729 364.559 364.379 364.219 364.107 364.004 363.932 363.862 363.767 363.582 363.304 362.844 362.352 361.787 361.312 361.004 360.627 360.249 360.012 359.782 359.589 359.369 359.172 358.937 358.802 358.452 358.204 358.112 358.054 357.992 357.832 357.712 357.574 357.434 357.294 357.057 356.827 356.637 356.479 356.234 355.997 355.759 355.457 355.279 355.062 354.929 354.924 354.757 354.589 354.429 354.329 354.249 354.174 354.172 354.117 353.954 353.812 353.589 353.477 353.392 353.312 353.127 352.889 352.622 352.317 351.977 351.694 351.444 351.257 351.052 350.792 350.462 350.174 349.839 349.367 348.944 348.502 348.082 347.702 347.302 346.927 346.587 346.272 345.884 345.509 345.204 344.827 344.574 344.087 343.589 342.979 342.304 341.752 341.477 341.482 341.532 341.612 341.552 341.469 341.372 341.244 341.077 340.892 340.619 340.347 340.019 339.622 339.292 338.822 338.397 338.017 337.524 336.982 336.417 336.032 335.349 334.654 333.942 333.429 332.969 332.429 331.967 331.522 330.994 330.622 330.287 329.957 329.409 328.974 328.637 328.372 328.154 327.964 327.749 327.564 327.402 327.142 326.872 326.789 326.779 326.759 326.804 326.714 326.419 326.064 325.724 325.294 324.884 324.519 324.009 323.527 323.204 322.987 322.619 322.349 321.999 321.777 321.564 321.412 321.237 321.117 321.029 320.929 320.882 320.864 320.834 320.777 320.699 320.644 320.634 320.619 320.512 320.409 320.209 320.099 319.952 319.957 320.014 319.999 320.079 320.137 320.087 319.859 319.544 319.069 318.514 317.944 317.429 316.852 316.452 316.229 316.049 315.962 315.789 315.699 315.732 315.812 315.599 315.417 315.249 315.044 314.794 314.504 314.197 313.844 313.664 313.592 313.459 313.269 313.017 312.687 312.387 312.154
394.932 395.042 395.137 395.359 395.404 395.442 395.312 395.227 395.142 395.062 394.992 394.924 394.872 394.787 394.689 394.582 394.424 394.204 394.064 393.962 393.769 393.587 393.434 393.264 393.032 392.789 392.552 392.354 392.007 391.734 391.459 391.169 390.822 390.479 390.109 389.842 389.507 389.134 388.704 388.249 387.672 387.062 386.309 385.667 385.662 385.717 385.472 385.509 385.737 385.982 386.094 385.884 385.997 386.057 385.957 385.887 385.809 385.774 385.584 385.557 385.504 385.432 385.304 385.207 385.034 384.762 384.619 384.399 384.169 383.949 383.677 383.422 383.217 383.052 382.959 382.839 382.627 382.379 382.147 381.954 381.734 381.522 381.312 381.147 380.944 380.647 380.397 380.157 379.889 379.559 379.172 378.654 378.219 377.999 378.112 377.182 376.967 376.704 376.384 376.177 375.992 375.922 375.842 375.699 375.752 375.827 375.809 375.757 375.647 375.412 375.234 375.027 374.907 374.719 374.619 374.389 374.159 373.939 373.674 373.367 373.052 372.722 372.642 372.739 372.724 372.742 372.707 372.699 372.489 372.269 371.964 371.724 371.672 371.502 371.284 370.877 370.604 370.124 370.012 369.772 369.567 369.209 369.004 368.744 368.614 368.504 368.464 368.294 368.189 368.017 367.749 367.497 367.194 366.974 366.752 366.524 366.324 366.169 366.014 365.807 365.637 365.517 365.439 365.242 365.007 364.817 364.617 364.444 364.302 364.182 364.239 364.129 363.867 363.624 363.282 362.849 362.374 361.904 361.482 361.172 360.812 360.454 360.199 360.052 359.889 359.669 359.479 359.337 359.169 358.929 358.759 358.549 358.447 358.334 358.237 358.124 357.977 357.824 357.647 357.372 357.124 357.012 356.859 356.564 356.289 355.997 355.717 355.532 355.382 355.269 355.267 355.124 355.039 354.852 354.724 354.659 354.584 354.592 354.444 354.287 354.127 354.002 353.859 353.822 353.704 353.524 353.252 352.927 352.644 352.314 351.972 351.639 351.412 351.287 351.084 350.777 350.422 350.069 349.662 349.237 348.782 348.329 347.927 347.552 347.217 346.974 346.717 346.277 345.862 345.737 345.614 345.327 344.787 344.462 343.802 343.162 342.299 341.812 341.719 341.774 341.799 341.732 341.642 341.512 341.329 341.184 341.037 340.787 340.647 340.332 339.999 339.654 339.287 338.809 338.394 337.967 337.474 336.929 336.444 335.807 335.042 334.224 333.679 333.237 332.757 332.292 331.922 331.417 330.962 330.697 330.424 330.009 329.544 329.154 328.867 328.647 328.382 328.312 328.294 327.662 327.397 327.267 327.189 327.252 327.277 327.217 327.137 326.879 326.577 326.287 325.784 325.264 324.707 324.247 323.872 323.499 323.157 322.887 322.627 322.312 322.044 321.844 321.662 321.567 321.459 321.462 321.522 321.457 321.412 321.549 321.497 321.399 321.342 321.267 321.219 321.197 321.074 320.827 320.602 320.509 320.609 320.599 320.559 320.619 320.604 320.592 320.367 320.052 319.622 318.977 318.352 317.779 317.197 316.677 316.469 316.249 316.199 316.144 316.039 316.027 315.939 315.849 315.749 315.532 315.289 315.054 314.817 314.539 314.312 313.992 313.797 313.674 313.542 313.417 313.234 312.919 312.569
395.334 395.472 395.539 395.712 395.754 395.699 395.617 395.537 395.497 395.434 395.352 395.254 395.167 395.054 394.862 394.774 394.642 394.437 394.339 394.162 394.034 393.834 393.664 393.487 393.259 393.012 392.722 392.504 392.217 391.947 391.649 391.344 390.999 390.592 390.254 390.029 389.694 389.282 388.924 388.359 387.669 386.997 386.449 386.309 386.429 386.319 386.034 385.999 386.144 386.359 386.542 386.457 386.472 386.422 386.334 386.359 386.239 386.089 386.007 386.029 385.949 385.899 385.859 385.714 385.429 385.177 384.994 384.794 384.502 384.309 384.067 383.817 383.599 383.417 383.319 383.159 382.964 382.774 382.554 382.367 382.097 381.927 381.704 381.472 381.224 380.962 380.654 380.409 380.167 379.814 379.377 378.894 378.367 378.397 378.147 377.797 376.994 376.824 376.539 376.387 376.387 376.334 376.274 376.242 376.217 376.109 376.067 375.984 375.907 375.744 375.552 375.282 375.092 375.004 374.842 374.649 374.449 374.217 373.952 373.614 373.307 373.149 373.037 373.024 373.007 373.024 373.027 372.887 372.702 372.502 372.274 372.072 371.927 371.724 371.439 371.264 371.227 370.849 370.457 370.437 370.367 370.152 369.959 369.567 369.204 368.954 368.852 368.667 368.492 368.379 368.102 367.814 367.557 367.277 366.957 366.719 366.589 366.419 366.212 366.072 365.864 365.749 365.552 365.472 365.287 365.052 364.842 364.652 364.482 364.362 364.244 364.089 363.889 363.647 363.329 362.967 362.507 362.074 361.714 361.467 361.039 360.752 360.567 360.329 360.177 360.092 359.962 359.869 359.617 359.339 359.109 358.984 358.817 358.619 358.519 358.459 358.379 358.247 358.004 357.802 357.584 357.432 357.189 356.927 356.557 356.217 355.987 355.809 355.664 355.572 355.504 355.417 355.344 355.189 355.122 355.022 354.982 354.987 354.807 354.634 354.507 354.419 354.262 354.179 354.032 353.914 353.657 353.344 353.007 352.662 352.327 351.919 351.639 351.477 351.259 350.962 350.694 350.314 349.882 349.439 349.017 348.559 348.149 347.832 347.482 347.314 347.102 346.759 346.372 346.037 345.979 345.814 345.297 344.974 344.552 343.662 342.854 342.139 341.979 341.992 342.039 341.959 341.804 341.752 341.512 341.392 341.232 341.044 340.774 340.559 340.242 339.919 339.582 339.197 338.722 338.387 337.949 337.507 336.952 336.304 335.717 334.944 334.004 333.494 333.049 332.532 332.139 331.729 331.384 331.089 330.704 330.314 329.962 329.632 329.409 329.147 328.884 328.647 328.444 328.127 327.877 327.764 327.687 327.642 327.689 327.739 327.699 327.532 327.097 326.702 326.364 325.779 325.064 324.527 324.129 323.742 323.394 323.227 322.947 322.692 322.439 322.252 322.124 322.012 321.954 321.909 321.882 321.924 321.864 321.917 321.974 321.957 321.834 321.812 321.712 321.617 321.429 321.182 321.037 321.072 321.032 321.097 321.124 321.264 321.302 321.169 320.919 320.574 320.069 319.399 318.779 318.144 317.602 317.064 316.767 316.612 316.457 316.359 316.299 316.242 316.152 316.042 315.922 315.677 315.437 315.167 315.029 314.822 314.572 314.337 314.112 313.942 313.812 313.677 313.519 313.379 313.114
395.879 395.752 395.932 396.057 396.077 395.999 396.009 395.847 395.794 395.762 395.667 395.539 395.432 395.272 395.107 394.974 394.832 394.649 394.522 394.327 394.194 394.017 393.857 393.672 393.439 393.184 392.929 392.709 392.409 392.137 391.809 391.487 391.159 390.762 390.439 390.122 389.747 389.337 388.962 388.389 387.897 387.599 387.239 387.209 387.219 387.024 386.697 386.779 386.717 386.887 387.087 386.937 386.889 386.949 386.662 386.572 386.667 386.524 386.457 386.519 386.347 386.339 386.297 386.109 385.884 385.639 385.432 385.202 384.852 384.594 384.422 384.169 383.987 383.879 383.797 383.567 383.339 383.122 382.899 382.712 382.437 382.217 382.017 381.787 381.524 381.264 380.964 380.767 380.529 380.062 379.482 379.129 378.769 378.382 377.902 378.192 377.664 377.114 376.329 376.549 376.754 376.672 376.622 376.602 376.544 376.412 376.359 376.239 376.147 375.999 375.857 375.619 375.489 375.352 375.192 375.012 374.799 374.567 374.272 373.917 373.617 373.479 373.352 373.299 373.254 373.214 373.187 373.039 372.862 372.679 372.497 372.307 372.107 371.932 371.694 371.562 371.349 371.019 370.864 370.787 370.614 370.469 370.277 370.074 369.752 369.689 369.424 369.202 368.867 368.649 368.474 368.209 367.844 367.587 367.384 367.077 366.857 366.719 366.552 366.372 366.094 365.967 365.749 365.609 365.457 365.299 365.109 364.852 364.654 364.537 364.364 364.154 364.002 363.779 363.464 363.167 362.699 362.329 362.019 361.824 361.524 361.224 361.039 360.797 360.554 360.504 360.412 360.279 360.077 359.792 359.579 359.414 359.242 359.042 358.889 358.842 358.724 358.527 358.329 358.127 357.932 357.744 357.472 357.082 356.704 356.319 356.142 356.082 355.999 355.917 355.754 355.642 355.552 355.519 355.452 355.359 355.384 355.284 355.129 354.997 354.879 354.729 354.642 354.537 354.429 354.284 354.052 353.777 353.417 353.059 352.707 352.337 352.057 351.739 351.452 351.149 350.857 350.472 350.069 349.654 349.249 348.839 348.432 348.092 347.834 347.594 347.409 347.119 346.767 346.442 346.247 346.194 345.869 345.399 345.054 344.242 343.237 342.522 342.277 342.302 342.232 342.207 342.112 342.012 341.834 341.629 341.424 341.162 340.882 340.759 340.512 340.134 339.867 339.592 339.094 338.787 338.434 338.002 337.574 336.969 336.429 335.727 334.774 333.854 333.334 332.879 332.424 332.054 331.819 331.442 331.119 330.762 330.439 330.094 329.819 329.582 329.377 329.152 328.907 328.609 328.404 328.222 328.124 328.152 328.219 328.302 328.254 328.122 327.794 327.242 326.707 326.142 325.457 324.874 324.467 324.147 323.774 323.552 323.284 323.032 322.844 322.734 322.607 322.427 322.347 322.289 322.284 322.292 322.304 322.414 322.527 322.449 322.274 322.172 322.152 322.007 321.707 321.552 321.517 321.544 321.524 321.589 321.752 321.904 321.762 321.707 321.407 321.044 320.464 319.779 319.189 318.522 317.994 317.482 317.082 316.834 316.682 316.582 316.482 316.434 316.387 316.239 316.062 315.862 315.637 315.372 315.204 315.004 314.799 314.574 314.327 314.184 314.154 313.912 313.807 313.697 313.507
396.254 396.194 396.184 396.312 396.357 396.274 396.212 396.157 396.099 396.049 395.934 395.822 395.682 395.512 395.372 395.199 395.034 394.869 394.702 394.507 394.342 394.149 394.004 393.782 393.607 393.437 393.152 392.904 392.584 392.289 391.964 391.627 391.319 390.914 390.517 390.157 389.807 389.332 388.982 388.782 388.712 388.512 388.194 388.054 387.864 387.439 386.979 386.987 387.072 387.319 387.562 387.427 387.392 387.389 387.039 386.509 386.577 386.752 386.889 386.867 386.754 386.739 386.702 386.507 386.312 386.117 385.942 385.672 385.342 384.979 384.802 384.269 384.367 384.362 384.324 384.029 383.782 383.432 383.117 382.924 382.704 382.602 382.359 382.117 381.892 381.607 381.364 381.107 380.734 380.154 379.609 379.327 379.269 378.752 378.382 378.119 377.999 377.782 377.184 376.979 377.252 377.054 376.979 376.934 376.859 376.764 376.652 376.569 376.449 376.294 376.064 375.922 375.772 375.672 375.514 375.337 375.124 374.867 374.574 374.144 373.919 373.819 373.717 373.589 373.472 373.397 373.364 373.242 373.069 372.854 372.669 372.512 372.259 372.154 371.954 371.762 371.552 371.344 371.204 371.187 371.224 371.184 370.847 370.452 370.182 370.109 370.192 369.929 369.567 369.189 368.889 368.504 368.167 367.952 367.752 367.452 367.907 367.239 367.007 366.672 366.479 366.559 366.149 365.789 365.644 365.504 365.289 365.037 364.797 364.617 364.457 364.244 364.089 363.874 363.572 363.327 363.054 362.809 362.547 362.254 362.019 361.774 361.552 361.402 361.222 360.994 360.817 360.647 360.452 360.204 360.062 359.877 359.677 359.409 359.262 359.139 359.002 358.789 358.582 358.392 358.182 357.892 357.614 357.224 356.802 356.507 356.294 356.267 356.277 356.114 355.977 355.874 355.809 355.867 355.792 355.662 355.614 355.557 355.469 355.342 355.232 355.117 354.939 354.804 354.747 354.637 354.402 354.087 353.769 353.409 353.032 352.652 352.367 352.017 351.679 351.357 351.007 350.539 350.184 349.877 349.614 349.262 348.824 348.534 348.234 347.992 347.827 347.652 347.237 346.914 346.749 346.562 346.299 345.869 345.454 344.509 343.549 342.812 342.627 342.617 342.684 342.727 342.529 342.302 342.092 341.899 341.602 341.304 341.044 340.839 340.662 340.312 340.059 339.782 339.424 339.119 338.957 338.594 338.104 337.609 336.972 336.229 335.442 334.599 333.747 333.184 332.744 332.364 332.107 331.809 331.517 331.194 330.944 330.609 330.324 329.977 329.817 329.599 329.362 329.074 328.887 328.719 328.674 328.752 328.849 328.872 328.797 328.704 328.422 327.872 327.172 326.474 325.879 325.257 324.834 324.367 324.124 323.852 323.654 323.437 323.322 323.212 323.084 323.027 322.942 322.832 322.757 322.777 322.764 322.842 322.922 322.834 322.594 322.474 322.377 322.324 322.139 322.019 322.139 322.009 322.007 322.057 322.132 322.212 322.229 322.142 321.882 321.492 320.882 320.252 319.584 318.852 318.494 317.914 317.482 317.227 317.074 316.912 316.802 316.667 316.577 316.417 316.244 316.034 315.867 315.644 315.434 315.227 315.029 314.787 314.557 314.419 314.317 314.237 314.047 313.924 313.739
396.692 396.634 396.552 396.594 396.609 396.557 396.477 396.404 396.349 396.267 396.154 396.072 395.902 395.719 395.619 395.427 395.244 395.094 394.894 394.687 394.447 394.282 394.137 393.902 393.769 393.564 393.332 393.117 392.797 392.437 392.084 391.722 391.389 390.969 390.632 390.249 389.947 389.482 389.492 389.349 389.302 389.164 388.999 388.662 388.209 387.737 387.287 387.174 387.364 387.702 387.909 387.907 387.919 387.894 387.757 387.334 386.699 386.682 387.242 387.247 387.232 387.177 387.164 387.034 386.759 386.514 386.344 386.229 385.859 385.502 385.227 384.797 384.872 384.794 384.694 384.454 384.192 383.719 383.409 383.272 383.069 382.977 382.707 382.482 382.319 382.029 381.802 381.427 380.822 380.144 379.734 379.669 379.707 379.487 379.194 378.897 378.769 378.614 378.339 377.984 377.837 377.642 377.347 377.229 377.232 377.129 376.992 376.869 376.714 376.524 376.372 376.252 376.122 376.024 375.892 375.794 375.529 375.044 374.609 374.372 374.207 374.134 374.012 373.929 373.677 373.617 373.609 373.554 373.347 373.119 372.877 372.754 372.549 372.387 372.199 371.987 371.787 371.622 371.482 371.472 371.514 371.504 371.392 371.167 370.787 370.529 370.479 370.477 370.222 369.942 369.517 368.974 368.864 368.382 368.037 367.869 367.757 367.377 367.232 367.064 366.884 366.757 366.479 366.147 365.857 365.694 365.449 365.132 364.877 364.659 364.567 364.274 364.209 364.089 363.837 363.562 363.324 363.299 362.927 362.707 362.552 362.312 362.072 361.962 361.899 361.617 361.292 360.962 360.762 360.567 360.444 360.264 360.054 359.779 359.614 359.454 359.294 359.094 358.804 358.572 358.312 357.924 357.584 357.279 356.959 356.719 356.612 356.597 356.482 356.357 356.212 356.072 355.977 356.019 355.997 355.927 355.869 355.799 355.769 355.664 355.567 355.479 355.257 355.109 354.984 354.864 354.652 354.377 354.094 353.739 353.339 352.997 352.679 352.309 351.922 351.559 351.172 350.769 350.444 350.174 349.887 349.567 349.282 349.004 348.729 348.602 348.434 348.689 348.067 347.529 347.327 347.137 346.939 346.387 345.769 344.729 343.882 343.297 343.104 343.187 343.387 343.232 342.937 342.559 342.347 342.069 341.807 341.512 341.242 341.019 340.789 340.544 340.262 340.087 339.834 339.582 339.344 339.104 338.672 338.132 337.477 336.732 335.949 335.057 334.217 333.494 333.092 332.827 332.414 332.199 331.912 331.682 331.427 331.099 330.702 330.377 330.262 330.014 329.897 329.644 329.442 329.327 329.349 329.412 329.517 329.549 329.477 329.254 328.962 328.437 327.624 326.782 326.249 325.609 325.212 324.722 324.452 324.209 324.047 323.907 323.847 323.777 323.859 323.809 323.807 323.567 323.489 323.322 323.272 323.374 323.264 323.129 323.022 322.869 322.684 322.529 322.524 322.452 322.424 322.442 322.342 322.459 322.632 322.677 322.649 322.569 322.237 321.874 321.272 320.629 320.004 319.259 318.722 318.319 317.967 317.719 317.537 317.417 317.162 316.927 316.839 316.654 316.539 316.339 316.087 315.849 315.649 315.392 315.162 314.974 314.867 314.784 314.569 314.532 314.412 314.234 314.089
397.224 397.157 397.004 397.024 396.952 396.872 396.759 396.689 396.599 396.539 396.427 396.299 396.137 395.982 395.892 395.677 395.484 395.322 395.114 394.869 394.642 394.467 394.252 394.072 393.857 393.622 393.442 393.254 392.967 392.614 392.234 391.834 391.469 391.102 390.697 390.429 390.152 390.114 389.924 389.767 389.777 389.594 389.387 388.977 388.562 388.187 387.732 387.642 387.734 388.127 388.327 388.324 388.299 388.354 388.219 387.899 387.562 387.584 387.789 387.737 387.704 387.672 387.524 387.367 387.202 386.919 386.794 386.544 386.204 386.082 385.669 385.584 385.469 385.292 385.154 384.892 384.587 384.152 383.857 383.694 383.522 383.337 383.049 382.867 382.607 382.379 382.104 381.664 380.974 380.437 380.154 380.077 380.229 380.159 379.997 379.759 379.554 379.359 379.142 378.802 378.484 378.197 377.934 377.762 377.614 377.499 377.397 377.287 377.144 376.982 376.824 376.712 376.562 376.487 376.457 376.292 375.922 375.322 374.884 374.752 374.527 374.437 374.322 374.122 373.827 373.809 374.062 373.972 373.659 373.427 373.224 373.034 372.814 372.624 372.417 372.239 372.012 371.817 371.749 371.664 371.704 371.657 371.659 371.542 371.307 371.142 371.004 370.939 370.909 370.547 370.119 369.449 369.132 368.709 368.557 368.234 368.174 367.934 367.457 367.277 367.042 367.004 366.714 366.449 366.112 365.827 365.614 365.292 365.104 364.824 364.659 364.509 364.354 364.289 364.154 363.989 363.752 363.537 363.412 363.144 362.982 362.779 362.544 362.457 362.309 362.202 361.829 361.389 361.142 360.969 360.789 360.564 360.367 360.149 359.924 359.784 359.574 359.309 358.932 358.614 358.327 358.002 357.669 357.432 357.202 357.029 356.917 356.819 356.762 356.629 356.389 356.207 356.089 356.159 356.184 356.209 356.209 356.177 356.104 356.024 355.832 355.714 355.559 355.377 355.149 355.039 354.839 354.604 354.272 353.899 353.582 353.274 352.984 352.557 352.234 351.872 351.527 351.029 350.657 350.422 350.219 349.922 349.632 349.369 349.129 349.117 349.144 349.044 348.837 348.479 347.819 347.657 347.467 346.917 345.952 344.914 344.319 343.842 343.742 343.764 343.754 343.659 343.419 343.019 342.614 342.322 341.979 341.622 341.362 341.179 340.984 340.729 340.459 340.317 340.087 339.927 339.672 339.452 339.087 338.594 337.957 337.227 336.467 335.744 334.857 334.007 333.629 333.304 332.979 332.652 332.389 332.102 331.757 331.387 331.024 330.772 330.594 330.429 330.324 330.232 330.132 330.087 330.074 330.144 330.242 330.279 330.114 329.699 329.147 328.532 327.719 327.037 326.429 325.909 325.417 325.029 324.917 324.759 324.667 324.554 324.552 324.614 324.754 324.804 324.592 324.309 324.122 323.859 323.814 323.684 323.604 323.499 323.402 323.232 323.089 323.002 322.939 322.852 322.807 322.857 322.744 322.802 322.894 322.882 322.887 322.752 322.467 322.079 321.502 320.867 320.207 319.572 319.064 318.677 318.369 318.199 318.034 317.832 317.567 317.322 317.229 317.077 316.897 316.657 316.364 316.092 315.839 315.549 315.334 315.177 315.117 315.122 314.972 314.789 314.692 314.597 314.427
397.609 397.589 397.434 397.407 397.304 397.227 397.087 397.007 396.887 396.784 396.769 396.614 396.494 396.294 396.152 395.969 395.777 395.629 395.379 395.137 394.854 394.609 394.412 394.179 393.989 393.767 393.542 393.377 393.087 392.764 392.359 391.994 391.637 391.179 390.892 390.639 390.444 390.374 390.312 390.234 390.147 389.957 389.597 389.177 388.852 388.564 388.287 388.117 388.074 388.679 388.799 388.804 388.739 388.752 388.604 388.322 388.132 388.124 388.204 388.189 388.187 388.059 387.902 387.824 387.459 387.029 386.972 386.914 386.607 386.364 386.127 385.964 385.894 385.772 385.547 385.364 385.027 384.594 384.157 383.899 383.819 383.637 383.419 383.189 382.957 382.722 382.457 382.029 381.442 381.137 380.794 380.759 380.857 380.802 380.632 380.409 380.202 379.939 379.702 379.377 379.024 378.704 378.439 378.264 378.087 378.027 377.972 377.784 377.584 377.464 377.357 377.282 377.114 377.022 376.999 376.777 376.359 375.774 375.227 374.964 374.777 374.689 374.574 374.449 374.289 374.057 374.339 374.367 374.002 373.714 373.547 373.374 373.147 372.939 372.664 372.439 372.144 371.767 371.869 371.914 371.882 371.837 371.744 371.767 371.584 371.429 371.254 371.192 371.122 371.004 370.789 370.229 369.579 369.107 368.977 368.687 368.412 368.084 367.834 367.587 367.432 367.224 366.999 366.682 366.372 366.014 365.729 365.557 365.314 365.132 364.864 364.664 364.512 364.437 364.384 364.272 364.139 363.972 363.852 363.777 363.574 363.402 362.957 362.797 362.699 362.484 362.239 361.922 361.644 361.404 361.189 360.924 360.629 360.532 360.379 360.149 359.884 359.497 359.094 358.714 358.459 358.164 357.934 357.684 357.482 357.317 357.152 357.044 356.879 356.689 356.467 356.367 356.247 356.277 356.319 356.357 356.394 356.422 356.394 356.217 356.024 355.934 355.784 355.562 355.324 355.172 355.032 354.809 354.464 354.079 353.769 353.477 353.167 352.847 352.669 352.407 351.899 351.592 351.022 350.689 350.402 350.257 350.039 349.702 349.654 349.514 349.437 349.337 349.372 349.022 348.507 348.104 347.672 347.119 346.109 345.367 345.004 344.817 344.694 344.574 344.372 344.077 343.822 343.489 343.077 342.784 342.279 341.874 341.559 341.344 341.157 340.894 340.662 340.464 340.352 340.162 339.984 339.884 339.592 339.064 338.507 337.954 337.109 336.289 335.594 334.842 334.329 333.994 333.529 333.112 332.789 332.487 332.129 331.714 331.412 331.207 331.109 331.034 330.984 330.994 330.872 330.794 330.887 330.894 330.954 330.882 330.617 329.902 329.112 328.424 327.722 327.144 326.687 326.237 325.839 325.559 325.454 325.314 325.259 325.217 325.257 325.359 325.542 325.662 325.517 325.104 324.774 324.462 324.307 324.102 323.962 323.869 323.739 323.554 323.342 323.304 323.172 323.114 323.052 322.997 323.007 323.077 323.072 322.979 322.869 322.772 322.542 322.189 321.682 321.072 320.422 319.854 319.399 319.012 318.747 318.567 318.532 318.212 317.937 317.794 317.589 317.394 317.179 316.892 316.619 316.314 316.002 315.789 315.662 315.374 315.284 315.344 315.359 315.167 314.932 314.787 314.662
398.032 398.049 397.919 397.814 397.702 397.662 397.509 397.399 397.262 397.189 397.077 396.997 396.867 396.689 396.422 396.239 396.024 395.837 395.634 395.382 395.089 394.864 394.602 394.362 394.154 393.909 393.724 393.492 393.247 392.887 392.477 392.102 391.674 391.349 391.127 390.899 390.762 390.737 390.852 390.812 390.594 390.332 389.857 389.429 389.094 388.929 388.734 388.522 388.559 389.119 389.229 389.267 389.224 389.089 388.937 388.652 388.467 388.534 388.544 388.599 388.657 388.607 388.457 388.249 387.729 386.682 386.252 386.969 387.054 386.772 386.494 386.329 386.194 386.084 385.907 385.704 385.424 385.017 384.552 384.149 384.164 383.984 383.764 383.479 383.267 383.012 382.707 382.429 382.114 381.894 381.754 381.669 381.582 381.407 381.259 380.964 380.762 380.527 380.247 379.897 379.582 379.299 379.032 378.824 378.654 378.617 378.564 378.392 378.179 378.029 377.892 377.762 377.647 377.527 377.414 377.229 376.797 376.104 375.544 375.292 375.084 374.987 374.904 374.802 374.642 374.444 374.669 374.587 374.327 374.042 373.884 373.712 373.492 373.267 372.972 372.692 372.387 371.959 371.714 371.957 372.102 371.989 371.937 371.937 371.862 371.677 371.592 371.602 371.434 371.309 371.022 370.792 370.124 369.604 369.349 369.122 368.857 368.559 368.342 367.937 367.754 367.517 367.222 366.922 366.622 366.239 365.954 365.809 365.589 365.414 365.157 364.972 364.804 364.709 364.649 364.569 364.607 364.392 364.289 364.162 363.934 363.682 363.302 363.074 363.034 362.802 362.539 362.297 362.092 361.964 361.739 361.399 361.019 360.874 360.747 360.397 360.097 359.654 359.272 358.887 358.677 358.489 358.264 358.064 357.777 357.589 357.402 357.317 357.039 356.684 356.527 356.414 356.322 356.294 356.307 356.334 356.372 356.502 356.527 356.339 356.164 356.114 355.952 355.697 355.424 355.227 355.039 354.872 354.592 354.254 353.944 353.612 353.339 353.067 352.882 352.612 352.192 351.809 351.449 351.139 350.839 350.454 350.174 349.944 349.839 349.764 349.779 349.604 349.619 349.484 349.134 348.519 347.832 347.139 346.587 346.307 345.987 345.867 345.644 345.324 345.129 344.644 344.242 344.029 343.734 343.264 342.732 342.277 341.864 341.619 341.329 341.114 340.844 340.639 340.457 340.327 340.127 340.047 339.804 339.452 338.882 338.417 337.734 336.982 336.219 335.772 335.689 334.749 334.164 333.672 333.254 332.849 332.574 332.267 331.997 331.819 331.734 331.694 331.702 331.699 331.637 331.644 331.702 331.674 331.542 331.107 330.522 329.872 329.127 328.504 327.934 327.402 326.982 326.584 326.319 326.139 326.089 326.062 325.964 326.069 326.267 326.372 326.397 326.269 325.994 325.647 325.349 325.054 324.792 324.569 324.342 324.202 324.117 323.949 323.799 323.709 323.724 323.487 323.367 323.297 323.229 323.089 323.102 323.034 322.882 322.754 322.454 322.149 321.762 321.329 320.742 320.242 319.792 319.492 319.199 318.934 318.747 318.459 318.277 318.159 317.957 317.762 317.467 317.157 316.829 316.524 316.287 316.097 315.909 315.744 315.604 315.474 315.497 315.444 315.339 315.097 314.907
398.462 398.389 398.297 398.197 398.099 398.087 397.929 397.797 397.739 397.629 397.464 397.332 397.234 397.047 396.824 396.659 396.414 396.162 395.867 395.607 395.369 395.067 394.807 394.582 394.382 394.097 393.847 393.604 393.347 393.002 392.629 392.302 391.734 391.487 391.244 391.092 391.047 391.199 391.394 391.254 391.027 390.684 390.177 389.684 389.407 389.287 389.137 388.879 389.262 389.604 389.722 389.654 389.527 389.482 389.307 389.062 388.899 388.872 388.897 388.972 389.114 389.042 388.882 388.652 388.062 387.049 386.669 387.204 387.482 387.172 386.949 386.732 386.664 386.454 386.274 386.079 385.802 385.434 385.119 384.794 384.579 384.377 384.147 383.859 383.627 383.337 383.092 382.889 382.679 382.524 382.247 382.212 382.067 381.869 381.649 381.452 381.237 380.959 380.674 380.419 380.209 379.849 379.559 379.462 379.279 379.199 379.077 378.912 378.727 378.592 378.437 378.247 378.139 378.012 377.914 377.664 377.297 376.572 375.844 375.592 375.472 375.399 375.247 375.102 374.909 374.799 375.004 374.907 374.669 374.497 374.334 374.112 373.889 373.557 373.219 373.009 372.744 372.292 371.904 372.302 372.402 372.314 372.244 372.107 372.047 371.932 371.859 371.809 371.717 371.592 371.454 371.312 370.634 370.087 369.827 369.559 369.319 369.024 368.764 368.394 368.027 367.837 367.584 367.274 367.002 366.567 366.272 366.119 365.974 365.804 365.587 365.422 365.239 365.117 364.944 364.962 364.899 364.819 364.717 364.584 364.382 364.204 363.764 363.409 363.257 363.074 362.829 362.567 362.367 362.179 361.964 361.769 361.484 361.194 360.884 360.597 360.252 359.842 359.492 359.274 359.092 358.859 358.692 358.387 358.164 357.999 357.677 357.404 357.144 356.792 356.627 356.549 356.469 356.349 356.289 356.357 356.382 356.444 356.427 356.407 356.332 356.247 356.127 355.822 355.524 355.212 354.974 354.687 354.519 354.317 354.047 353.759 353.467 353.224 353.017 352.844 352.529 352.174 351.967 351.734 351.437 351.017 350.512 350.199 350.184 350.119 350.262 350.067 349.897 349.677 349.422 349.064 348.392 347.814 347.374 347.089 346.982 346.817 346.584 346.202 345.744 345.247 344.587 344.359 344.082 343.722 343.112 342.569 342.339 341.874 341.542 341.317 340.979 340.769 340.597 340.449 340.317 340.259 340.009 339.637 339.204 338.812 338.329 337.772 337.064 336.177 335.809 335.242 334.874 334.372 333.852 333.344 333.054 332.834 332.654 332.537 332.517 332.504 332.457 332.387 332.367 332.434 332.384 332.174 331.784 331.084 330.394 329.769 329.254 328.669 328.017 327.562 327.222 326.919 326.762 326.702 326.674 326.709 326.799 327.017 327.162 327.204 327.042 326.737 326.402 326.104 325.754 325.514 325.287 325.074 324.902 324.719 324.549 324.409 324.247 324.157 324.132 323.894 323.697 323.667 323.524 323.457 323.357 323.164 322.957 322.712 322.502 322.182 321.879 321.444 320.997 320.552 320.094 319.862 319.649 319.397 319.047 318.804 318.699 318.567 318.312 318.107 317.857 317.437 317.087 316.749 316.587 316.334 316.149 316.084 315.947 315.747 315.749 315.577 315.564 315.432 315.192
398.732 398.717 398.664 398.629 398.554 398.519 398.492 398.334 398.244 398.142 397.977 397.824 397.682 397.437 397.297 397.072 396.879 396.622 396.257 395.942 395.644 395.327 395.042 394.784 394.592 394.257 394.089 393.757 393.367 393.007 392.629 392.234 391.859 391.694 391.477 391.367 391.447 391.727 391.807 391.694 391.474 391.059 390.459 389.977 389.659 389.574 389.502 389.652 389.942 390.014 390.082 389.984 389.862 389.874 389.754 389.494 389.352 389.302 389.329 389.287 389.257 389.237 389.262 389.079 388.542 388.047 387.792 387.902 387.944 387.679 387.427 387.244 387.129 386.904 386.684 386.509 386.214 385.842 385.569 385.319 385.072 384.819 384.534 384.267 383.959 383.637 383.407 383.242 383.112 382.854 382.682 382.557 382.409 382.292 382.057 381.937 381.672 381.417 381.102 380.842 380.682 380.297 380.009 379.952 379.887 379.694 379.549 379.364 379.202 379.097 378.937 378.772 378.574 378.579 378.479 378.222 377.794 377.109 376.327 375.967 375.867 375.779 375.507 375.327 375.197 375.249 375.469 375.392 375.107 374.929 374.777 374.554 374.182 373.789 373.487 373.332 373.129 372.704 372.289 372.604 372.682 372.687 372.617 372.499 372.382 372.272 372.202 372.044 371.954 371.874 371.794 371.637 371.234 370.604 370.252 369.959 369.899 369.562 369.149 368.817 368.442 368.264 367.914 367.624 367.337 366.999 366.664 366.589 366.434 366.209 366.102 366.039 365.717 365.594 365.439 365.287 365.209 365.149 365.122 365.009 364.907 364.889 364.639 364.017 363.637 363.434 363.274 362.969 362.719 362.507 362.284 362.047 361.889 361.594 361.189 360.912 360.344 360.082 359.839 359.667 359.489 359.262 359.119 358.782 358.644 358.404 358.109 357.747 357.377 357.032 356.759 356.612 356.577 356.469 356.382 356.402 356.432 356.412 356.444 356.402 356.332 356.249 356.014 355.779 355.534 355.299 354.999 354.642 354.507 354.337 354.134 353.947 353.622 353.389 353.194 353.034 352.854 352.594 352.209 351.964 351.729 351.534 351.407 350.844 350.634 350.652 350.612 350.552 350.427 350.192 349.967 349.562 349.094 348.654 348.269 348.172 347.859 347.647 347.172 346.627 345.952 345.457 344.839 344.477 344.087 343.797 343.262 342.822 342.379 342.029 341.737 341.439 341.134 340.972 340.699 340.487 340.337 340.209 340.017 339.732 339.429 339.129 338.744 338.237 337.699 336.937 336.152 335.752 335.399 335.082 334.552 333.939 333.592 333.407 333.294 333.242 333.254 333.279 333.349 333.292 333.212 333.144 332.882 332.452 331.737 330.982 330.277 329.819 329.264 328.679 328.179 327.864 327.554 327.397 327.217 327.192 327.217 327.364 327.622 327.862 327.964 327.777 327.547 327.159 326.767 326.439 326.124 325.882 325.652 325.499 325.319 325.312 325.079 324.894 324.682 324.499 324.369 324.227 324.064 323.952 323.812 323.677 323.589 323.464 323.259 322.912 322.512 322.229 321.867 321.522 321.209 320.827 320.474 320.134 319.914 319.662 319.324 319.249 319.142 318.987 318.714 318.374 318.089 317.734 317.364 317.084 316.842 316.604 316.404 316.252 316.147 316.104 315.914 315.777 315.644 315.572 315.419
399.149 399.052 398.974 398.924 398.869 398.829 398.794 398.727 398.662 398.527 398.317 398.194 398.002 397.759 397.574 397.392 397.194 396.904 396.547 396.222 395.919 395.562 395.274 394.922 394.649 394.372 394.074 393.732 393.407 393.007 392.647 392.387 392.122 391.997 391.784 391.802 392.119 392.352 392.297 392.069 391.829 391.429 390.654 390.124 389.919 389.827 389.837 390.344 390.567 390.564 390.437 390.434 390.204 390.259 390.269 389.992 389.797 389.802 389.824 389.834 389.554 389.509 389.574 389.492 389.092 388.814 388.702 388.569 388.469 388.267 387.957 387.684 387.472 387.304 387.189 386.999 386.637 386.274 385.907 385.689 385.494 385.277 384.967 384.597 384.224 383.969 383.764 383.589 383.452 383.257 383.079 382.979 382.854 382.727 382.469 382.339 382.067 381.857 381.567 381.267 381.069 380.714 380.494 380.429 380.319 380.104 379.984 379.814 379.682 379.524 379.404 379.269 379.064 378.989 378.872 378.597 378.169 377.472 376.647 376.287 376.212 376.029 375.762 375.654 375.817 375.939 375.947 375.802 375.642 375.374 375.149 374.932 374.479 374.064 373.832 373.639 373.312 372.889 372.814 372.637 372.942 373.019 373.079 372.977 372.804 372.737 372.594 372.349 372.202 372.122 372.062 371.874 371.647 371.027 370.692 370.502 370.329 369.947 369.497 369.322 368.937 368.642 368.337 368.032 367.759 367.442 367.167 366.959 366.819 366.727 366.612 366.552 366.409 365.999 365.844 365.697 365.577 365.572 365.474 365.407 365.302 365.262 365.162 365.142 364.392 364.082 363.889 363.682 363.307 362.942 362.617 362.402 362.192 362.022 361.832 361.314 360.754 360.364 360.149 360.079 359.959 359.707 359.507 359.202 358.917 358.677 358.357 358.054 357.799 357.587 357.297 356.962 356.727 356.662 356.589 356.524 356.477 356.424 356.347 356.272 356.237 356.112 356.012 355.764 355.434 355.192 354.887 354.629 354.469 354.357 354.304 354.082 353.814 353.582 353.387 353.189 353.042 352.849 352.607 352.314 352.224 351.932 351.949 351.722 351.377 351.099 350.869 350.777 350.792 350.332 350.117 349.989 349.877 349.407 348.964 348.649 348.507 348.179 347.634 346.997 346.257 345.547 345.032 344.434 343.979 343.542 343.219 342.947 342.577 342.214 341.857 341.582 341.282 341.027 340.807 340.572 340.412 340.212 339.994 339.792 339.579 339.337 339.017 338.659 338.119 337.752 337.059 336.264 335.954 335.579 335.212 334.769 334.434 334.187 334.099 334.012 334.014 334.014 334.054 334.029 333.809 333.454 332.929 332.309 331.512 330.789 330.294 329.819 329.377 328.934 328.439 328.184 327.947 327.859 327.822 327.802 327.877 328.102 328.309 328.502 328.457 328.239 327.937 327.602 327.252 326.929 326.644 326.347 326.057 325.847 325.714 325.604 325.507 325.392 325.194 325.034 324.849 324.664 324.479 324.347 324.207 324.074 323.874 323.717 323.494 323.334 322.952 322.524 322.109 321.709 321.447 321.197 320.822 320.497 320.199 319.964 319.772 319.699 319.609 319.342 319.054 318.722 318.417 318.047 317.722 317.442 317.207 316.984 316.789 316.684 316.504 316.287 316.222 316.104 315.887 315.669 315.592
399.374 399.337 399.282 399.294 399.297 399.292 399.234 399.174 399.069 398.939 398.772 398.629 398.409 398.237 397.982 397.774 397.532 397.349 396.892 396.539 396.239 395.832 395.509 395.184 394.844 394.582 394.192 393.767 393.427 393.109 392.854 392.584 392.357 392.222 392.112 392.397 392.837 392.834 392.704 392.464 392.117 391.544 390.747 390.374 390.179 390.112 390.497 390.932 391.082 391.044 390.942 390.789 390.684 390.669 390.687 390.599 390.407 390.327 390.417 390.362 390.249 390.114 389.897 389.742 389.639 389.457 389.302 389.132 388.967 388.842 388.497 388.202 387.997 387.834 387.602 387.402 387.042 386.742 386.254 385.957 385.824 385.554 385.249 384.857 384.442 384.199 384.069 383.894 383.747 383.687 383.542 383.444 383.277 383.134 382.969 382.794 382.552 382.267 381.962 381.774 381.539 381.159 380.957 380.812 380.662 380.512 380.404 380.244 380.054 379.909 379.784 379.684 379.542 379.377 379.139 378.844 378.459 377.742 376.942 376.529 376.394 376.277 376.134 376.319 376.619 376.642 376.587 376.369 376.192 375.979 375.702 375.304 374.834 374.427 374.234 373.909 373.589 373.444 373.462 373.142 372.977 373.399 373.484 373.414 373.249 373.142 372.934 372.702 372.444 372.327 372.244 372.039 371.717 371.397 371.157 370.942 370.662 370.329 370.032 369.822 369.429 369.167 368.884 368.522 368.224 367.982 367.737 367.414 367.222 367.229 367.149 366.934 366.799 366.572 366.547 366.262 366.017 365.982 365.957 365.767 365.719 365.617 365.432 365.269 365.002 364.687 364.499 364.169 363.847 363.584 363.227 362.999 362.624 362.377 362.197 361.817 361.287 360.929 360.654 360.549 360.417 360.104 359.837 359.599 359.312 359.042 358.769 358.472 358.369 358.189 357.937 357.689 357.224 356.917 356.787 356.712 356.632 356.559 356.444 356.329 356.222 356.107 355.969 355.724 355.419 355.067 354.907 354.687 354.559 354.442 354.302 354.117 353.909 353.742 353.567 353.442 353.297 353.094 352.922 352.722 352.554 352.364 352.397 352.229 351.894 351.589 351.237 351.004 350.892 350.602 350.409 350.244 350.119 349.989 349.664 349.162 348.792 348.397 347.877 347.444 346.579 345.907 345.284 344.669 343.999 343.482 343.099 343.009 342.764 342.552 342.262 341.642 341.427 341.242 341.072 340.639 340.459 340.287 340.107 339.877 339.694 339.409 339.217 339.029 338.652 338.092 337.692 336.907 336.532 336.137 335.882 335.624 335.294 335.039 334.942 334.847 334.797 334.767 334.689 334.437 333.949 333.367 332.674 332.009 331.309 330.812 330.364 329.999 329.627 329.214 328.829 328.617 328.372 328.307 328.342 328.354 328.502 328.737 329.034 329.037 328.922 328.662 328.392 328.119 327.807 327.532 327.219 326.897 326.589 326.294 326.119 326.069 326.007 325.902 325.737 325.514 325.284 325.082 324.892 324.739 324.634 324.492 324.254 324.037 324.004 323.782 323.367 322.889 322.484 322.034 321.694 321.394 321.179 320.927 320.579 320.312 320.229 320.134 320.019 319.709 319.387 319.079 318.772 318.457 318.304 317.984 317.712 317.547 317.194 316.984 316.857 316.669 316.402 316.259 316.104 315.957 315.707
399.754 399.657 399.699 399.684 399.714 399.674 399.639 399.552 399.469 399.357 399.184 398.927 398.744 398.562 398.367 398.094 397.787 397.494 397.224 396.839 396.502 396.157 395.797 395.409 395.002 394.699 394.304 393.884 393.644 393.282 393.064 392.814 392.629 392.617 392.694 392.974 393.267 393.249 393.087 392.787 392.399 391.712 390.964 390.739 390.822 390.739 391.057 391.382 391.444 391.392 391.267 391.202 391.049 391.024 391.019 391.092 391.009 390.889 390.834 390.822 390.732 390.607 390.449 390.237 390.107 389.964 389.794 389.597 389.392 389.194 388.932 388.717 388.514 388.297 388.017 387.719 387.362 386.957 386.449 386.082 386.092 385.844 385.457 385.209 384.714 384.522 384.279 384.212 384.162 384.089 383.942 383.792 383.639 383.492 383.334 383.157 382.904 382.537 382.309 382.169 381.879 381.469 381.382 381.214 381.019 380.877 380.749 380.614 380.467 380.332 380.194 380.052 379.902 379.639 379.402 379.057 378.559 377.727 377.079 376.862 376.737 376.579 376.544 376.874 377.272 377.357 377.217 377.032 376.824 376.612 376.274 375.807 375.349 374.962 374.547 374.194 374.019 374.037 373.904 373.752 373.674 373.804 373.837 373.817 373.709 373.507 373.287 373.144 372.944 372.787 372.472 372.322 371.997 371.692 371.529 371.332 371.092 370.819 370.487 370.204 369.974 369.679 369.389 369.062 368.724 368.477 368.279 368.022 367.657 367.687 367.564 367.417 367.207 367.077 366.939 366.629 366.474 366.422 366.347 366.244 366.092 365.932 365.787 365.574 365.424 365.199 365.092 364.687 364.397 364.082 363.907 363.644 363.377 362.899 362.537 362.282 361.804 361.307 361.094 360.957 360.762 360.492 360.212 359.962 359.707 359.477 359.264 358.874 358.782 358.594 358.454 358.274 357.944 357.632 357.249 357.029 356.857 356.729 356.597 356.552 356.404 356.217 355.982 355.687 355.504 355.234 354.987 354.824 354.682 354.522 354.359 354.199 354.119 353.894 353.794 353.624 353.512 353.379 353.304 353.302 353.242 353.017 352.742 352.612 352.382 352.007 351.639 351.329 350.977 350.844 350.792 350.579 350.394 350.249 349.972 349.472 349.017 348.604 348.202 347.752 347.047 346.429 345.687 344.939 344.217 343.544 342.967 342.762 342.542 342.449 342.117 341.707 341.484 341.334 341.074 340.757 340.559 340.372 340.187 339.987 339.792 339.612 339.447 339.202 338.994 338.542 337.987 337.502 337.142 336.947 336.609 336.424 336.109 335.937 335.744 335.552 335.429 335.277 334.937 334.497 333.842 333.079 332.422 331.852 331.304 330.899 330.554 330.244 329.959 329.694 329.384 329.197 328.997 328.919 328.979 329.064 329.182 329.299 329.524 329.572 329.439 329.197 328.967 328.777 328.367 328.069 327.757 327.452 327.139 326.869 326.617 326.494 326.474 326.327 326.214 325.932 325.677 325.534 325.414 325.229 325.054 324.859 324.639 324.407 324.279 324.092 323.729 323.312 322.942 322.449 322.022 321.644 321.394 321.234 321.027 320.799 320.684 320.527 320.329 320.052 319.837 319.559 319.182 318.984 318.752 318.522 318.282 318.084 317.732 317.409 317.124 316.894 316.687 316.474 316.252 316.129 316.037
400.199 400.094 400.074 400.099 400.079 400.112 399.987 399.927 399.822 399.697 399.504 399.262 399.109 398.899 398.677 398.369 398.099 397.777 397.449 397.119 396.754 396.402 396.022 395.647 395.189 394.819 394.474 394.144 393.804 393.477 393.352 393.179 393.137 393.159 393.264 393.469 393.699 393.684 393.492 393.184 392.742 391.997 391.274 391.052 391.199 391.227 391.459 391.687 391.814 391.789 391.802 391.552 391.437 391.439 391.472 391.559 391.592 391.424 391.249 391.204 391.127 390.977 390.867 390.704 390.552 390.372 390.204 390.022 389.762 389.552 389.357 389.124 388.914 388.649 388.379 388.107 387.677 387.027 386.247 385.447 386.107 386.144 385.652 385.144 384.819 384.642 384.554 384.517 384.522 384.429 384.292 384.119 383.994 383.827 383.697 383.509 383.229 382.857 382.607 382.399 382.047 381.829 381.802 381.619 381.409 381.247 381.079 380.972 380.852 380.747 380.577 380.357 380.214 380.032 379.687 379.159 378.504 377.647 377.264 377.454 377.597 377.252 377.017 377.419 377.844 377.877 377.704 377.499 377.387 377.142 376.672 376.229 375.724 375.237 374.742 374.547 374.487 374.462 374.332 374.287 374.292 374.242 374.234 374.204 374.057 373.867 373.644 373.484 373.337 373.077 372.852 372.579 372.317 372.162 371.984 371.752 371.487 371.162 370.854 370.557 370.459 370.182 369.907 369.692 368.909 368.862 368.687 368.469 368.167 367.994 367.932 367.847 367.752 367.552 367.449 367.089 366.972 366.944 366.734 366.604 366.414 366.249 366.142 365.967 365.784 365.657 365.582 365.562 365.289 364.914 364.542 364.202 363.887 363.407 362.964 362.622 362.337 361.809 361.474 361.294 361.099 360.857 360.587 360.347 360.027 359.809 359.642 359.292 359.167 359.079 358.937 358.812 358.672 358.382 357.982 357.572 357.234 357.032 356.862 356.754 356.577 356.352 356.079 355.832 355.652 355.404 355.149 354.934 354.782 354.667 354.574 354.422 354.342 354.147 354.094 353.997 353.879 353.694 353.587 353.519 353.657 353.534 353.287 353.037 352.754 352.359 351.964 351.719 351.389 351.069 350.949 350.827 350.642 350.387 350.154 349.839 349.317 348.884 348.502 348.159 347.877 347.129 346.024 344.877 344.149 343.334 342.847 342.564 342.417 342.294 342.082 343.067 342.104 341.439 341.112 340.917 340.719 340.579 340.399 340.197 340.032 339.872 339.662 339.382 339.112 338.992 338.624 338.172 338.007 337.849 337.499 337.194 336.979 336.649 336.457 336.159 335.864 335.479 334.954 334.307 333.574 332.897 332.354 331.982 331.612 331.187 330.847 330.509 330.277 330.082 329.974 329.859 329.642 329.584 329.662 329.667 329.689 329.742 329.887 329.904 329.829 329.777 329.592 329.312 328.922 328.574 328.239 327.902 327.662 327.319 327.104 326.899 326.847 326.697 326.529 326.342 326.114 325.867 325.704 325.619 325.412 325.259 325.074 324.837 324.597 324.292 323.914 323.697 323.342 322.867 322.464 322.094 321.837 321.507 321.362 321.194 321.024 320.917 320.639 320.299 320.149 319.929 319.689 319.494 319.239 319.029 318.872 318.687 318.319 317.942 317.642 317.284 316.999 316.724 316.479 316.339 316.277
400.547 400.459 400.484 400.472 400.449 400.414 400.309 400.234 400.102 399.947 399.752 399.564 399.429 399.232 398.924 398.614 398.337 397.987 397.662 397.364 397.054 396.602 396.202 395.862 395.464 395.092 394.759 394.472 394.102 393.849 393.844 393.872 393.869 393.807 393.804 393.909 394.009 394.024 393.889 393.554 392.957 392.264 391.699 391.432 391.399 391.459 391.809 392.044 392.082 392.047 392.044 391.937 391.794 391.844 391.912 391.974 392.064 391.967 391.797 391.649 391.542 391.324 391.132 391.009 390.842 390.734 390.617 390.412 390.157 389.909 389.694 389.502 389.279 388.979 388.659 388.354 387.882 387.102 386.344 385.822 386.397 386.317 385.582 384.607 384.184 384.494 384.949 384.959 384.877 384.897 384.579 384.404 384.244 384.104 383.942 383.749 383.454 383.202 382.909 382.397 382.192 382.412 382.159 381.847 381.677 381.622 381.444 381.294 381.182 381.089 380.877 380.664 380.512 380.332 379.987 379.369 378.644 377.834 377.639 378.149 378.442 377.989 377.579 377.942 378.467 378.439 378.289 378.089 377.892 377.589 377.097 376.587 375.949 375.562 375.317 375.054 374.929 374.857 374.737 374.722 374.702 374.624 374.647 374.609 374.409 374.224 374.059 373.922 373.799 373.594 373.339 373.117 372.867 372.609 372.364 372.099 371.859 371.494 371.294 370.992 370.812 370.734 370.547 370.174 369.562 369.542 369.422 369.057 368.694 368.399 368.244 368.207 368.112 367.979 367.777 367.522 367.419 367.429 367.174 366.994 366.904 366.574 366.497 366.347 366.157 366.067 365.954 365.817 365.727 365.514 365.167 364.952 364.739 364.009 363.462 363.037 362.797 362.487 362.047 361.632 361.379 361.224 360.937 360.714 360.429 360.202 359.937 359.709 359.532 359.434 359.319 359.249 359.189 358.954 358.607 358.272 357.992 357.467 357.094 357.034 356.897 356.467 356.267 356.064 355.824 355.632 355.342 355.132 354.959 354.854 354.822 354.634 354.517 354.369 354.337 354.317 354.159 353.949 353.962 353.787 353.767 353.837 353.677 353.452 353.117 352.789 352.449 352.009 351.777 351.337 351.372 351.092 350.772 350.574 350.482 350.194 349.584 349.067 348.739 348.584 348.294 347.339 346.004 344.782 343.957 343.312 342.857 342.574 342.334 342.182 341.957 341.849 342.719 341.444 341.307 341.169 341.002 340.817 340.679 340.422 340.259 340.092 339.867 339.809 339.497 339.292 339.079 338.952 338.757 338.607 338.309 338.042 337.694 337.289 336.879 336.492 336.119 335.522 334.842 334.167 333.407 332.829 332.437 332.192 331.907 331.672 331.359 331.014 330.667 330.474 330.347 330.327 330.217 330.199 330.207 330.159 330.142 330.192 330.377 330.337 330.239 330.199 330.042 329.779 329.374 328.964 328.632 328.352 328.034 327.884 327.714 327.512 327.254 327.057 326.844 326.607 326.407 326.202 326.292 325.934 325.802 325.614 325.499 325.252 324.964 324.709 324.342 324.027 323.684 323.262 322.889 322.562 322.267 321.844 321.677 321.444 321.309 321.187 320.969 320.599 320.437 320.277 320.147 319.967 319.782 319.577 319.402 319.264 319.034 318.512 318.204 317.979 317.762 317.227 316.809 316.637 316.587
400.969 400.829 400.847 400.802 400.779 400.794 400.632 400.507 400.309 400.149 399.922 399.787 399.659 399.484 399.194 398.874 398.554 398.182 397.912 397.579 397.209 396.792 396.419 396.032 395.742 395.454 395.099 394.787 394.462 394.377 394.469 394.469 394.434 394.289 394.207 394.237 394.237 394.242 394.099 393.809 393.349 392.662 392.154 391.802 391.802 391.797 392.182 392.319 392.244 392.242 392.392 392.387 392.297 392.347 392.402 392.374 392.462 392.407 392.217 392.002 391.822 391.644 391.424 391.312 391.227 391.024 390.887 390.682 390.449 390.234 390.027 389.739 389.559 389.312 388.997 388.542 388.139 387.517 387.037 386.977 386.799 386.184 385.312 384.234 383.559 384.169 385.112 385.319 385.139 384.997 384.869 384.712 384.574 384.284 384.094 384.014 383.774 383.509 383.254 382.869 382.737 382.754 382.364 381.872 381.914 382.019 381.929 381.727 381.484 381.332 381.184 381.002 380.772 380.492 380.159 379.597 378.782 377.949 378.112 378.729 379.082 378.739 378.424 378.802 379.037 378.949 378.647 378.504 378.314 377.917 377.337 376.822 376.029 375.742 375.344 375.089 375.154 375.212 375.164 375.062 375.014 374.944 374.959 374.889 374.802 374.652 374.504 374.389 374.207 373.984 373.734 373.517 373.274 373.022 372.727 372.449 372.247 372.014 371.709 371.519 371.372 371.204 370.944 370.779 370.492 370.292 369.939 369.679 369.272 368.864 368.752 368.584 368.517 368.529 368.272 368.039 367.962 367.827 367.612 367.624 367.317 367.074 366.944 366.699 366.514 366.402 366.237 366.129 365.987 365.807 365.637 365.399 365.229 364.574 364.059 363.622 363.274 363.099 362.854 362.352 361.892 361.619 361.347 361.087 360.839 360.552 360.319 359.967 359.827 359.769 359.734 359.637 359.567 359.409 359.124 358.874 358.559 358.172 357.602 357.497 357.382 356.967 356.577 356.384 356.147 355.969 355.679 355.407 355.214 355.077 354.967 354.897 354.809 354.572 354.517 354.454 354.424 354.199 354.144 353.999 353.897 353.929 353.844 353.614 353.342 352.917 352.532 352.304 351.939 351.559 351.384 351.169 350.902 350.744 350.667 350.349 349.772 349.289 348.977 348.867 348.602 347.392 346.014 344.909 344.064 343.392 343.002 342.947 342.444 342.297 342.067 341.977 341.792 341.639 341.602 341.544 341.477 341.427 341.014 340.839 340.619 340.437 340.237 340.049 339.867 339.689 339.474 339.369 339.257 339.087 338.929 338.662 338.217 337.694 337.194 336.649 336.129 335.522 334.879 334.144 333.394 332.937 332.652 332.397 332.244 332.057 331.789 331.499 331.249 331.077 330.874 330.747 330.742 330.687 330.637 330.632 330.579 330.639 330.754 330.702 330.622 330.562 330.457 330.179 329.722 329.482 329.099 328.787 328.534 328.327 328.219 327.962 327.642 327.367 327.207 327.024 326.719 326.872 326.404 326.209 326.072 325.922 325.734 325.527 325.307 325.009 324.697 324.369 324.032 323.637 323.207 322.847 322.612 322.207 321.917 321.699 321.449 321.284 321.059 320.894 320.757 320.627 320.547 320.369 320.207 319.972 319.744 319.607 319.497 319.274 318.889 318.542 318.312 318.512 317.722 317.169 316.927
401.289 401.244 401.197 401.122 401.067 400.987 400.889 400.754 400.522 400.344 400.127 400.039 399.897 399.682 399.412 399.089 398.822 398.444 398.114 397.764 397.364 397.017 396.607 396.242 396.037 395.817 395.662 395.234 394.937 394.942 394.982 394.924 394.827 394.717 394.699 394.644 394.689 394.579 394.419 394.142 393.642 392.929 392.407 392.297 392.174 392.259 392.519 392.607 392.559 392.562 392.627 392.749 392.779 392.827 392.739 392.669 392.662 392.552 392.499 392.289 392.184 391.917 391.807 391.647 391.559 391.319 391.107 390.922 390.674 390.449 390.272 390.062 389.789 389.617 389.342 388.879 388.459 388.079 387.774 387.579 387.012 386.247 385.322 384.159 383.439 384.142 385.284 385.644 385.404 385.274 385.204 385.109 384.949 384.509 384.362 384.352 384.052 383.832 383.434 383.277 383.207 383.022 382.779 382.407 382.462 382.474 382.384 382.167 381.934 381.762 381.544 381.284 380.977 380.584 380.129 379.572 378.762 378.207 378.749 379.267 379.582 379.499 379.407 379.704 379.642 379.417 379.064 378.902 378.652 378.162 377.614 376.694 376.082 375.942 375.629 375.687 375.697 375.627 375.484 375.492 375.394 375.334 375.252 375.177 375.059 374.964 374.879 374.739 374.567 374.334 374.124 373.854 373.669 373.422 373.169 372.869 372.689 372.434 372.162 371.952 371.844 371.619 371.429 371.209 370.944 370.827 370.459 370.149 369.812 369.449 369.242 369.119 368.984 368.984 368.844 368.584 368.559 368.487 368.317 368.209 368.002 367.532 367.284 367.159 366.917 366.747 366.589 366.444 366.249 366.082 365.962 365.747 365.537 365.237 364.829 364.362 363.949 363.647 363.377 363.017 362.582 362.157 361.822 361.462 361.202 360.919 360.697 360.424 360.177 360.107 360.017 359.959 359.867 359.769 359.572 359.297 358.984 358.669 358.189 357.859 357.762 357.459 357.107 356.862 356.629 356.434 356.087 355.747 355.534 355.369 355.207 355.142 354.999 354.859 354.654 354.587 354.454 354.364 354.352 354.237 354.074 354.067 353.954 353.749 353.384 352.974 352.599 352.354 352.082 351.742 351.552 351.444 351.299 351.042 350.699 350.472 350.092 349.549 349.187 348.952 348.722 347.462 346.207 345.129 344.302 343.767 343.257 342.969 342.662 342.462 342.244 342.104 342.022 341.949 341.887 341.934 341.877 341.847 341.559 341.359 341.137 340.927 340.587 340.424 340.322 340.167 340.012 339.897 339.687 339.499 339.207 338.952 338.634 338.099 337.459 336.819 336.217 335.554 334.809 334.192 333.562 333.209 332.954 332.762 332.657 332.477 332.222 332.014 331.784 331.579 331.389 331.229 331.172 331.139 331.042 331.042 330.979 330.959 331.009 331.057 330.929 330.839 330.742 330.419 330.117 329.794 329.572 329.349 329.129 329.002 328.727 328.407 328.217 327.759 327.562 327.529 327.637 328.234 326.962 326.804 326.337 326.157 325.997 325.819 325.557 325.224 324.949 324.672 324.377 323.904 323.577 323.237 322.962 322.717 322.362 322.074 321.784 321.627 321.457 321.234 321.089 320.954 320.854 320.679 320.544 320.374 320.094 319.899 319.757 319.572 319.439 319.307 319.094 318.909 318.514 317.912 317.552
401.597 401.589 401.512 401.397 401.292 401.197 401.124 400.919 400.784 400.592 400.444 400.317 400.099 399.907 399.612 399.282 398.949 398.657 398.289 397.907 397.552 397.177 396.832 396.569 396.314 396.159 395.977 395.814 395.492 395.399 395.334 395.182 395.127 395.004 395.029 394.932 394.822 394.744 394.597 394.342 393.847 393.274 392.794 392.719 392.624 392.779 392.904 392.987 392.932 392.934 392.912 393.049 393.154 393.229 393.159 393.002 392.864 392.774 392.749 392.594 392.437 392.202 392.052 391.897 391.792 391.577 391.339 391.184 390.942 390.722 390.467 390.247 390.064 389.847 389.614 389.249 388.894 388.607 388.197 387.829 387.264 386.519 385.614 384.634 384.392 384.717 384.924 385.527 385.694 385.554 385.547 385.514 385.264 385.042 384.872 384.667 384.442 383.837 383.419 383.202 383.257 383.294 383.182 383.052 383.022 382.909 382.787 382.547 382.317 382.082 381.772 381.539 381.144 380.617 380.097 379.487 378.779 378.839 379.404 379.827 380.139 380.267 380.269 380.227 380.112 379.914 379.659 379.327 378.817 378.439 377.707 376.509 376.512 376.259 376.342 376.277 376.144 376.032 375.917 375.794 375.747 375.767 375.707 375.572 375.414 375.269 375.154 375.029 374.837 374.662 374.464 374.274 374.064 373.807 373.569 373.332 373.154 372.937 372.742 372.482 372.282 371.987 371.814 371.589 371.347 371.139 370.799 370.449 370.169 369.984 369.789 369.639 369.624 369.519 369.337 369.107 369.017 368.989 368.877 368.707 368.439 368.037 367.812 367.532 367.372 367.142 366.932 366.747 366.567 366.369 366.172 366.099 365.909 365.699 365.549 365.159 364.677 364.292 363.917 363.609 363.237 362.827 362.549 362.094 361.609 361.317 361.067 360.854 360.622 360.442 360.407 360.292 360.187 360.097 359.962 359.779 359.382 359.029 358.694 358.409 358.214 358.002 357.827 357.477 357.152 356.882 356.527 356.149 355.847 355.707 355.474 355.367 355.237 355.137 354.902 354.767 354.649 354.567 354.452 354.262 354.149 354.067 354.014 353.792 353.569 353.384 352.989 352.552 352.257 351.959 351.802 351.524 351.332 351.157 351.007 350.802 350.439 349.874 349.597 349.262 348.492 347.609 346.549 345.569 344.794 344.332 343.809 343.482 343.094 342.829 342.637 342.534 342.407 342.367 342.312 342.299 342.254 342.232 342.132 342.029 341.912 341.697 341.289 341.009 340.874 340.704 340.604 340.447 340.154 339.954 339.622 339.222 338.924 338.487 337.744 337.042 336.382 335.709 335.042 334.332 333.779 333.504 333.337 333.314 333.109 332.959 332.774 332.599 332.377 332.127 331.887 331.692 331.627 331.522 331.409 331.287 331.317 331.322 331.339 331.379 331.229 331.039 330.907 330.594 330.432 330.267 330.144 329.979 329.814 329.624 329.264 328.877 328.459 328.112 327.844 327.814 328.474 328.477 327.542 326.977 326.527 326.387 326.267 326.064 325.764 325.497 325.224 324.922 324.509 324.104 323.907 323.549 323.237 322.972 322.774 322.584 322.382 322.107 321.837 321.609 321.412 321.247 321.079 320.917 320.789 320.647 320.452 320.212 320.002 319.842 319.734 319.594 319.499 319.294 319.064 318.637 318.164
401.874 401.852 401.779 401.657 401.532 401.419 401.324 401.219 401.069 400.867 400.714 400.519 400.354 400.064 399.784 399.484 399.152 398.817 398.437 398.172 397.817 397.592 397.282 396.894 396.642 396.627 396.504 396.239 396.009 395.822 395.662 395.467 395.364 395.302 395.179 395.149 395.022 394.937 394.764 394.444 393.937 393.477 393.067 393.127 392.999 393.099 393.227 393.282 393.257 393.194 393.227 393.342 393.457 393.599 393.554 393.359 393.189 393.062 392.944 392.847 392.679 392.549 392.332 392.199 392.027 391.877 391.627 391.437 391.249 390.982 390.714 390.517 390.302 390.112 389.882 389.579 389.274 389.032 388.519 388.004 387.624 387.064 386.149 385.522 385.292 385.227 384.792 385.704 385.987 385.899 385.879 385.652 385.464 385.274 385.152 384.864 384.427 383.922 383.919 383.387 383.332 383.627 383.557 383.512 383.359 383.189 383.004 382.837 382.619 382.309 381.957 381.642 381.149 380.507 380.052 379.517 379.099 379.537 380.009 380.432 380.547 380.632 380.669 380.609 380.432 380.274 379.994 379.494 378.984 378.577 377.979 377.274 376.892 376.902 376.904 376.694 376.517 376.374 376.282 376.149 376.074 376.114 375.987 375.907 375.682 375.532 375.412 375.292 375.092 374.927 374.742 374.599 374.467 374.254 374.009 373.739 373.554 373.367 373.227 373.022 372.734 372.414 372.177 371.957 371.684 371.467 371.142 370.754 370.467 370.347 370.209 370.117 370.104 369.974 369.732 369.539 369.427 369.399 369.292 369.104 368.847 368.622 368.244 367.942 367.727 367.494 367.214 367.057 366.852 366.657 366.542 366.424 366.329 366.139 365.904 365.699 365.352 364.992 364.472 364.077 363.804 363.434 363.092 362.692 362.239 361.899 361.614 361.309 361.004 360.869 360.729 360.599 360.499 360.384 360.202 359.952 359.749 359.429 359.144 358.849 358.642 358.422 358.247 358.092 357.894 357.632 357.182 356.642 356.164 355.934 355.787 355.542 355.422 355.317 355.164 355.052 354.944 354.689 354.549 354.422 354.329 354.204 354.089 353.859 353.654 353.424 353.247 352.967 352.614 352.227 352.044 351.677 351.364 351.177 351.032 350.809 350.464 350.127 349.892 349.689 349.029 347.934 347.074 346.304 345.617 345.107 344.739 344.412 344.037 343.682 343.384 343.157 343.009 343.004 342.994 343.137 343.149 343.122 343.049 343.122 343.094 342.674 342.149 341.737 341.467 341.349 341.147 341.059 340.854 340.554 340.094 339.584 339.139 338.752 338.204 337.519 336.834 336.129 335.492 334.839 334.347 334.054 333.917 333.802 333.732 333.572 333.534 333.359 333.362 332.827 332.542 332.394 332.124 332.054 331.872 331.707 331.714 331.677 331.664 331.522 331.387 331.294 331.142 330.959 330.847 330.779 330.734 330.687 330.472 330.134 329.729 329.284 328.844 328.394 328.072 328.002 328.217 328.052 327.477 326.924 326.744 326.657 326.479 326.217 325.974 325.717 325.419 325.099 324.707 324.394 324.152 323.789 323.489 323.297 323.139 323.049 322.924 322.724 322.417 322.122 321.899 321.692 321.507 321.319 321.089 320.894 320.772 320.504 320.207 320.052 319.962 319.782 319.729 319.564 319.309 319.089 318.837
402.199 402.109 402.024 401.919 401.744 401.652 401.514 401.377 401.259 401.124 400.899 400.744 400.589 400.234 399.972 399.687 399.332 399.019 398.704 398.362 398.087 397.844 397.544 397.222 397.162 397.217 397.067 396.714 396.419 396.174 396.032 395.832 395.674 395.549 395.404 395.327 395.234 395.169 394.992 394.747 394.217 393.772 393.457 393.464 393.454 393.509 393.574 393.567 393.517 393.459 393.547 393.627 393.834 394.007 393.914 393.619 393.439 393.304 393.202 393.082 392.902 392.774 392.587 392.482 392.299 392.147 391.927 391.684 391.547 391.232 390.977 390.897 390.637 390.407 390.257 389.974 389.619 389.332 388.852 388.419 388.062 387.472 387.022 386.467 386.269 386.077 385.827 386.324 386.222 386.172 386.057 385.902 385.684 385.467 385.259 384.949 384.217 384.282 384.372 384.059 383.909 383.969 383.874 383.839 383.664 383.419 383.072 382.897 382.789 382.424 381.957 381.544 380.999 380.484 380.019 379.584 379.732 380.157 380.519 380.819 380.959 381.017 381.064 380.972 380.792 380.587 380.232 379.682 379.152 378.802 378.469 377.819 377.319 377.354 377.274 377.064 376.892 376.772 376.674 376.587 376.489 376.424 376.332 376.244 376.067 375.927 375.787 375.584 375.422 375.239 375.044 374.882 374.734 374.517 374.324 374.109 373.929 373.712 373.572 373.387 373.097 372.839 372.564 372.339 372.092 371.842 371.489 371.139 370.844 370.732 370.627 370.497 370.449 370.309 370.107 369.959 369.827 369.767 369.667 369.484 369.247 369.042 368.589 368.297 368.029 367.752 367.492 367.279 367.062 366.934 366.839 366.752 366.627 366.479 366.262 366.117 365.887 365.534 365.064 364.629 364.289 363.972 363.592 363.259 362.842 362.424 362.062 361.739 361.469 361.279 361.132 360.912 360.867 360.689 360.554 360.219 360.052 359.727 359.534 359.237 359.032 358.819 358.632 358.469 358.347 358.222 357.909 357.332 356.702 356.317 356.007 355.824 355.687 355.509 355.342 355.267 355.112 354.884 354.769 354.637 354.499 354.449 354.237 354.109 353.852 353.639 353.444 353.169 353.079 352.674 352.454 352.049 351.597 351.322 351.114 350.809 350.589 350.469 350.574 350.289 349.887 348.962 347.884 347.199 346.579 346.249 345.902 345.514 345.069 344.664 344.299 344.017 343.844 343.852 343.952 344.019 344.269 344.504 344.289 344.049 343.927 343.644 343.554 343.107 342.149 342.117 341.832 341.757 341.584 341.467 340.784 340.064 339.462 338.934 338.584 338.174 337.542 336.749 336.047 335.449 334.909 334.714 334.652 334.492 334.399 334.359 334.184 333.974 333.672 333.412 333.054 332.834 332.607 332.542 332.317 332.174 332.077 332.074 332.042 331.854 331.712 331.657 331.532 331.399 331.324 331.287 331.339 331.224 330.964 330.589 330.079 329.594 329.137 328.762 328.444 328.014 327.777 327.549 327.382 327.267 327.109 326.909 326.639 326.409 326.147 325.949 325.692 325.407 325.137 324.844 324.429 324.109 323.809 323.557 323.477 323.414 323.224 323.069 322.849 322.697 322.507 322.197 321.972 321.829 321.527 321.264 321.102 320.879 320.537 320.287 320.127 319.972 319.852 319.752 319.567 319.402 319.209
402.532 402.422 402.307 402.159 402.014 401.907 401.734 401.619 401.484 401.317 401.102 400.877 400.667 400.429 400.149 399.874 399.567 399.267 398.989 398.652 398.334 398.064 397.797 397.604 397.604 397.552 397.352 397.099 396.822 396.587 396.474 396.324 396.157 396.019 395.797 395.697 395.482 395.359 395.259 395.044 394.524 394.089 393.949 393.762 393.687 393.939 393.974 393.954 393.854 393.817 393.907 393.947 394.104 394.277 394.204 393.887 393.634 393.519 393.422 393.299 393.152 393.004 392.864 392.739 392.557 392.367 392.139 391.882 391.669 391.434 391.264 391.097 390.867 390.629 390.424 390.069 389.732 389.392 388.917 388.619 388.144 387.754 387.452 387.194 387.002 386.859 386.592 386.517 386.469 386.382 386.187 386.027 385.809 385.654 385.452 384.959 384.362 384.909 384.709 384.402 384.347 384.257 384.144 383.999 383.817 383.614 383.387 383.207 382.909 382.479 381.987 381.409 380.889 380.412 380.152 380.337 380.554 380.869 381.199 381.389 381.432 381.417 381.394 381.289 381.112 380.854 380.459 379.929 379.364 379.084 378.649 378.227 377.974 377.827 377.652 377.467 377.324 377.199 377.159 376.987 376.887 376.707 376.702 376.569 376.457 376.279 376.042 375.932 375.717 375.492 375.299 375.137 374.954 374.764 374.634 374.424 374.234 374.074 373.884 373.709 373.522 373.192 373.032 372.742 372.439 372.154 371.867 371.597 371.377 371.224 371.114 370.959 370.777 370.632 370.509 370.369 370.212 370.074 369.929 369.794 369.552 369.399 369.049 368.652 368.347 368.072 367.824 367.579 367.364 367.189 367.104 367.067 366.919 366.849 366.682 366.509 366.259 365.967 365.597 365.182 364.982 364.707 364.189 363.774 363.412 362.964 362.577 362.207 361.964 361.729 361.477 361.249 361.132 360.922 360.737 360.527 360.282 360.032 359.869 359.624 359.482 359.249 359.077 358.862 358.657 358.474 358.184 357.752 357.334 357.107 356.439 356.234 356.034 355.742 355.459 355.367 355.237 355.099 354.964 354.884 354.789 354.649 354.444 354.242 354.067 353.819 353.599 353.354 353.209 353.029 352.827 352.419 352.057 351.824 351.484 351.077 350.797 350.817 350.874 350.622 350.257 349.827 349.312 348.592 347.972 347.454 347.192 346.962 346.592 345.909 345.537 345.279 345.097 345.072 345.099 345.154 345.229 345.344 345.209 345.002 344.604 344.252 345.049 343.809 342.937 342.749 342.642 342.422 342.274 341.902 341.219 340.489 339.799 339.264 338.909 338.554 338.067 337.534 337.052 336.469 335.889 335.629 335.414 335.237 335.059 334.837 334.694 334.459 334.112 333.864 333.482 333.169 333.044 332.844 332.709 332.692 332.562 332.424 332.347 332.169 332.094 332.017 331.934 331.807 331.794 331.847 331.807 331.589 331.279 330.824 330.319 329.784 329.402 328.974 328.624 328.439 328.082 327.837 327.639 327.487 327.247 327.024 326.787 326.612 326.379 326.129 325.959 325.667 325.362 325.074 324.784 324.444 324.189 323.982 323.847 323.689 323.557 323.474 323.324 322.989 322.924 322.734 322.409 322.164 321.952 321.697 321.472 321.267 320.972 320.679 320.492 320.307 320.162 320.072 320.049 319.957 319.807
402.879 402.772 402.579 402.444 402.327 402.197 402.059 401.919 401.759 401.579 401.322 401.089 400.847 400.627 400.362 400.142 399.894 399.624 399.334 399.042 398.712 398.392 398.132 398.027 397.997 397.974 397.747 397.509 397.389 397.119 396.847 396.779 396.697 396.562 396.319 396.089 395.879 395.662 395.504 395.292 394.782 394.462 394.197 394.037 394.194 394.409 394.362 394.324 394.174 394.192 394.179 394.289 394.489 394.542 394.412 394.167 393.897 393.694 393.562 393.502 393.317 393.192 393.037 392.952 392.859 392.659 392.394 392.177 391.989 391.834 391.624 391.347 391.124 390.892 390.587 390.209 389.842 389.574 389.252 388.944 388.539 388.167 387.879 387.724 387.447 387.234 386.757 386.494 386.677 386.642 386.357 386.152 385.952 385.819 385.462 384.634 384.609 385.179 385.059 384.874 384.727 384.602 384.374 384.202 384.082 383.814 383.649 383.312 382.894 382.404 381.872 381.324 380.944 380.732 380.942 381.314 381.464 381.694 381.889 381.919 381.839 381.822 381.714 381.564 381.334 381.002 380.607 380.192 379.752 379.394 378.999 378.612 378.352 378.119 377.984 377.844 377.737 377.582 377.447 377.374 377.217 377.034 376.872 376.859 376.687 376.584 376.402 376.157 375.909 375.762 375.569 375.357 375.169 374.954 374.842 374.719 374.529 374.349 374.132 373.957 373.827 373.504 373.372 373.162 372.932 372.544 372.257 372.024 371.837 371.719 371.562 371.377 371.234 371.029 370.877 370.789 370.557 370.359 370.114 370.039 369.924 369.772 369.564 369.174 368.639 368.437 368.129 367.952 367.802 367.572 367.489 367.359 367.277 367.092 366.974 366.814 366.639 366.414 366.137 365.907 365.569 365.262 364.844 364.347 363.947 363.479 363.062 362.777 362.452 362.167 362.012 361.744 361.487 361.239 360.969 360.759 360.537 360.304 360.149 359.947 359.797 359.649 359.497 359.277 358.994 358.717 358.439 358.054 357.782 357.597 357.234 356.762 356.482 356.262 355.872 355.557 355.417 355.299 355.169 355.114 354.967 354.872 354.647 354.464 354.282 354.087 353.834 353.609 353.469 353.249 353.057 352.722 352.514 352.367 352.007 351.582 351.104 351.094 351.247 350.807 350.457 350.312 350.169 349.819 349.259 348.704 348.249 347.957 347.619 347.049 346.662 346.347 346.222 346.122 346.132 346.109 346.092 346.079 345.814 345.549 345.147 344.719 344.639 343.897 343.619 343.404 343.249 342.902 342.537 342.222 341.482 340.634 340.132 339.654 339.212 338.862 338.567 338.219 337.757 337.312 336.852 336.464 336.182 335.949 335.657 335.319 335.059 334.804 334.494 334.232 333.952 333.712 333.552 333.394 333.164 333.069 333.052 332.919 332.752 332.604 332.539 332.474 332.367 332.329 332.287 332.259 332.089 331.724 331.289 330.869 330.414 329.959 329.629 329.219 328.957 328.702 328.392 328.149 327.904 327.732 327.489 327.299 327.157 327.017 326.907 326.594 326.264 326.052 325.769 325.564 325.352 325.032 324.737 324.534 324.347 324.237 324.039 323.884 323.599 323.389 323.344 323.202 322.989 322.669 322.397 322.127 321.904 321.677 321.404 321.122 320.969 320.812 320.617 320.549 320.504 320.454 320.344
403.087 403.002 402.907 402.754 402.594 402.492 402.432 402.149 401.979 401.719 401.532 401.297 401.087 400.852 400.627 400.427 400.189 399.967 399.719 399.422 399.034 398.737 398.549 398.472 398.402 398.264 398.157 398.042 397.799 397.532 397.272 397.192 397.102 397.007 396.844 396.589 396.314 395.999 395.727 395.482 395.252 394.917 394.709 394.639 394.889 394.879 394.787 394.789 394.679 394.677 394.704 394.707 394.752 394.772 394.664 394.489 394.272 394.007 393.839 393.659 393.467 393.404 393.314 393.259 393.142 392.982 392.699 392.417 392.284 392.127 391.904 391.659 391.442 391.149 390.879 390.449 390.104 389.789 389.502 389.322 388.989 388.657 388.387 388.164 387.849 387.617 387.049 386.797 386.654 386.499 386.549 386.437 386.187 386.032 385.662 384.917 385.039 385.514 385.412 385.162 385.029 384.877 384.582 384.464 384.219 383.992 383.769 383.292 382.819 382.237 381.669 381.432 381.457 381.637 381.829 382.064 382.232 382.294 382.347 382.314 382.227 382.084 382.054 381.879 381.574 381.207 380.869 380.462 380.032 379.662 379.329 379.037 378.772 378.469 378.289 378.162 378.052 377.962 377.822 377.699 377.579 377.362 377.227 377.067 376.932 376.819 376.667 376.417 376.204 376.047 375.817 375.592 375.379 375.242 375.077 375.017 374.877 374.632 374.384 374.182 374.022 373.672 373.727 373.539 373.282 373.062 372.762 372.444 372.214 372.112 371.954 371.819 371.637 371.442 371.277 371.167 370.932 370.694 370.452 370.409 370.229 370.064 369.914 369.619 369.152 368.774 368.509 368.437 368.214 368.032 367.854 367.727 367.614 367.467 367.272 367.112 366.964 366.849 366.602 366.374 366.094 365.722 365.342 364.894 364.497 364.057 363.642 363.342 362.999 362.649 362.459 362.244 361.939 361.689 361.489 361.127 360.869 360.637 360.402 360.209 360.072 360.002 359.864 359.734 359.454 359.212 358.812 358.482 358.274 357.969 357.729 357.362 357.139 356.862 356.394 356.029 355.774 355.559 355.449 355.454 355.317 355.094 354.854 354.719 354.519 354.304 354.064 353.847 353.719 353.494 353.287 353.102 352.862 352.612 352.364 352.002 351.427 351.389 351.479 351.349 350.964 350.754 350.692 350.509 350.092 349.672 349.274 349.034 348.602 348.254 347.747 347.354 347.199 347.264 347.139 346.952 346.779 346.627 346.477 346.082 345.569 345.114 344.762 344.359 344.107 343.827 343.519 343.252 342.629 342.114 341.402 340.784 340.294 339.852 339.477 339.144 338.987 338.749 338.332 337.967 337.522 337.154 336.867 336.554 336.139 335.947 335.619 335.284 335.034 334.749 334.434 334.182 333.944 333.719 333.644 333.597 333.554 333.444 333.259 333.192 333.102 332.989 332.932 332.852 332.699 332.472 332.169 331.722 331.304 330.894 330.579 330.247 329.887 329.544 329.257 328.997 328.767 328.594 328.194 328.064 327.957 327.697 327.567 327.429 327.284 327.057 326.679 326.429 326.219 326.029 325.922 325.747 325.414 325.177 324.964 324.772 324.544 324.357 324.072 323.959 323.819 323.639 323.437 323.239 322.954 322.684 322.362 322.079 321.799 321.497 321.329 321.239 321.104 321.112 321.002 320.919 320.802
