ncols 379
nrows 32
xllcorner    389164
yllcorner    475486
cellsize     2
NODATA_value -9999
402.685 403.43 404.108 404.613 405.158 405.668 406.328 406.935 407.423 407.908 408.4 408.708 408.945 409.38 410.018 410.58 411.243 411.768 412.253 412.593 412.958 413.325 413.748 414.22 414.695 415.15 415.39 415.795 416.298 416.87 417.21 417.453 417.738 417.89 418.218 418.62 419.193 419.533 420.183 420.92 421.065 421.395 421.895 422.49 423.053 423.59 424.168 424.728 425.153 425.76 426.485 427.228 427.755 428.323 428.708 429.145 429.7 430.294 430.777 431.312 431.554 431.797 431.883 432.017 432.215 432.588 432.928 433.44 434.367 434.691 434.743 434.45 434.186 434.227 434.485 434.704 434.723 435.06 435.07 435.531 436.493 437.085 437.501 437.848 438.346 438.363 438.215 438.465 438.592 438.916 439.362 440.031 440.716 441.207 441.672 442.012 442.238 442.445 442.673 442.864 442.967 443.282 443.587 443.743 444.053 444.295 444.724 445.001 445.331 445.632 445.972 446.294 446.579 446.945 447.301 447.501 447.937 448.174 448.39 448.625 448.987 449.256 449.654 449.984 450.366 450.704 451.187 451.498 451.897 452.407 452.743 453.147 453.656 453.862 454.308 454.513 454.897 455.174 455.683 455.816 456.154 456.431 456.788 457.089 457.354 457.563 457.812 458.086 458.326 458.535 458.79 459.137 459.409 459.717 459.958 460.402 460.628 460.97 461.184 461.578 461.871 462.058 462.433 462.713 462.809 463.087 463.454 463.813 464.044 464.51 465.581 465.242 465.324 465.333 465.655 466.147 466.365 466.647 467.531 467.717 468.137 468.922 469.132 469.526 469.689 470.004 470.124 470.396 470.617 470.802 470.836 471.045 471.375 471.473 471.733 471.758 472.017 472.281 472.608 472.948 473.481 473.874 474.432 474.866 474.993 475.34 475.639 475.763 476.029 476.148 476.438 476.536 476.762 476.835 477.037 477.12 476.981 476.916 477.369 477.624 477.809 477.864 477.648 477.687 477.536 477.703 477.465 477.424 477.497 477.678 477.771 477.747 478.085 478.301 478.325 478.324 478.724 478.734 478.795 478.891 478.934 478.977 478.945 478.962 479.107 478.957 479.017 478.815 478.696 478.562 478.301 478.111 477.764 477.424 477.217 476.857 476.562 476.48 476.509 476.307 476.033 476.086 475.89 475.835 475.711 475.572 475.505 475.226 475.324 475.365 475.626 475.628 475.463 475.116 474.873 474.267 474.285 473.841 473.394 473.191 472.941 472.68 472.582 472.157 472.04 471.702 471.362 470.955 470.961 470.603 470.382 469.763 469.3 468.86 468.679 468.607 468.238 467.857 467.23 467.114 466.934 466.765 466.634 466.481 466.293 466.259 466.158 466.318 466.016 465.986 466.035 466.288 466.189 466.007 466.08 466.219 465.97 465.876 465.471 465.468 465.603 465.689 465.263 464.608 463.812 462.455 461.716 462.174 462.154 462.141 462.89 462.914 462.688 462.472 462.89 463.239 463.986 464.303 464.464 464.676 465.104 465.657 465.66 465.575 465.733 465.897 465.979 466.266 466.314 466.317 466.671 466.628 465.822 465.677 465.9 466.848 467.87 468.089 468.138 468.092 468.064 468.356 468.589 468.711 468.767 468.91 469.121 469.316 469.414 469.47 469.38 469.382 469.483 469.1 468.682 468.062 468.819 469.38 470.154
402.228 402.965 403.645 404.265 404.813 405.45 406.15 406.76 407.265 407.745 408.118 408.4 408.79 409.093 409.673 410.235 410.908 411.488 411.985 412.393 412.743 413.19 413.59 414.073 414.445 414.813 415.143 415.658 416.138 416.578 416.948 417.16 417.393 417.725 418.218 418.89 419.44 419.685 419.98 420.228 420.625 421.11 421.615 422.328 422.86 423.393 423.91 424.468 424.815 425.458 426.275 426.975 427.46 428.07 428.448 428.845 429.415 430.046 430.638 431.244 431.557 431.82 432.073 432.219 432.362 432.542 432.746 433.401 434.091 434.533 434.458 434.173 433.856 433.867 434.234 434.672 434.513 434.304 434.141 435.194 435.504 436.17 436.826 437.315 437.501 437.613 437.936 438.204 438.328 438.624 439.202 439.87 440.66 441.073 441.538 441.718 442.009 442.354 442.514 442.695 442.935 443.17 443.444 443.566 443.782 444.131 444.539 444.88 445.11 445.467 445.818 446.088 446.343 446.655 446.953 447.254 447.521 447.96 448.229 448.404 448.856 449.146 449.527 449.756 450.124 450.56 450.89 451.299 451.72 452.203 452.73 452.943 453.34 453.764 454.047 454.249 454.686 455.042 455.344 455.567 455.914 456.337 456.632 456.851 457.125 457.353 457.687 457.878 458.041 458.293 458.638 458.892 459.288 459.614 459.796 460.149 460.475 460.818 460.967 461.41 461.684 461.967 462.191 462.373 462.604 462.827 463.267 463.514 464.08 464.232 464.521 464.829 464.969 465.275 465.413 465.72 465.968 466.471 467.036 467.46 467.866 468.193 468.76 469.263 469.493 469.722 469.894 470.149 470.348 470.465 470.605 470.741 470.979 471.024 471.308 471.498 471.6 471.864 472.226 472.605 472.896 473.585 473.91 474.448 474.764 475.195 475.375 475.7 475.61 475.617 475.88 476.291 476.445 476.551 476.776 476.586 476.382 476.326 476.329 476.624 477.06 477.291 476.604 476.409 476.723 476.638 476.592 476.725 476.743 476.704 476.939 477.086 477.441 477.945 478.088 478.28 478.256 478.605 478.429 478.572 478.669 478.599 478.586 478.432 478.305 478.139 478.127 477.92 477.779 477.678 477.481 477.247 477.069 476.706 476.589 476.22 476.488 476.165 476.036 475.707 475.584 475.521 475.514 475.291 475.212 475.101 474.888 474.817 474.686 474.757 474.552 474.738 474.541 474.209 473.998 473.705 473.39 473.216 472.879 472.667 472.647 472.326 471.953 471.809 471.151 471.101 470.681 470.393 469.959 469.77 469.326 468.483 468.549 468.185 467.759 467.548 467.485 467.266 467.008 466.652 466.682 466.38 466.246 466.306 465.914 465.709 465.7 465.872 465.461 465.451 465.314 464.887 465.299 465.039 465.177 464.858 464.986 464.929 464.691 464.654 465.012 465.157 465.055 464.705 463.932 462.779 462.024 461.95 461.815 461.975 462.416 462.771 462.484 462.484 462.664 462.789 463.547 463.939 464.019 464.5 464.969 465.239 465.525 465.755 465.443 465.6 465.554 465.783 465.983 466.179 466.16 466.2 465.582 465.653 466.142 466.885 467.622 467.654 467.964 467.918 468.028 468.173 468.32 468.44 468.57 468.739 468.948 469.068 469.218 469.242 469.324 469.451 469.184 468.948 468.118 468.053 468.841 469.768 470.268
401.778 402.595 403.16 403.923 404.59 405.183 405.845 406.468 407.02 407.523 407.913 408.178 408.458 408.628 409.163 409.868 410.6 411.19 411.748 412.16 412.548 412.985 413.348 413.735 414.133 414.47 414.9 415.428 415.92 416.308 416.593 417.05 417.455 418.005 418.588 418.865 418.978 419.363 419.748 420.143 420.58 421.083 421.575 422.108 422.648 423.115 423.553 424.085 424.488 425.263 426.065 426.64 427.198 427.673 428.17 428.718 429.188 429.838 430.413 430.948 431.425 431.797 432.105 432.43 432.601 432.556 432.701 433.035 433.298 433.561 433.916 433.778 433.519 433.673 433.804 433.754 433.905 433.759 434.074 434.937 435.278 435.848 436.217 436.568 437.124 437.424 437.838 438.012 438.245 438.655 439.373 439.854 440.406 440.803 441.071 441.324 441.661 441.989 442.184 442.468 442.641 442.853 443.008 443.321 443.712 444.015 444.338 444.653 444.999 445.35 445.722 445.97 446.293 446.449 446.734 447.025 447.419 447.645 447.997 448.437 448.746 449.006 449.302 449.708 449.989 450.353 450.74 451.042 451.463 451.905 452.338 452.751 453.137 453.442 453.756 454.141 454.453 454.792 455.045 455.561 455.82 456.19 456.411 456.652 456.951 457.332 457.407 457.708 457.978 458.159 458.503 458.817 459.119 459.398 459.734 460.027 460.206 460.497 460.799 461.146 461.409 461.742 461.99 462.143 462.317 462.69 464.156 464.11 464.24 464.064 464.286 464.478 464.783 464.911 465.218 465.525 465.874 466.177 466.563 467.333 467.649 467.912 468.423 468.686 469.187 469.363 469.548 469.819 469.986 470.185 470.29 470.426 470.639 470.796 470.971 471.095 471.293 471.629 471.702 471.757 472.283 472.908 473.554 473.994 474.439 474.891 475.141 475.336 475.486 475.467 475.531 475.813 476.035 476.117 476.229 476.092 475.741 475.305 475.237 475.648 475.201 475.333 475.841 475.543 476.476 475.867 475.994 476.095 476.237 476.113 476.278 476.537 476.851 476.927 477.352 477.542 477.542 477.587 477.898 477.867 477.919 477.889 477.914 478.039 477.68 477.653 477.686 477.703 477.406 477.211 477.031 476.772 476.397 476.225 476.022 475.772 475.545 475.361 475.197 475.091 474.828 474.656 474.746 474.646 474.508 474.395 474.247 474.246 474.288 474.19 474.192 473.957 473.836 473.818 473.353 473.142 472.984 472.868 472.455 472.03 471.902 471.666 471.371 470.833 470.507 470.105 469.943 469.623 469.278 468.881 468.686 468.041 468.121 467.767 467.561 467.082 466.819 466.627 466.203 465.879 465.771 465.737 465.614 465.489 465.15 465.116 464.724 464.754 464.7 464.586 464.574 464.495 464.515 464.621 464.605 464.615 464.504 464.29 464.238 464.444 464.61 464.752 464.967 464.581 464.067 463.263 462.17 461.379 461.44 461.628 461.645 462.565 462.587 462.616 462.514 462.931 463.099 463.275 463.703 464.117 464.687 464.981 465.16 465.214 465.111 465.26 465.403 465.664 465.731 465.942 465.962 465.598 465.351 465.465 465.938 466.847 467.539 467.541 467.617 467.732 467.941 468.039 468.121 468.173 468.319 468.516 468.753 468.9 468.849 468.853 469.022 468.98 468.878 468.289 467.373 467.039 469.124 469.797 470.112
401.35 402.038 402.555 403.4 404.153 404.795 405.585 406.213 406.803 407.498 407.825 408.123 408.315 408.27 408.78 409.563 410.278 410.858 411.428 411.878 412.32 412.675 413.025 413.415 413.86 414.248 414.683 415.18 415.668 416.24 416.763 417.315 417.605 417.865 418.265 418.643 418.89 419.258 419.713 420.12 420.598 420.983 421.33 421.855 422.43 422.83 423.25 423.765 424.398 425.063 425.71 426.333 426.95 427.44 427.958 428.508 428.88 429.444 430.081 430.737 431.152 431.611 431.963 432.278 432.511 432.57 432.506 432.614 432.974 433.191 433.406 433.484 433.462 433.585 433.597 433.742 433.623 433.893 434.423 434.682 435.169 435.592 435.921 436.263 436.694 437.15 437.587 437.862 438.282 438.762 439.144 439.739 440.131 440.551 440.972 441.113 441.267 441.734 441.991 442.146 442.288 442.681 442.905 443.261 443.621 443.932 444.21 444.575 444.896 445.167 445.479 445.812 445.959 446.181 446.603 446.893 447.125 447.377 447.859 448.219 448.557 448.708 449.055 449.493 449.839 450.153 450.528 450.897 451.32 451.837 452.015 452.403 452.951 453.279 453.603 453.971 454.488 454.793 455.051 455.408 455.661 456.058 456.268 456.552 456.778 456.947 457.145 457.395 457.689 458.031 458.332 458.722 458.97 459.174 459.508 459.709 460.032 460.237 460.666 460.897 461.227 461.486 461.839 461.987 462.253 462.574 463.041 463.293 463.634 463.774 464.092 464.406 464.592 464.751 464.959 465.349 465.655 465.85 466.088 466.607 467.279 467.604 467.857 468.235 468.81 469.098 469.386 469.46 469.71 469.859 470.018 470.195 470.261 470.409 470.558 470.858 471.041 471.042 471.3 471.33 471.674 472.238 472.558 473.413 473.909 474.595 474.559 474.83 474.858 475.306 475.057 474.96 475.39 475.682 475.185 474.972 474.825 474.565 474.619 474.587 474.827 474.5 474.558 474.728 474.675 474.573 474.689 474.837 475.018 475.323 475.33 475.737 476.156 476.485 476.717 476.934 476.955 477.221 477.639 477.517 477.51 477.665 477.628 477.468 477.311 477.088 476.804 476.671 476.664 476.424 475.981 475.777 475.511 475.376 475.19 475.078 475.102 474.986 474.805 474.536 474.47 474.421 474.292 474.214 474.318 473.97 473.912 473.767 473.732 473.725 473.398 473.335 473.157 472.764 472.759 472.632 472.489 472.085 471.978 471.549 471.325 471.108 470.651 470.426 469.812 469.471 469.244 468.845 468.562 468.31 468.17 467.61 467.422 467.082 466.885 466.564 466.275 465.88 465.523 465.548 465.461 465.343 465.208 464.969 464.777 464.643 464.469 464.418 464.279 464.091 464.019 464.077 464.113 464.039 463.815 463.731 463.748 463.717 463.677 464 463.929 463.894 464.213 464.33 464.142 463.427 462.428 461.665 461.387 461.488 461.219 462.044 462.364 462.385 462.485 462.583 462.941 463.029 463.472 463.908 464.181 464.317 464.798 464.994 465.021 465.072 465.217 465.351 465.459 465.593 465.566 465.119 464.841 465.093 465.698 466.984 467.138 467.372 467.243 467.351 467.551 467.671 467.72 467.976 468.182 468.29 468.342 468.64 468.534 468.558 468.942 468.799 468.387 467.772 466.775 467.818 468.815 469.421 469.839
400.858 401.595 402.273 403.08 403.69 404.435 405.355 406.04 406.673 407.225 407.793 408.015 408.03 407.94 408.18 408.893 409.738 410.505 411.125 411.603 412.048 412.523 412.895 413.293 413.713 414.15 414.583 415.258 415.893 416.448 416.6 416.923 417.3 417.693 418.103 418.51 418.763 419.22 419.59 420.008 420.43 420.788 421.093 421.66 422.105 422.615 423.075 423.57 424.27 424.8 425.338 426.018 426.533 427.085 427.63 428.09 428.55 429.069 429.696 430.432 430.903 431.318 431.715 431.995 432.303 432.451 432.382 432.355 432.507 432.701 432.807 433.051 433.5 433.687 433.817 433.984 434.065 434.247 434.648 435.251 435.555 435.423 435.87 436.125 436.327 436.584 437.072 437.702 438.193 438.621 439.154 439.511 440.022 440.354 440.689 440.802 441.31 441.674 441.889 441.975 442.136 442.347 442.745 443.097 443.451 443.692 443.896 444.289 444.642 445 445.198 445.468 445.671 446.057 446.383 446.578 446.959 447.341 447.719 448.128 448.371 448.651 449.04 449.367 449.7 449.948 450.378 450.749 451.228 451.401 451.823 452.273 452.664 452.935 453.294 453.786 454.074 454.395 454.829 455.203 455.493 455.644 456.036 456.29 456.565 456.641 457.056 457.275 457.65 457.882 458.141 458.403 458.8 459.033 459.164 459.329 459.782 460.103 460.427 460.686 460.897 461.16 461.66 462.378 462.063 462.555 462.739 462.997 463.313 463.612 463.834 464.047 464.353 464.667 464.833 465.266 465.308 465.522 465.932 466.27 466.705 467.116 467.904 467.953 468.248 468.723 469.011 469.304 469.439 469.536 469.803 469.762 469.948 470.08 470.237 470.516 470.616 470.697 470.848 470.932 471.246 471.549 472.05 472.466 472.545 473.438 473.269 473.06 473.43 474.4 474.037 473.584 474.162 474.138 474.054 474.141 473.629 473.649 473.477 473.57 473.333 473.735 473.549 473.648 473.775 473.929 473.905 474.054 474.517 474.605 475.13 475.28 475.56 475.848 476.189 476.315 476.566 476.469 476.79 476.978 476.807 476.663 476.694 476.478 476.48 476.234 476.181 475.947 475.741 475.671 475.342 475.046 475.197 475.12 474.864 474.679 474.635 474.387 474.273 474.254 474.189 474.01 473.84 473.748 473.631 473.568 473.453 473.271 473.183 473.092 472.848 472.659 472.56 472.324 472.094 471.837 471.851 471.634 471.139 470.988 470.684 470.212 469.853 469.505 469.178 468.609 468.258 468.06 467.774 467.649 467.473 467.218 466.96 466.786 466.475 466.172 465.872 465.621 465.471 465.442 465.305 464.923 464.618 464.604 464.203 464.048 463.943 464.026 463.843 463.69 463.598 463.592 463.506 463.461 463.503 463.455 463.482 463.526 463.517 463.697 463.671 463.685 463.789 463.915 463.854 463.536 462.596 461.969 461.684 461.312 460.739 461.994 462.064 462.147 462.438 462.559 462.535 462.67 463.05 463.492 463.597 463.877 464.277 464.73 464.838 464.865 464.913 464.927 464.982 465.188 465 464.676 464.462 464.819 465.852 466.599 466.902 467.066 467.134 467.248 467.172 467.387 467.652 467.747 467.975 468.091 468.037 468.064 468.313 468.413 468.552 468.415 467.317 467.002 466.424 468.227 468.82 469.303 469.451
400.423 401.055 401.673 402.535 403.245 404.14 405.155 405.76 406.398 407.083 407.533 407.72 407.635 407.64 407.735 408.405 409.41 410.465 411.095 411.613 411.978 412.293 412.75 413.218 413.868 414.488 414.94 415.425 415.768 416.063 416.433 416.765 417.193 417.643 417.973 418.275 418.615 419.013 419.435 419.845 420.12 420.543 420.948 421.398 421.908 422.365 422.793 423.223 423.798 424.218 424.825 425.495 426.168 426.725 427.26 427.783 428.278 428.835 429.402 430.021 430.49 430.881 431.364 431.785 432.101 432.36 432.355 432.285 432.408 432.625 432.764 433.056 433.455 434.383 434.479 434.632 434.734 434.713 435.127 435.522 435.836 435.564 435.999 436.145 436.217 436.562 436.845 437.183 437.906 438.396 438.654 439.231 439.838 440.035 440.244 440.526 440.898 441.313 441.496 441.574 441.833 442.212 442.588 442.988 443.199 443.468 443.833 444.119 444.64 444.838 445.049 445.376 445.606 445.799 446.148 446.57 446.916 447.233 447.532 447.84 448.108 448.47 448.75 449.155 449.464 449.729 450.073 450.511 451.002 451.236 451.5 451.985 452.373 452.705 453.023 453.395 454.086 454.394 454.652 454.917 455.289 455.505 455.733 456.133 456.397 456.674 456.934 457.184 457.42 457.681 457.899 458.169 458.49 458.585 458.764 459.267 459.55 459.878 460.134 460.498 460.686 461.29 462.236 461.872 462.064 462.261 462.474 462.708 463.038 463.323 463.652 463.936 464.195 464.491 464.734 465.051 465.242 465.482 465.665 465.927 466.267 466.506 467.277 467.933 467.82 468.415 468.781 468.967 469.108 469.292 469.285 469.524 469.59 469.71 469.905 469.829 470.158 470.26 470.389 470.54 470.754 471.229 471.563 471.734 471.724 471.824 472.297 472.166 472.244 472.395 472.46 472.438 472.801 472.93 473.222 473.091 472.838 472.745 472.658 473.377 473.074 473.13 472.986 473.258 473.07 473.222 473.354 473.369 473.828 473.903 474.162 474.282 474.792 475.108 475.449 475.586 476.026 475.988 476.226 476.107 476.279 476.356 476.231 476.259 476.07 475.903 475.608 475.525 475.318 475.262 474.852 474.711 474.555 474.458 474.304 474.202 474.097 474.002 473.872 473.712 473.606 473.649 473.482 473.405 473.457 473.383 473.215 473.062 472.819 472.57 472.22 472.299 471.646 471.677 471.443 470.664 470.327 470.668 470.394 470.07 469.704 469.375 469.118 468.833 468.575 468.237 467.744 467.601 467.328 467.273 466.962 466.879 466.575 466.358 466.158 465.712 465.332 465.118 464.882 465.013 464.792 464.54 464.381 464.305 464.12 463.972 463.983 463.782 463.668 463.583 463.538 463.469 463.433 463.365 463.399 463.315 463.387 463.315 463.336 463.369 463.443 463.439 463.469 463.509 463.561 463.308 462.821 462.424 461.759 460.817 461.597 461.689 462.067 462.182 462.168 462.216 462.179 462.184 462.761 463.101 463.457 463.681 464.125 464.326 464.462 464.759 464.581 464.655 464.723 464.924 464.688 464.365 463.817 464.324 465.831 466.541 466.784 466.755 466.964 467.271 467.14 467.257 467.295 467.462 467.745 467.586 467.769 468.016 467.986 468.105 468.327 467.522 466.89 466.119 466.335 468.065 468.717 469.091 469.217
400.215 400.715 401.345 402.265 403.143 404.118 404.838 405.49 406.06 406.663 406.98 407.148 407.103 407.308 407.653 408.263 409.43 410.355 411.065 411.625 411.958 412.358 412.888 413.535 414.025 414.203 414.658 415.165 415.575 415.905 416.283 416.688 417.053 417.453 417.803 418.158 418.52 418.853 419.175 419.533 419.963 420.363 420.79 421.223 421.675 422.095 422.535 423.05 423.445 424.015 424.493 425.213 425.873 426.47 426.978 427.505 427.945 428.483 428.945 429.298 429.685 430.247 430.829 431.272 431.747 431.919 432.046 432.271 432.437 432.626 432.83 433.037 433.507 434.366 434.961 435.117 435.053 435.014 435.29 436.016 436.632 436.476 436.203 436.371 436.284 436.441 436.584 436.747 436.893 437.284 437.638 438.235 438.932 439.407 439.865 440.137 440.523 440.74 441.07 441.357 441.604 441.919 442.377 442.769 443.083 443.294 443.615 444.116 444.279 444.499 444.885 445.087 445.312 445.705 446.042 446.241 446.615 446.946 447.4 447.619 447.921 448.278 448.722 448.937 449.205 449.609 450.066 450.378 450.636 450.979 451.343 451.748 452.04 452.468 452.986 453.396 453.744 453.933 454.371 454.798 455.046 455.241 455.531 455.836 456.159 456.395 456.635 456.986 457.22 457.458 457.662 457.912 458.141 458.414 458.63 458.999 459.405 459.562 459.996 460.263 461.577 461.391 461.261 461.594 461.909 462.147 462.321 462.551 462.823 463.12 463.448 463.744 464.18 464.425 464.588 464.788 464.942 465.274 465.387 465.598 465.701 466.337 466.815 467.365 467.672 467.942 468.271 468.57 468.819 468.861 468.972 469.116 469.347 469.51 469.541 469.629 469.691 469.89 469.902 470.101 470.324 470.684 470.894 471.148 471.046 471.205 471.428 471.563 471.609 471.337 471.701 471.577 471.936 472.088 471.706 472.162 472.06 472.06 471.964 472.021 471.991 471.966 472.092 472.104 472.31 472.467 472.671 472.772 473.15 473.256 473.39 473.79 474.329 474.895 474.993 475.329 475.468 475.794 475.793 475.96 475.702 475.766 475.691 475.298 475.256 475.059 474.87 474.723 474.564 474.555 474.453 474.426 474.312 474.206 474.11 474.02 473.884 473.737 473.656 473.569 473.458 473.316 473.232 473.18 473.089 473.01 473.062 472.652 472.453 472.15 471.854 471.29 470.877 470.951 470.5 470.174 469.869 469.887 469.752 469.439 469.075 468.905 468.581 468.366 468.115 467.612 467.416 467.114 466.778 466.468 466.546 466.203 466.071 465.711 465.54 465.305 465.083 464.901 464.791 464.757 464.637 464.5 464.308 464.223 464.086 463.896 463.8 463.803 463.582 463.512 463.414 463.354 463.265 463.264 463.302 463.264 463.158 463.265 463.179 463.292 463.295 463.419 463.337 463.44 463.318 463.373 463.112 462.726 461.351 461.154 461.45 461.558 461.977 461.972 461.903 461.963 461.779 462.032 462.455 462.993 463.111 463.402 463.607 463.973 464.133 464.29 464.231 464.308 464.44 464.532 464.271 463.947 463.841 464.228 465.541 466.316 466.551 466.679 466.682 466.711 466.933 466.946 466.943 467.118 467.246 467.489 467.384 467.781 467.819 467.93 468.088 466.957 466.021 466.088 466.772 467.886 468.497 468.796 469.107
400.115 400.455 401.125 401.995 402.858 403.705 404.373 404.98 405.485 405.925 406.118 406.283 406.68 407.415 407.9 408.473 409.2 410.165 411.108 411.895 412.355 412.798 412.955 413.193 413.548 414.013 414.52 415.035 415.455 415.778 416.218 416.535 416.985 417.33 417.675 418 418.26 418.573 418.865 419.373 419.79 420.23 420.658 421.065 421.455 421.895 422.45 422.91 423.198 423.65 424.168 424.933 425.518 426.145 426.668 427.228 427.76 428.195 428.645 428.909 429.2 429.693 430.251 430.738 431.096 431.327 431.596 432.302 432.676 432.851 432.99 433.344 433.862 434.519 434.903 435.159 435.402 435.703 435.932 436.287 436.47 436.65 436.622 436.766 436.836 436.768 436.764 436.845 436.809 436.767 437.266 437.831 438.696 439.197 439.598 439.733 440.147 440.301 440.611 440.973 441.406 441.832 442.098 442.417 442.867 443.056 443.372 443.716 443.995 444.32 444.589 444.844 445.164 445.379 445.839 446.289 446.562 446.854 447.234 447.532 447.822 448.141 448.579 448.839 449.061 449.449 449.874 450.153 450.35 450.756 451.123 451.454 451.727 452.257 452.627 453.087 453.387 453.673 454.144 454.449 454.693 455.046 455.286 455.79 455.975 456.271 456.626 456.921 457.09 457.303 457.618 457.799 458.001 458.254 458.554 458.785 459.042 459.177 460.679 460.702 460.401 460.579 461.021 461.315 461.686 461.844 462.152 462.362 462.558 462.835 463.198 463.631 463.989 464.273 464.525 464.661 464.903 465.103 465.179 465.279 465.578 465.905 466.374 466.728 467.067 467.643 467.692 468.107 468.311 468.469 468.757 468.902 468.982 469.233 469.202 469.305 469.301 469.443 469.532 469.637 469.799 469.942 470.32 470.05 470.475 470.685 470.751 470.962 470.875 470.804 470.837 470.996 470.884 470.887 471.063 470.889 471 471.141 471.035 471.084 471.285 471.328 471.508 471.591 472.013 472.094 472.062 472.195 472.592 472.919 473.014 473.409 473.724 473.928 474.597 474.556 474.709 474.675 474.902 474.962 474.978 474.992 474.956 475.016 474.862 474.689 474.633 474.531 474.527 474.338 474.348 474.269 474.128 474.021 473.916 473.793 473.825 473.609 473.444 473.305 473.228 473.246 473.15 473.153 473.1 473.031 472.84 472.81 472.602 472.11 471.601 471.296 470.659 470.329 470.034 470.093 469.37 469.087 468.835 468.634 468.448 468.189 467.862 467.69 467.616 467.212 467.106 467.008 466.52 466.456 466.268 465.971 465.767 465.44 465.324 465.198 464.933 464.698 464.565 464.577 464.389 464.223 464.136 464.105 463.921 463.761 463.745 463.586 463.541 463.32 463.464 463.34 463.23 463.264 463.194 463.138 463.123 463.157 463.059 463.023 463.205 463.168 463.106 463.013 462.92 462.918 463.073 462.458 461.668 461.171 461.179 461.313 461.645 461.721 461.86 462.079 461.815 461.872 462.197 462.538 462.7 462.965 463.247 463.382 463.666 463.928 464.057 464.005 464.05 463.905 463.677 463.226 463.541 464.137 465.175 466.139 466.257 466.521 466.36 466.651 466.542 466.657 466.849 467.17 467.051 467.262 467.39 467.411 467.541 467.73 467.759 467.177 465.734 465.306 465.808 467.126 467.73 468.373 468.848
400.1 400.573 401.123 401.798 402.638 403.278 403.753 404.233 404.533 404.92 405.295 405.92 406.748 407.533 408.055 408.51 409.26 410.475 411.43 411.75 411.95 412.36 412.7 412.965 413.415 413.945 414.443 415.015 415.408 415.68 416.018 416.42 416.778 417.118 417.54 417.86 418.125 418.46 418.81 419.12 419.585 420.138 420.5 420.948 421.35 421.84 422.198 422.62 422.973 423.403 423.905 424.61 425.25 425.79 426.378 426.958 427.345 427.873 428.288 428.67 429.001 429.23 429.569 429.878 430.093 430.601 431.431 432.292 432.77 433.079 433.446 433.635 434.049 434.457 434.763 435 435.353 435.55 435.896 436.106 436.367 436.626 436.818 437.078 437.173 437.197 437.157 437.081 437.354 437.349 437.646 437.963 438.684 439.07 439.344 439.368 439.726 440.055 440.282 440.855 441.209 441.601 441.905 442.243 442.625 442.899 443.268 443.469 443.741 444.07 444.405 444.681 444.981 445.381 445.756 446.099 446.395 446.653 446.956 447.235 447.767 447.928 448.188 448.503 448.933 449.305 449.603 449.908 450.213 450.543 450.851 451.182 451.546 452.073 452.46 452.807 453.056 453.573 453.998 454.293 454.481 454.949 455.386 455.592 455.771 456.099 456.366 456.614 456.822 457.079 457.345 457.519 457.762 458.086 458.374 458.556 459.122 460.187 459.647 459.878 460.055 460.419 460.822 461.059 461.436 461.683 461.893 462.171 462.448 462.721 463.036 463.41 463.766 464.078 464.38 464.51 464.644 464.806 465.007 465.136 465.369 465.741 466.061 466.373 466.735 467.249 467.669 467.8 467.952 468.28 468.425 468.566 468.639 468.707 468.961 468.849 468.952 469.022 469.078 469.193 469.37 469.561 469.549 469.789 469.907 470.08 470.106 470.083 470.074 470.309 470.199 470.227 470.321 470.128 470.235 470.062 470.724 470.489 470.406 470.6 470.871 470.706 470.919 471.048 471.396 471.441 471.583 471.812 471.981 472.154 472.497 472.789 473.024 473.365 473.724 474.148 473.994 474.287 474.474 474.699 474.819 474.696 474.61 474.51 474.464 474.439 474.427 474.321 474.247 474.225 474.193 474.117 474.024 473.994 473.932 473.886 473.828 473.754 473.419 473.173 473.068 473.18 473.209 473.198 473.123 473.106 472.715 472.771 472.263 472.11 471.159 470.684 470.203 469.781 469.551 469.323 469.037 468.699 468.443 468.391 468.153 467.923 467.606 467.5 467.24 467.05 467.034 466.731 466.26 466.112 465.9 465.636 465.438 465.195 465.112 464.891 464.604 464.559 464.452 464.241 464.314 464.354 464.154 464.047 463.972 463.748 463.638 463.593 463.558 463.306 463.247 463.252 463.161 463.111 463.074 463.085 463.026 462.957 462.849 462.97 463.151 463.2 462.908 462.704 462.702 462.536 462.411 462.059 461.308 461.01 461.054 461.009 461.384 461.546 461.709 461.767 461.857 461.691 461.817 461.925 462.207 462.683 462.86 463.196 463.304 463.541 463.853 463.9 463.797 463.787 463.486 463.468 463.467 463.943 465.146 465.795 466.117 466.198 466.235 466.233 466.39 466.277 466.536 466.628 466.839 466.868 467.103 467.141 467.244 467.462 467.456 467.246 466.149 465.75 465.184 466.746 467.286 468.129 468.578
400.028 400.525 401.093 401.65 402.183 402.6 403.038 403.328 403.723 404.348 405.4 406.515 407.33 407.868 408.49 409.005 409.52 410.028 410.528 410.97 411.573 412.008 412.43 412.833 413.273 413.875 414.353 414.783 415.203 415.54 415.908 416.298 416.565 416.843 417.24 417.62 418.015 418.35 418.655 419.043 419.583 420.13 420.363 420.745 421.125 421.605 422.013 422.348 422.843 423.253 423.688 424.28 424.975 425.593 426.095 426.583 427.125 427.608 428.045 428.275 428.605 428.806 428.988 429.311 429.632 430.272 431.194 432.081 432.569 433.021 433.411 433.738 434.041 434.375 434.643 434.956 435.138 435.36 435.725 435.898 436.119 436.28 436.617 436.783 436.973 437.214 437.538 437.669 437.799 437.912 438.101 438.281 438.78 438.979 439.203 439.402 439.581 439.828 440.096 440.769 441.094 441.466 441.876 442.155 442.357 442.582 442.965 443.172 443.451 443.774 444.135 444.378 444.789 445.117 445.553 445.852 446.199 446.443 446.766 447.092 447.352 447.761 448.131 448.548 448.733 449.131 449.385 449.743 450.039 450.435 450.643 451.047 451.426 451.609 451.947 452.256 452.831 453.205 453.675 453.95 454.28 454.664 455.112 455.272 455.622 455.85 456.144 456.297 456.616 456.894 457.132 457.416 457.627 457.933 458.198 458.445 458.714 458.966 459.343 459.592 459.864 460.179 460.516 460.88 461.161 461.412 461.764 461.9 462.275 462.565 462.82 463.274 463.506 463.848 464.091 464.354 464.507 464.675 464.893 465.002 465.097 465.603 465.914 466.178 466.317 466.661 467.531 467.697 467.74 467.918 468.193 468.31 468.428 468.527 468.507 468.527 468.587 468.572 468.725 468.843 468.911 469.12 469.078 469.382 469.442 469.594 469.595 469.394 469.571 469.631 469.63 469.615 469.335 469.469 469.427 469.539 469.419 469.489 469.588 469.712 469.717 470.109 470.175 470.522 470.617 470.843 471.067 471.365 471.648 471.969 472.341 472.366 472.704 473.014 473.375 473.379 473.685 473.94 474.147 474.127 474.279 474.225 474.258 474.168 474.159 474.166 474.162 474.132 474.234 474.208 474.18 474.146 473.95 474.076 474.006 473.868 473.894 473.591 473.45 472.946 472.706 473.033 473.018 473.07 472.835 472.847 472.243 471.699 471.444 471.189 470.52 470.085 469.913 469.709 469.117 468.922 468.666 468.341 468.225 468.02 467.87 467.591 467.466 467.232 466.98 466.745 466.599 466.363 466.011 465.78 465.597 465.452 465.24 465.062 464.974 464.735 464.544 464.444 464.425 464.385 464.264 464.291 464.079 464.006 463.818 463.638 463.571 463.525 463.442 463.378 463.209 463.234 463.027 463.135 462.945 463.049 462.871 462.84 462.706 462.722 462.846 462.68 462.706 462.712 462.453 462.461 462.237 461.62 461.243 460.97 460.575 460.583 461.06 461.367 461.624 461.367 461.489 461.417 461.574 461.508 462.258 462.421 462.639 462.989 462.976 463.222 463.309 463.277 463.505 463.177 463.05 463.189 463.916 464.463 464.913 465.573 465.552 465.698 465.855 465.794 466.13 466.179 466.307 466.482 466.67 466.728 466.801 466.827 467.276 467.289 467.435 467.094 466.247 465.45 464.792 465.917 467.162 467.865 468.41
399.708 400.255 400.645 401.158 401.493 401.91 402.553 402.958 403.7 404.74 405.848 406.91 407.855 408.408 408.585 408.765 409.18 409.433 409.79 410.22 410.89 411.71 412.265 412.723 413.18 413.625 414.188 414.615 414.975 415.313 415.678 416.018 416.345 416.64 417.043 417.393 417.818 418.23 418.578 418.968 419.413 419.903 420.155 420.52 420.885 421.365 421.663 422.115 422.51 422.935 423.47 423.998 424.67 425.28 425.783 426.213 426.753 427.24 427.518 427.653 428.028 428.487 428.723 429.012 429.372 429.976 430.771 431.516 432.252 432.669 433.138 433.544 433.83 434.12 434.349 434.725 434.928 435.132 435.452 435.833 435.972 436.251 436.431 436.718 436.888 437.238 437.43 437.713 437.916 438.075 438.269 438.569 438.727 438.958 439.025 439.154 439.368 439.639 440.113 440.606 440.965 441.221 441.507 441.902 442.324 442.484 442.698 442.919 443.304 443.611 443.874 444.217 444.711 444.936 445.314 445.692 445.968 446.324 446.589 446.93 447.203 447.692 448.117 448.284 448.647 448.991 449.373 449.527 449.814 450.083 450.372 450.73 451.031 451.377 451.704 452.101 452.537 452.942 453.303 453.642 454.101 454.58 454.784 455.106 455.367 455.645 455.873 456.202 456.39 456.66 456.964 457.179 457.454 457.63 457.951 458.314 458.289 458.665 458.983 459.237 459.589 460.007 460.311 460.607 460.928 461.306 461.526 461.726 462.079 462.332 462.713 462.91 463.287 463.61 463.882 464.104 464.407 464.518 464.716 464.845 464.93 465.346 465.614 465.818 466.024 466.408 466.816 467.425 467.774 467.77 467.976 468.134 468.17 468.21 468.301 468.239 468.287 468.399 468.531 468.635 468.76 468.696 468.85 468.944 469.025 469.124 469.131 469.093 469.118 469.206 469.153 469.047 468.963 468.925 468.772 468.93 468.93 468.883 468.969 469.136 469.486 469.726 469.91 469.854 470.211 470.256 470.597 470.94 471.217 471.528 471.685 471.961 471.998 472.412 472.366 472.8 473.038 473.324 473.478 473.673 473.686 473.805 473.868 473.893 474.088 474.093 474.131 474.14 474.198 474.159 474.204 474.046 473.998 474.05 473.912 473.759 473.373 473.287 473.119 472.903 472.134 472.377 472.573 472.513 472.487 472.288 471.671 471.011 470.643 470.488 470.137 469.779 469.402 468.916 468.675 468.549 468.324 468.136 467.917 467.798 467.566 467.447 467.225 466.992 466.78 466.707 466.432 466.289 466.017 465.592 465.457 465.323 465.073 464.922 464.815 464.67 464.543 464.37 464.374 464.384 464.223 464.081 464.023 463.84 463.82 463.638 463.614 463.527 463.371 463.342 463.23 463.246 463.225 463.09 462.865 462.802 462.779 462.661 462.513 462.385 462.583 462.412 462.488 462.518 462.23 462.293 462.132 461.917 461.411 460.839 460.707 460.432 461.029 461.174 461.154 461.296 461.292 461.323 461.299 461.461 461.885 462.031 462.21 462.477 462.499 462.878 462.861 462.925 462.951 462.522 462.616 462.879 463.935 464.558 464.75 465.071 465.378 465.592 465.702 465.838 465.958 466.06 466.157 466.345 466.305 466.488 466.537 466.66 466.844 466.883 466.376 465.452 464.71 464.541 465.837 466.292 467.266 467.842 468.203
399.355 399.683 400.165 400.635 401.153 401.79 402.315 403.153 404.025 404.985 406.193 407.04 407.49 408.038 408.358 408.663 408.998 409.183 409.433 409.693 410.343 411.315 412.105 412.63 413.045 413.488 413.898 414.343 414.71 415.065 415.418 415.85 416.13 416.438 416.823 417.213 417.608 418.103 418.425 418.813 419.31 419.66 420.07 420.51 420.81 421.198 421.53 421.89 422.235 422.635 423.195 423.615 424.238 424.868 425.468 425.893 426.465 426.865 427.178 427.523 427.928 428.218 428.633 428.978 429.373 429.865 430.413 431.185 431.777 432.342 432.815 433.255 433.578 433.954 434.246 434.489 434.671 434.956 435.302 435.48 435.673 436.035 436.353 436.509 436.805 437.098 437.27 437.431 437.737 437.923 437.936 438.123 438.242 438.578 438.781 439.263 439.518 439.736 439.996 440.371 440.813 441.159 441.509 441.87 442.117 442.328 442.547 442.793 443.177 443.426 443.826 444.145 444.447 444.726 445.12 445.458 445.768 446.025 446.352 446.654 447.029 447.415 447.81 448.074 448.504 448.776 449.01 449.32 449.556 449.977 450.327 450.496 450.697 451.203 451.475 451.796 452.248 452.833 453.122 453.533 453.927 454.351 454.638 454.758 455.06 455.406 455.771 455.884 456.146 456.53 456.811 457.18 457.78 457.497 457.785 457.913 458.056 458.59 459.032 459.162 459.476 459.802 460.099 460.342 460.746 460.958 461.243 461.627 461.901 462.191 462.454 462.672 462.986 463.242 463.622 463.862 464.176 464.402 464.431 464.69 464.821 465.111 465.338 465.624 465.852 466.317 466.795 466.971 467.373 467.503 467.713 467.876 467.973 468.015 468.058 468.029 468.074 468.183 468.325 468.462 468.495 468.532 468.594 468.682 468.702 468.743 468.798 468.809 468.696 468.77 468.744 468.625 468.661 468.58 468.518 468.504 468.37 468.54 468.392 468.448 468.564 468.58 468.867 469.104 469.283 469.739 470.09 470.247 470.731 471.084 471.247 471.371 471.558 471.806 472.402 472.459 472.954 473.027 473.123 472.992 473.083 473.341 473.587 473.605 473.55 473.841 473.891 473.949 473.937 473.816 473.969 473.895 473.837 473.626 473.438 473.182 472.844 472.847 472.738 472.546 471.865 471.536 471.689 471.877 471.803 471.404 470.692 470.463 469.986 469.715 469.528 469.504 469.008 468.713 468.489 468.254 468.145 467.903 467.773 467.446 467.484 467.261 467.104 466.764 466.545 466.309 466.141 465.841 465.453 465.209 465.167 465.085 464.91 464.876 464.69 464.483 464.472 464.394 464.335 464.148 464.061 463.978 463.852 463.793 463.647 463.624 463.419 463.434 463.333 463.195 463.142 463.064 463.088 462.964 462.788 462.876 462.7 462.677 462.505 462.441 462.356 462.591 462.449 462.201 462.1 462.014 461.841 461.737 461.349 460.889 460.434 459.881 460.792 461.004 460.987 461.048 461.197 461.175 461.267 461.4 461.605 461.791 461.934 462.164 462.278 462.52 462.422 462.569 462.689 461.902 462.415 462.922 464.117 464.461 464.68 464.894 465.202 465.204 465.418 465.42 465.642 465.741 465.774 465.866 465.984 466.275 466.012 466.235 466.406 466.255 465.725 464.498 464.324 464.889 465.478 467.055 467.272 467.698 467.892
398.643 399.218 399.878 400.435 401.163 402.033 402.81 403.703 404.503 405.058 405.65 406.263 407.095 407.515 408.003 408.42 408.853 409.14 409.395 409.64 410.065 410.848 411.708 412.425 412.855 413.32 413.63 414.023 414.515 414.87 415.333 415.645 416.065 416.338 416.695 417.095 417.458 417.865 418.258 418.68 419.14 419.618 419.928 420.18 420.503 420.888 421.185 421.638 422.063 422.385 422.788 423.263 423.748 424.383 424.985 425.52 426.043 426.565 427.025 427.455 427.813 428.203 428.587 428.958 429.501 429.952 430.272 430.846 431.499 432.057 432.562 433.054 433.429 433.685 433.987 434.212 434.406 434.651 434.939 435.195 435.464 435.695 436.07 436.311 436.465 436.815 437.047 437.277 437.407 437.629 437.895 437.999 438.338 438.514 438.859 439.204 439.444 439.721 440.019 440.35 440.691 440.918 441.221 441.576 441.691 441.931 442.268 442.526 442.742 443.197 443.499 443.866 444.208 444.45 444.868 445.221 445.476 445.828 446.11 446.721 446.978 447.266 447.607 447.916 448.213 448.563 448.941 449.19 449.555 449.779 449.957 450.227 450.531 450.791 451.124 451.593 452.061 452.375 452.784 453.252 453.583 453.932 454.33 454.509 454.822 455.127 455.404 455.778 456.069 456.5 456.876 456.834 457.228 457.412 457.674 457.754 457.968 458.406 458.766 459.121 459.361 459.578 459.862 460.256 460.493 460.68 461.006 461.41 461.736 462.045 462.333 462.595 462.777 463.067 463.357 463.636 464.001 464.151 464.245 464.469 464.69 464.891 465.16 465.426 465.665 466.292 466.591 466.822 467.117 467.416 467.61 467.747 467.668 467.699 467.831 467.81 467.858 468.04 468.125 468.185 468.314 468.336 468.354 468.354 468.482 468.442 468.51 468.548 468.513 468.442 468.471 468.46 468.398 468.374 468.214 468.153 467.886 467.91 467.98 468.12 468.161 468.27 468.451 468.788 469.007 469.338 469.815 470.112 470.415 470.753 471.015 471.049 471.207 471.565 471.831 472.111 472.044 472.122 472.184 472.402 472.281 472.518 472.652 472.59 473.052 473.097 473.524 473.5 473.527 473.571 473.456 473.557 473.447 473.298 472.834 472.798 472.43 472.23 472.003 471.95 471.165 470.881 470.771 470.53 470.358 470.362 470.179 469.871 469.638 469.471 469.369 469.199 468.758 468.57 468.359 468.134 467.856 467.651 467.448 467.169 466.968 466.68 466.623 466.422 466.183 466.089 465.855 465.551 465.282 465.123 465.089 465.043 464.809 464.686 464.636 464.471 464.485 464.309 464.192 464.13 464.046 463.875 463.794 463.734 463.663 463.639 463.462 463.357 463.375 463.201 463.238 463.174 463.01 463.001 462.885 462.676 462.699 462.44 462.3 462.316 462.366 462.398 462.153 462.007 461.803 461.687 461.707 461.615 460.85 460.472 460.198 460.175 460.797 460.982 460.919 460.983 461.118 461.01 460.863 461.307 461.42 461.67 461.813 461.783 462.044 462.123 462.19 461.907 461.558 461.768 462.273 463.469 463.704 463.924 464.255 464.585 464.819 464.637 464.873 465.026 465.306 465.503 465.674 465.772 465.904 465.901 465.591 466.2 465.655 465.323 464.519 463.925 464.479 465.058 465.304 466.686 467.08 467.416 467.651
398.653 399.268 399.913 400.515 401.58 402.288 402.928 403.383 403.928 404.58 405.288 406 406.573 407.258 407.775 408.26 408.723 409.16 409.528 409.388 409.535 410.288 411.373 412.043 412.61 413.08 413.508 413.868 414.295 414.675 415.118 415.57 415.858 416.235 416.535 416.933 417.268 417.678 418.115 418.435 418.988 419.328 419.648 419.963 420.27 420.588 420.975 421.28 421.685 422.145 422.51 422.848 423.398 423.953 424.568 425.228 425.748 426.283 426.838 427.275 427.755 428.16 428.405 428.99 429.66 430.058 430.23 430.536 431.088 431.653 432.163 432.496 432.81 433.266 433.575 433.825 434.145 434.485 434.862 435.069 435.273 435.68 435.792 435.987 436.238 436.623 436.96 437.139 437.235 437.349 437.666 437.734 438.03 438.459 438.915 439.145 439.395 439.748 439.918 440.101 440.492 440.634 440.926 441.117 441.415 441.736 441.948 442.358 442.727 443.037 443.476 443.701 443.937 444.305 444.775 445.043 445.462 445.783 446.135 446.351 446.66 447.146 447.441 447.697 448.017 448.456 448.722 448.92 449.219 449.492 449.784 450.02 450.262 450.634 451.037 451.353 451.85 452.362 452.589 452.991 453.187 453.638 453.912 454.256 454.562 454.849 455.229 455.464 455.829 456.758 457.439 456.574 456.969 457.082 457.351 457.522 458.001 458.296 458.598 458.889 459.163 459.503 459.719 460.016 460.273 460.588 460.894 461.272 461.573 461.84 462.126 462.446 462.625 462.837 463.139 463.419 463.705 463.851 464.103 464.327 464.456 464.777 464.806 465.24 465.681 466.08 466.417 466.673 466.845 467.185 467.354 467.522 467.583 467.515 467.593 467.631 467.694 467.785 467.956 468.035 468.15 468.078 468.076 468.09 468.143 468.29 468.31 468.399 468.346 468.327 468.347 468.388 468.368 468.324 468.226 468.041 467.895 467.786 467.843 467.874 467.939 468.04 468.224 468.321 468.723 468.982 469.266 469.433 469.65 469.99 470.357 470.541 470.855 471.243 471.189 471.431 471.516 471.647 471.643 471.81 471.758 471.835 472.268 472.143 472.561 472.771 472.721 472.837 472.64 473.116 472.745 472.91 473.076 472.817 471.894 472.041 471.72 471.387 471.108 470.917 470.735 470.251 470.344 470.263 470.033 469.932 469.811 469.482 469.381 469.331 469.121 468.756 468.472 468.139 467.921 467.69 467.46 467.236 467.125 466.924 466.648 466.589 466.423 466.15 465.923 465.875 465.681 465.354 465.111 464.999 464.952 464.914 464.749 464.688 464.645 464.616 464.377 464.256 464.223 464.091 463.934 463.872 463.751 463.557 463.639 463.485 463.434 463.371 463.404 463.511 463.452 463.336 462.983 462.942 462.747 462.495 462.357 462.2 462.202 462.251 462.348 462.409 462.446 462.208 461.98 461.615 461.148 461.252 460.447 460.319 460.162 460.17 460.59 460.836 460.72 460.945 460.75 460.835 460.611 460.819 461.115 461.38 461.465 461.736 461.719 461.754 461.807 461.729 461.299 461.561 462.395 462.871 463.502 463.447 463.7 464.05 464.005 463.991 464.108 464.545 464.8 464.996 465.279 465.376 465.722 465.23 465.537 465.693 465.116 464.276 463.708 464.094 465.294 465.058 465.832 466.456 467.064 467.224 467.297
398.875 399.678 400.165 400.825 401.308 401.783 402.323 402.938 403.528 404.195 404.778 405.558 406.31 406.9 407.58 408.08 408.518 409.035 409.265 409.19 409.365 410.19 411.23 411.935 412.593 413.04 413.43 413.78 414.203 414.495 414.898 415.333 415.708 416.073 416.405 416.778 417.203 417.57 417.93 418.285 418.733 419.055 419.408 419.758 420.075 420.378 420.683 421.043 421.368 421.753 422.215 422.575 423.008 423.6 424.165 424.773 425.358 426.028 426.52 427.025 427.543 427.898 428.373 429.008 429.567 429.998 430.239 430.494 430.841 431.288 431.669 432.078 432.385 432.812 433.323 433.708 433.948 434.322 434.523 434.794 435.066 435.277 435.47 435.793 435.905 436.034 436.249 436.472 436.593 436.81 437.19 437.714 438.078 438.417 438.755 438.958 439.311 439.679 439.695 439.996 440.001 440.205 440.531 440.831 440.947 441.398 441.918 442.164 442.704 442.882 443.084 443.435 443.744 444.122 444.427 444.811 445.192 445.729 446.008 446.168 446.583 446.822 447.152 447.438 447.836 448.067 448.542 448.774 449.081 449.282 449.564 449.814 450.265 450.71 450.906 451.328 451.642 452.007 452.417 452.676 452.963 453.323 453.61 453.766 454.255 454.629 455.014 455.65 456.487 456.044 456.238 456.43 456.691 456.86 457.215 457.512 457.845 458.237 458.522 458.763 459.069 459.217 459.569 459.843 460.196 460.456 460.811 461.137 461.459 461.695 461.977 462.215 462.43 462.766 463.01 463.218 463.391 463.675 463.893 463.991 464.173 464.349 464.629 465.116 465.548 465.892 466.19 466.435 466.613 466.771 467.141 467.577 467.408 467.421 467.497 467.555 467.638 467.578 467.741 467.806 467.803 467.841 467.824 467.892 467.996 468.09 468.141 468.253 468.165 468.248 468.358 468.292 468.371 468.225 468.122 467.998 467.84 467.717 467.586 467.632 467.751 467.823 467.972 468.197 468.495 468.651 468.893 469.162 469.255 469.746 470.008 470.156 470.733 470.899 471.028 471.194 471.161 471.314 471.228 471.402 471.263 471.115 471.316 471.454 471.385 471.524 470.893 471.433 471.39 470.673 470.895 471.126 470.882 470.763 471.199 471.155 470.787 470.643 470.434 470.237 470.056 469.915 469.958 469.903 469.776 469.661 469.484 469.321 469.193 468.941 468.716 468.494 468.213 467.85 467.572 467.525 467.133 467.074 467.02 466.709 466.425 466.224 465.858 465.77 465.533 465.394 465.14 465.062 465.043 465.005 464.857 464.805 464.733 464.709 464.64 464.496 464.387 464.234 464.073 463.987 463.838 463.704 463.605 463.57 463.482 463.429 463.466 463.443 463.429 463.659 463.472 463.317 463.126 463.069 462.747 462.683 462.301 462.12 462.039 462.067 462.31 462.279 462.31 462.267 462.352 461.756 461.046 460.335 460.099 460.187 459.987 460.144 460.491 460.703 460.617 460.611 460.475 460.539 460.571 460.702 460.933 461.247 461.325 461.401 461.521 461.539 461.783 461.453 461.098 461.148 462.03 462.702 463.041 463.053 463.066 463.251 463.521 463.978 464.202 464.281 464.509 464.558 464.665 464.897 464.859 464.934 465.323 465.309 464.518 463.462 463.83 464.993 465.519 465.346 466.31 466.297 466.839 467.107 467.036
398.96 399.645 399.968 400.553 401.05 401.533 402.043 402.555 403.095 403.663 404.343 405.1 405.848 406.618 407.173 407.738 408.238 408.805 409.208 409.435 409.675 410.443 411.2 411.87 412.413 412.9 413.3 413.733 414.093 414.395 414.713 415.138 415.55 415.883 416.248 416.62 417.073 417.445 417.803 418.13 418.468 418.828 419.25 419.64 419.888 420.163 420.413 420.768 421.093 421.503 421.958 422.308 422.813 423.305 423.793 424.31 425.048 425.753 426.24 426.723 427.315 427.785 428.345 428.858 429.325 429.752 430.137 430.446 430.726 430.993 431.27 431.482 431.788 432.353 432.762 433.301 433.752 433.997 434.147 434.122 434.407 434.599 434.935 435.368 435.358 435.25 435.501 435.91 436.407 436.61 436.976 437.681 437.938 438.293 438.69 438.898 439.172 439.503 439.412 439.337 439.239 439.721 439.839 439.977 440.044 440.972 441.399 441.744 442.295 442.702 442.974 443.158 443.609 443.844 444.254 444.739 445.106 445.503 445.804 446.133 446.411 446.712 446.897 447.2 447.608 447.934 448.191 448.456 448.958 449.104 449.4 449.716 450.194 450.433 450.691 451.12 451.498 451.749 452.064 452.386 452.736 452.969 453.239 453.687 454.144 454.61 455.069 455.391 455.431 455.641 456.039 456.122 456.309 456.665 457.103 457.452 457.698 458.024 458.293 458.693 458.926 459.172 459.546 459.816 460.103 460.333 460.618 461.007 461.212 461.481 461.693 462.008 462.244 462.595 462.792 462.986 463.228 463.459 463.532 463.597 463.882 464.084 464.574 464.9 465.305 465.662 465.961 466.13 466.278 466.572 466.816 467.507 467.423 467.283 467.343 467.518 467.392 467.467 467.504 467.549 467.608 467.626 467.653 467.72 467.833 468.004 468.153 468.189 468.218 468.191 468.16 468.306 468.416 468.245 467.96 467.794 467.771 467.766 467.593 467.519 467.615 467.691 467.923 468.099 468.199 468.475 468.813 468.973 469.238 469.479 469.826 470.017 470.253 470.432 470.633 470.834 470.594 470.549 470.783 470.779 470.561 470.547 470.447 470.714 470.458 470.391 470.624 470.514 470.174 469.999 470.026 469.925 470.088 469.88 469.81 470.123 469.936 469.805 469.647 469.838 469.671 469.706 469.766 469.7 469.492 469.476 469.396 469.078 468.832 468.633 468.313 468.01 467.678 467.366 467.098 466.827 466.611 466.348 466.202 466.282 466.039 465.64 465.372 465.413 465.26 465.161 465.063 465.023 464.937 464.897 464.848 464.732 464.657 464.608 464.491 464.4 464.273 464.224 463.977 463.889 463.785 463.735 463.529 463.542 463.403 463.421 463.45 463.554 463.345 463.42 463.256 463.302 463.108 462.916 462.648 462.192 462.084 461.924 461.798 461.839 462.02 462.107 462.263 462.187 462.236 461.867 461.369 460.299 459.964 459.968 460.083 459.948 460.457 460.554 460.427 460.501 460.507 460.31 460.382 460.614 460.546 460.863 461.088 461.192 461.215 461.286 461.105 461.248 460.842 460.898 461.628 462.222 462.572 462.773 462.81 463.251 463.547 463.819 463.902 464.01 464.125 464.267 464.71 464.678 464.819 464.948 465.171 464.79 464.124 462.958 464.254 465.187 465.789 465.974 466.259 466.171 466.378 466.587 466.62
398.468 399.21 399.755 400.328 400.78 401.138 401.698 402.145 402.74 403.358 404.088 404.833 405.46 406.143 406.728 407.46 408.08 408.72 409.158 409.555 409.965 410.535 411.2 411.773 412.245 412.788 413.183 413.61 413.888 414.25 414.568 415.035 415.35 415.793 416.155 416.56 416.94 417.283 417.65 417.98 418.303 418.633 419.023 419.375 419.613 419.903 420.22 420.55 420.97 421.325 421.703 422.103 422.538 423.018 423.42 423.943 424.68 425.395 425.845 426.445 427.138 427.628 428.09 428.54 428.93 429.388 429.822 430.168 430.526 430.715 430.908 431.081 431.398 431.869 432.498 432.992 433.32 433.732 433.922 433.785 433.832 434.073 434.654 434.824 434.902 434.735 435.134 435.734 436.135 436.733 437.213 437.456 437.742 438.151 438.527 438.653 438.93 439.175 438.569 438.316 438.318 439.03 439.138 438.952 439.456 440.284 441.331 441.609 442.018 442.473 442.787 443.046 443.431 443.842 444.245 444.574 444.912 445.213 445.546 445.91 446.299 446.503 446.72 447.082 447.386 447.648 447.981 448.264 448.639 448.929 449.1 449.555 449.867 450.212 450.673 450.821 451.24 451.587 451.84 452.142 452.355 452.788 452.999 453.626 454.175 454.461 454.725 454.85 454.981 455.313 455.591 455.792 456.262 456.668 456.948 457.173 457.531 457.853 458.138 458.411 458.666 458.99 459.429 459.744 459.97 460.198 460.473 460.825 461.067 461.315 461.629 461.927 462.086 462.305 462.665 462.802 463.06 463.149 463.271 463.446 463.636 463.863 464.235 464.71 465.115 465.435 465.685 465.981 466.204 466.442 466.76 467.02 467.296 467.121 467.247 467.267 467.294 467.301 467.308 467.355 467.431 467.437 467.538 467.717 467.9 468.047 468.209 468.302 468.278 468.153 468.07 468.13 468.322 468.318 468.197 467.757 467.697 467.697 467.516 467.438 467.53 467.74 467.881 468.058 468.051 468.136 468.398 468.435 468.594 468.797 469.013 469.384 469.661 469.626 469.856 469.854 470.033 470.183 470.279 470.249 470.156 470.181 470.088 470.038 470.023 469.872 469.932 469.726 469.534 469.363 469.262 469.154 469.1 469.316 469.339 469.358 469.265 469.431 469.451 469.54 469.441 469.457 469.554 469.463 469.214 469.28 468.956 468.805 468.527 468.158 467.887 467.401 467.142 466.821 466.738 466.546 466.346 466.111 466.061 465.983 465.661 465.352 465.251 465.19 465.067 465.02 464.963 464.915 464.799 464.857 464.833 464.897 464.748 464.679 464.59 464.538 464.347 464.274 464.159 463.951 463.708 463.445 463.449 463.396 463.301 463.241 463.12 463.209 462.982 462.935 462.942 462.951 462.628 462.51 462.311 462.234 461.908 461.85 461.648 461.832 461.901 462.093 462.409 462.183 462.163 461.96 461.471 460.473 459.714 459.619 459.746 460.08 460.294 460.199 460.157 460.343 459.995 460.04 460.026 460.033 460.254 460.329 460.686 460.904 461.099 461.069 460.941 460.948 460.637 460.436 461.263 462.111 462.395 462.487 462.701 463.069 463.317 463.371 463.457 463.743 463.739 463.747 463.912 464.342 464.446 464.5 464.362 463.981 462.847 462.867 464.064 465.294 465.515 465.586 465.915 466.029 466.204 466.278 466.414
398.088 398.875 399.543 400.045 400.425 400.868 401.463 401.875 402.445 403.163 403.875 404.615 405.175 405.87 406.405 407.195 407.823 408.413 409.053 409.57 409.84 410.198 410.905 411.423 412.078 412.618 413.04 413.443 413.743 414.098 414.405 414.833 415.245 415.66 415.973 416.398 416.71 417.108 417.473 417.813 418.108 418.4 418.713 419.055 419.36 419.655 420.005 420.388 420.76 421.108 421.468 421.88 422.208 422.66 423.07 423.52 424.225 424.935 425.523 426.245 426.895 427.303 427.735 428.205 428.65 429.007 429.327 429.569 430.197 430.499 430.706 430.861 431.071 431.639 432.295 432.803 433.035 433.261 433.321 433.015 432.952 433.118 433.605 433.443 433.265 433.821 435.147 435.665 436.414 436.81 437.049 437.262 437.704 438.049 438.405 438.637 438.826 438.949 438.607 438.209 438.316 438.817 438.725 438.567 438.93 440.035 440.52 441.207 441.91 442.323 442.658 443.019 443.377 443.704 444.046 444.387 444.713 445.047 445.379 445.757 446.021 446.23 446.682 446.95 447.255 447.427 447.753 448.132 448.559 448.738 448.996 449.489 449.783 450.154 450.405 450.689 451.005 451.295 451.546 451.797 452.174 452.481 452.965 453.407 453.82 454.015 454.208 454.476 454.838 455.156 455.432 455.744 456.051 456.451 456.704 457.043 457.328 457.686 457.987 458.215 458.436 458.854 459.172 459.498 459.71 460.071 460.312 460.535 460.891 461.086 461.44 461.769 461.997 462.211 462.456 462.663 462.8 462.904 463.108 463.313 463.508 463.694 463.998 464.398 464.784 465.281 465.578 465.84 466.18 466.419 466.622 466.613 466.777 467.27 466.968 467.113 467.143 467.088 467.233 467.266 467.266 467.318 467.568 467.728 467.947 468.087 468.191 468.248 468.262 468.233 468.161 467.985 468.205 468.118 468.118 467.685 467.58 467.952 467.86 467.626 467.546 467.72 467.802 467.871 468.069 468.219 468.151 468.345 468.45 468.523 468.9 468.925 469.207 469.176 469.458 469.621 469.828 469.797 469.592 469.548 469.625 469.531 469.465 469.41 469.257 469.164 469.166 469.12 468.974 468.96 468.773 468.964 468.909 468.993 468.937 468.896 469 469.074 469.245 469.284 469.137 469.071 469.112 469.012 468.954 468.738 468.515 468.588 468.171 467.888 467.526 467.227 466.826 466.534 466.546 466.286 465.956 465.782 465.67 465.333 465.16 465.108 464.976 465.022 464.857 464.921 464.861 464.886 464.895 464.928 464.894 464.9 464.904 464.738 464.65 464.528 464.352 464.203 463.907 463.739 463.566 463.435 463.269 463.173 463.05 462.962 462.915 462.827 462.773 462.49 462.722 462.68 462.59 462.525 462.149 462.022 462.079 461.687 461.681 461.551 461.809 461.989 462.029 462.02 462.038 461.953 461.341 461.022 459.04 459.443 459.554 459.913 459.865 459.862 459.952 459.833 459.743 459.662 459.678 459.893 459.923 460.024 460.575 460.852 460.868 460.935 460.74 460.551 460.068 460.299 461.222 461.801 462.093 462.215 462.464 462.616 462.895 462.718 462.799 462.915 463.268 463.603 464.031 464.027 464.106 463.942 463.915 463.34 462.577 462.53 464.441 464.933 465.158 465.291 465.582 465.609 465.72 465.972 466.1
397.85 398.58 399.155 399.8 400 400.723 401.223 401.518 402.043 402.778 403.5 404.23 404.863 405.528 406.32 407.06 407.663 408.255 408.85 409.273 409.285 409.565 410.28 411.085 411.885 412.485 412.848 413.313 413.648 413.988 414.283 414.693 415.06 415.453 415.773 416.125 416.538 416.918 417.26 417.543 417.875 418.283 418.565 418.855 419.143 419.538 419.88 420.198 420.563 420.938 421.288 421.603 421.925 422.33 422.815 423.228 423.833 424.563 425.28 425.95 426.45 426.903 427.295 427.735 428.07 428.345 428.762 429.247 429.785 430.23 430.508 430.792 431.044 431.398 432.03 432.279 432.362 432.495 432.5 432.427 432.391 432.906 433.228 433.281 433.316 434.006 435.093 435.945 436.337 436.655 436.974 437.303 437.616 437.962 438.241 438.421 438.779 438.869 439.071 438.929 438.843 438.979 438.586 438.286 438.67 439.602 440.347 441.19 441.645 442.101 442.434 442.702 443.191 443.663 443.846 444.251 444.667 444.919 445.224 445.524 445.835 446.193 446.478 446.797 446.938 447.124 447.437 447.973 448.287 448.579 448.791 449.077 449.554 449.846 450.245 450.52 450.826 451.046 451.363 451.568 451.844 452.631 453.338 452.92 453.316 453.599 453.978 454.35 454.754 455.08 455.369 455.529 456.026 456.269 456.543 456.871 457.152 457.468 457.732 458.06 458.32 458.714 458.986 459.157 459.527 459.839 460.045 460.315 460.633 460.931 461.214 461.553 461.816 462.042 462.148 462.363 462.508 462.776 462.938 463.119 463.311 463.583 463.758 464.135 464.593 465.008 465.485 465.679 466.088 466.308 466.449 466.444 466.553 466.725 466.719 467.027 467.177 467.126 467.194 467.217 466.982 467.367 467.599 467.632 467.876 468.089 468.237 468.277 468.259 468.272 468.249 468.158 468.274 468.055 467.779 467.755 467.543 467.516 467.441 467.108 467.448 467.649 467.727 467.906 467.873 467.961 468.215 468.29 468.473 468.467 468.572 468.652 468.654 468.814 468.964 469.172 469.204 469.29 469.324 469.455 469.472 469.416 469.37 469.14 469.061 468.987 468.866 468.798 468.696 468.613 468.478 468.573 468.547 468.497 468.549 468.562 468.678 468.75 468.895 468.977 468.876 468.761 468.716 468.628 468.456 468.214 468.108 467.845 467.823 467.397 466.967 466.421 466.359 465.92 465.607 465.551 465.537 465.416 465.251 465.164 465.066 464.932 464.898 464.778 464.845 464.899 464.849 464.847 464.92 464.952 464.921 464.848 464.764 464.746 464.53 464.444 464.38 464.063 463.947 463.78 463.567 463.226 463.254 462.989 462.84 462.797 462.74 462.673 462.545 462.456 462.332 462.487 462.387 462.321 462.161 461.947 461.809 461.764 461.519 461.454 461.681 461.774 461.892 461.944 461.99 461.875 461.711 460.426 459.203 459.272 459.36 459.436 459.468 459.306 459.518 459.089 458.82 458.924 459.161 459.224 459.375 459.503 459.832 460.268 460.218 460.211 460.214 460.13 460.202 460.291 461.065 461.597 461.796 461.802 462.135 462.206 462.201 462.513 462.858 462.984 463.368 463.634 463.779 463.862 463.905 463.481 463.226 462.314 461.732 462.597 463.492 464.907 464.854 465.003 465.211 465.233 465.559 465.653 465.849
397.445 398.105 398.835 399.418 399.82 400.455 400.86 401.08 401.695 402.448 403.155 403.935 404.565 405.283 405.968 406.838 407.443 408 408.64 409.03 408.943 409.158 409.975 410.78 411.55 412.18 412.653 413.133 413.49 413.818 414.188 414.568 414.888 415.238 415.565 415.93 416.32 416.558 416.94 417.275 417.7 418.04 418.335 418.628 418.978 419.325 419.71 420.02 420.333 420.688 421.028 421.373 421.665 422.108 422.588 423.005 423.538 424.303 424.953 425.475 426.005 426.498 426.875 427.268 427.343 427.213 427.92 428.768 429.332 429.974 430.397 430.733 431.043 431.297 431.508 431.761 431.858 431.97 431.948 431.961 432.188 432.388 432.601 433.029 433.199 434.398 435.252 435.812 436.147 436.558 436.768 437.134 437.49 437.795 438.082 438.308 438.697 438.881 439.054 439.125 439.103 439.147 438.822 438.648 438.565 439.436 440.222 440.914 441.55 441.985 442.327 442.704 443.185 443.499 443.79 444.031 444.41 444.737 445.078 445.259 445.503 446.019 446.272 446.533 446.743 447.142 447.46 447.772 448.001 448.357 448.712 449.156 449.372 449.733 450.066 450.514 450.602 450.915 451.134 451.67 451.848 451.994 452.296 452.615 452.966 453.438 453.865 454.212 454.379 454.74 455.2 455.551 455.781 456.086 456.319 456.827 456.996 457.242 457.536 457.919 458.21 458.493 458.674 458.968 459.309 459.586 459.856 460.145 460.442 460.75 461.131 461.234 461.43 461.747 461.995 462.162 462.319 462.565 462.688 462.796 462.966 463.08 463.414 463.879 464.12 464.573 465.177 465.648 465.979 466.133 466.362 466.412 466.415 466.537 466.834 467.064 467.153 467.15 467.194 467.219 467.224 467.51 467.684 467.884 468.021 468.117 468.241 468.299 468.26 468.278 468.31 468.146 468.102 467.994 467.912 467.801 467.686 467.627 467.384 466.57 467.475 467.502 467.722 467.736 467.772 467.874 467.964 468.154 468.223 468.364 468.426 468.608 468.736 468.873 468.813 468.973 469.121 469.139 469.303 469.413 469.332 469.232 468.974 468.866 468.725 468.633 468.495 468.485 468.308 468.258 468.222 468.205 468.159 468.122 468.274 468.243 468.364 468.335 468.541 468.553 468.537 468.201 468.022 467.894 467.735 467.709 467.451 467.458 467.136 466.568 466.466 465.999 465.666 465.537 465.488 465.417 465.37 465.258 465.117 465.101 464.94 464.838 464.831 464.813 464.83 464.82 464.751 464.759 464.815 464.897 464.833 464.775 464.676 464.511 464.433 464.395 464.338 464.013 463.868 463.603 463.392 463.195 463.011 462.843 462.695 462.562 462.524 462.427 462.465 462.43 462.317 462.122 462.076 462.01 461.996 462.071 461.929 461.769 461.477 461.332 461.581 461.678 461.937 461.879 461.897 461.853 461.694 461.694 460.856 460.032 459.671 459.148 459.096 459.141 459.204 458.893 458.683 458.495 458.205 458.645 459.135 459.26 459.36 459.653 459.829 459.913 459.966 459.975 459.888 460.526 461.001 461.484 461.398 461.682 461.553 461.946 461.785 462.555 462.721 462.802 463.084 463.166 463.337 463.398 463.203 462.697 462.255 460.996 461.81 463.154 464.305 464.447 464.667 464.832 464.952 465.166 465.284 465.384 465.385
397.153 397.758 398.518 399.088 399.568 400.08 400.55 400.753 401.448 402.138 402.97 403.753 404.46 404.973 405.675 406.49 407.18 407.743 408.295 408.783 408.878 409.088 409.82 410.685 411.41 411.9 412.413 412.905 413.273 413.63 414.023 414.343 414.685 414.99 415.313 415.625 415.998 416.318 416.66 417.028 417.45 417.808 418.155 418.478 418.748 419.103 419.468 419.788 420.125 420.495 420.798 421.105 421.475 421.863 422.353 422.81 423.303 423.935 424.495 425.07 425.685 426.173 426.593 426.843 426.645 426.645 427.42 428.44 429.197 429.815 430.237 430.627 430.93 431.071 431.051 430.993 431.169 431.361 431.597 431.851 431.976 432.138 432.487 432.986 433.567 434.108 434.677 435.166 435.81 436.353 436.68 437.121 437.405 437.74 437.987 438.202 438.542 438.745 438.916 439.218 439.487 439.382 439.17 439.051 439.143 439.541 440.166 440.973 441.311 441.939 442.19 442.548 442.861 443.209 443.608 443.831 444.183 444.522 444.873 445.216 445.53 445.796 446.128 446.433 446.653 446.926 447.288 447.635 447.992 448.25 448.522 448.921 449.206 449.393 449.753 450.009 450.425 451.014 451.069 451.248 451.383 451.662 452.089 452.434 452.775 453.328 453.684 453.891 454.253 454.669 455.034 455.354 455.636 455.851 456.192 456.619 456.787 457.029 457.442 457.853 458.031 458.233 458.508 458.819 459.101 459.395 459.524 459.835 460.219 460.393 460.779 460.958 461.245 461.54 461.687 461.875 462.117 462.348 462.519 462.585 462.617 462.783 463.039 463.412 463.615 464.268 464.698 465.177 465.566 466.064 466.294 466.426 466.557 466.794 466.767 467.043 467.229 467.138 467.213 467.358 467.55 467.739 467.838 467.926 467.987 468.143 468.297 468.312 468.109 468.181 468.174 468.196 468.029 467.913 467.915 467.909 467.824 467.72 467.559 467.523 467.704 467.64 467.583 467.627 467.791 467.874 467.962 468.103 468.181 468.205 468.347 468.511 468.651 468.765 468.765 468.848 469.001 468.9 468.931 468.932 469.032 468.806 468.645 468.618 468.334 468.25 468.173 468.243 468.126 467.962 467.951 467.959 467.765 467.717 467.941 468.016 468.032 468.011 467.953 467.867 467.995 467.564 467.291 467.079 467.082 466.854 466.864 466.803 466.175 466.165 465.914 465.414 465.157 465.069 465.114 465.124 465.032 464.98 464.987 464.939 464.869 464.788 464.749 464.677 464.671 464.676 464.629 464.637 464.53 464.641 464.574 464.637 464.506 464.425 464.262 464.209 464.028 463.952 463.679 463.422 463.314 463.174 462.966 462.607 462.618 462.444 462.339 462.394 462.447 462.614 462.447 462.42 462.179 462.137 461.816 461.9 461.962 461.813 461.342 461.151 461.281 461.573 461.536 461.685 461.707 461.712 461.591 461.456 461.12 460.849 459.95 459.016 458.74 458.904 458.901 458.904 458.709 458.285 457.917 457.92 458.409 459.187 458.851 458.757 459.339 459.651 459.686 459.607 460.017 460.521 461.237 461.096 461.421 461.321 461.314 461.15 461.873 462.288 462.481 462.59 462.614 462.78 463.17 462.693 462.829 461.893 461.51 461.627 462.247 463.057 463.821 464.266 464.499 464.553 464.829 464.848 464.925 465.087 465.138
397.105 397.603 398.125 398.703 399.16 399.705 400.155 400.635 401.31 401.923 402.713 403.55 404.233 404.703 405.248 405.97 406.73 407.498 408.095 408.715 408.998 409.215 409.67 410.51 411.058 411.558 412.05 412.55 412.995 413.353 413.705 414.093 414.455 414.813 415.083 415.36 415.77 416.123 416.453 416.848 417.2 417.51 417.868 418.203 418.518 418.898 419.253 419.495 419.845 420.138 420.488 420.908 421.233 421.585 422.038 422.575 423.068 423.628 424.24 424.67 425.295 425.853 426.26 426.235 426.345 426.488 427.25 428.245 428.963 429.481 429.894 430.175 430.429 430.57 430.604 430.852 431.064 431.322 431.609 432.101 432.277 432.396 432.775 433.01 433.627 433.951 434.282 435.138 435.632 436.252 436.649 436.901 437.153 437.346 437.683 437.981 438.3 438.61 438.77 438.945 439.18 439.176 439.099 438.935 438.94 439.479 440.018 440.773 441.254 441.93 442.147 442.515 442.767 443.002 443.351 443.724 444.005 444.315 444.794 445.036 445.266 445.598 446.008 446.277 446.502 446.772 447.1 447.287 447.6 448.081 448.328 448.641 448.971 449.232 449.769 449.769 450.195 450.676 450.771 451.119 451.268 451.527 451.96 452.278 452.603 452.938 453.406 453.771 454.007 454.434 454.791 454.921 455.378 455.658 456.053 456.334 456.617 456.869 457.173 457.549 457.749 457.986 458.319 458.681 458.92 459.123 459.48 459.677 459.934 460.271 460.493 460.813 460.951 461.15 461.422 461.602 461.971 462.146 462.317 462.371 462.405 462.441 462.854 462.973 463.218 463.803 464.169 464.858 465.552 466.073 466.433 466.511 466.681 466.815 466.891 466.888 467.487 467.137 467.155 467.348 467.473 467.701 467.735 467.843 467.973 468.078 468.187 468.203 468.117 468.046 468 468.203 468.009 467.992 467.762 467.642 467.732 467.674 467.611 467.518 467.592 467.631 467.629 467.617 467.691 467.84 467.866 467.928 468.086 468.272 468.322 468.421 468.458 468.56 468.566 468.522 468.431 468.568 468.483 468.634 468.634 468.576 468.46 468.096 468.153 468.04 467.852 467.878 467.654 467.578 467.595 467.535 467.473 467.299 467.308 467.284 467.145 467.073 467.063 467.241 467.181 466.913 466.6 466.514 466.183 466.108 465.898 465.616 465.449 464.987 464.621 464.489 464.64 464.794 464.863 464.926 464.999 464.985 464.906 465.026 464.922 464.801 464.714 464.596 464.537 464.448 464.521 464.427 464.356 464.377 464.447 464.474 464.28 464.31 464.165 463.959 463.863 463.693 463.537 463.381 463.113 463.088 463.11 462.689 462.617 462.433 462.332 462.36 462.315 462.3 462.329 462.382 462.18 462.085 461.775 461.761 461.791 461.677 461.467 461.123 461.113 461.226 461.504 461.592 461.554 461.54 461.398 461.376 461.139 461.005 460.416 458.936 458.595 458.441 458.54 458.458 458.254 458.3 458.288 457.878 457.82 457.834 458.392 458.364 458.786 458.988 458.78 459.11 460.034 460.428 460.796 460.948 461.25 461.256 461.066 461.199 461.768 461.937 462.203 462.294 462.483 462.414 462.685 462.089 461.51 461.228 460.792 461.228 462.623 463.232 463.953 464.105 464.177 464.294 464.713 464.706 464.851 464.887 464.986
396.7 397.255 397.69 398.323 398.948 399.39 399.86 400.44 400.915 401.59 402.348 403.11 403.948 404.44 404.82 405.703 406.62 407.353 407.788 408.403 408.903 409.213 409.528 410.183 410.805 411.228 411.715 412.27 412.713 413.088 413.433 413.875 414.188 414.555 414.81 415.165 415.48 415.863 416.19 416.58 416.97 417.233 417.59 417.945 418.318 418.635 418.928 419.245 419.52 419.82 420.205 420.593 420.96 421.423 421.823 422.318 422.785 423.32 423.923 424.33 424.958 425.478 425.563 425.713 425.99 426.41 427.128 427.95 428.622 429.068 429.306 429.442 429.622 430.005 430.65 431.128 431.52 431.896 432.161 432.503 432.626 432.955 433.111 433.49 433.783 433.915 434.156 434.866 435.416 435.936 436.331 436.649 437.035 437.224 437.5 437.813 438.064 438.409 438.683 438.94 439.078 439.145 438.894 438.76 438.757 439.354 440.12 440.795 441.276 441.638 441.907 442.23 442.513 442.857 443.12 443.347 443.675 444.033 444.526 444.799 445.206 445.454 445.719 446.119 446.368 446.604 446.937 447.289 447.521 447.93 448.22 448.496 448.842 449.415 450.438 450.069 449.992 450.234 450.52 450.837 451.123 451.584 451.829 452.151 452.349 452.767 453.182 453.544 453.779 454.177 454.547 454.777 455.143 455.388 455.826 456.091 456.499 456.766 456.959 457.396 457.608 457.818 458.066 458.33 458.722 458.967 459.238 459.478 459.735 459.928 460.253 460.464 460.784 460.989 461.195 461.475 461.796 461.858 462.046 462.036 462.116 462.167 462.441 462.599 462.868 463.3 463.685 464.848 465.609 466.139 466.365 466.467 466.632 466.811 466.891 466.794 466.968 467.176 467.461 467.284 467.518 467.663 467.687 467.776 468.084 468.094 468.124 468.113 468.106 468 467.915 467.968 467.847 467.836 467.736 467.623 467.583 467.597 467.64 467.503 467.532 467.618 467.508 467.688 467.65 467.767 467.853 467.873 468.08 467.983 467.989 468.192 468.258 468.34 468.282 468.116 468.181 467.991 468.225 468.231 468.214 468.22 468.142 467.834 467.572 467.549 467.32 467.168 467.33 467.013 466.951 466.874 466.85 466.639 466.467 466.337 466.641 466.617 466.69 466.612 466.326 465.95 466.038 465.441 465.332 465.122 464.838 464.487 464.61 464.576 464.393 464.547 464.607 464.764 464.853 464.965 465.009 464.943 465.029 464.949 464.981 464.778 464.741 464.59 464.383 464.309 464.412 464.238 464.204 464.187 464.255 464.278 464.206 464.034 464.034 463.806 463.754 463.426 463.248 463.096 463.035 462.991 462.797 462.605 462.522 462.343 462.246 462.172 462.366 462.339 462.175 462.097 462.126 462.024 461.87 461.521 461.386 461.603 461.646 461.179 461.101 461.001 461.16 461.429 461.416 461.422 461.101 461.103 460.932 460.793 460.63 459.716 459.013 458.613 458.324 458.357 458.187 458.061 458.046 457.812 457.58 457.61 458.04 458.158 458.624 458.641 458.781 459.391 460.261 460.376 460.544 460.724 460.894 461.131 461.353 460.975 461.338 461.682 461.898 461.808 461.945 462.052 461.806 460.715 460.557 460.349 461.067 462.129 462.714 463.23 463.652 463.75 463.96 464.103 464.297 464.521 464.563 464.66 464.698
396.27 396.805 397.438 398.04 398.61 399.208 399.798 400.213 400.668 401.358 402.003 402.753 403.568 404.275 404.923 405.668 406.413 407.093 407.533 408.08 408.633 409.045 409.34 409.598 410.29 410.863 411.413 411.863 412.313 412.87 413.183 413.618 413.968 414.375 414.575 414.873 415.203 415.528 415.905 416.285 416.66 417.015 417.385 417.72 418.055 418.375 418.638 418.893 419.15 419.475 419.858 420.223 420.673 421.145 421.653 422.103 422.54 422.93 423.345 423.813 424.363 424.835 425.115 425.323 425.715 426.345 427.068 427.668 428.13 428.344 428.446 428.834 429.427 430.184 430.875 431.366 431.783 432.125 432.33 432.546 432.819 432.936 433.341 433.61 433.864 434.069 434.363 434.823 435.361 435.614 435.975 436.454 436.833 437.071 437.475 437.768 437.972 438.257 438.546 438.745 438.839 439.071 438.803 438.653 438.723 439.122 439.766 440.595 441.124 441.421 441.794 441.997 442.263 442.554 442.963 443.248 443.578 444.056 444.353 444.818 444.99 445.314 445.54 445.884 446.212 446.586 446.809 447.152 447.413 447.621 447.734 448.086 448.677 450.012 449.298 449.559 449.768 449.974 450.469 450.778 451.043 451.392 451.667 451.947 452.367 452.653 453.083 453.298 453.677 453.969 454.254 454.658 454.998 455.257 455.682 455.998 456.254 456.568 456.846 457.17 457.378 457.537 457.88 458.235 458.523 458.81 458.976 459.314 459.516 459.753 460.094 460.266 460.554 460.828 460.988 461.218 461.391 461.616 461.672 461.785 461.845 461.976 461.981 462.27 462.547 462.915 463.587 464.572 465.588 465.984 466.328 466.508 466.628 466.753 466.7 466.798 466.872 466.982 467.489 467.308 467.412 467.564 467.675 467.757 467.85 467.934 467.995 468.051 467.918 467.922 467.854 467.692 467.719 467.673 467.585 467.608 467.528 467.553 467.467 467.463 467.464 467.436 467.423 467.548 467.506 467.595 467.633 467.704 467.627 467.78 467.781 468.05 468.068 468.08 468.085 467.734 467.758 467.474 467.565 467.536 467.318 467.488 467.543 467.222 467.127 466.932 467.11 466.909 466.785 466.721 466.609 466.439 466.302 466.062 465.841 465.902 465.791 465.835 465.761 465.589 465.263 465.094 464.82 464.689 464.627 464.429 464.424 464.396 464.453 464.445 464.387 464.55 464.559 464.858 464.853 464.882 464.943 465.034 465.017 465.024 464.908 464.671 464.584 464.437 464.231 464.143 464.166 464.118 463.996 463.956 464.085 464.084 463.908 463.773 463.755 463.613 463.4 463.143 463.095 463.05 462.929 462.945 462.854 462.626 462.649 462.543 462.329 462.116 462.163 462.247 461.915 461.984 461.851 461.903 461.671 461.577 461.308 461.142 461.247 461.034 460.929 460.721 461.032 461.094 461.035 460.99 460.811 460.881 460.767 460.724 460.514 460.286 459.455 458.536 457.9 458.4 458.121 458.056 457.83 457.686 457.669 457.727 457.742 457.85 457.688 458.101 458.891 459.694 459.751 460.056 460.443 460.391 460.751 460.916 461.037 460.969 460.644 461.598 461.711 461.732 461.743 461.647 460.598 460.469 459.8 460.895 461.937 462.662 463.264 463.264 463.549 463.697 463.572 463.89 464.062 464.277 464.203 464.385 464.38
396.123 396.68 397.39 397.92 398.348 398.933 399.58 400.045 400.443 401.033 401.808 402.528 403.285 403.995 404.695 405.498 406.193 406.68 407.295 407.845 408.368 408.775 409.168 409.433 409.735 410.213 410.838 411.248 411.915 412.423 412.97 413.363 413.75 414.07 414.218 414.4 414.723 415.118 415.56 415.95 416.343 416.785 417.17 417.495 417.76 418.018 418.323 418.578 418.8 419.095 419.47 419.905 420.468 420.903 421.318 421.728 422.188 422.563 422.928 423.34 423.825 424.49 424.763 425.038 425.548 426.238 426.903 427.378 427.573 427.807 428.492 429.265 429.91 430.494 430.982 431.452 431.781 431.971 432.265 432.477 432.691 433.011 433.258 433.632 433.931 434.177 434.468 434.832 434.925 435.037 435.385 436.166 436.462 436.89 437.35 437.529 437.82 438.076 438.342 438.522 438.656 438.872 438.854 438.762 438.829 439.074 439.904 440.296 440.849 441.183 441.542 441.692 442.082 442.377 442.86 443.056 443.368 443.869 444.195 444.433 444.731 445.066 445.335 445.739 446.038 446.379 446.604 446.831 447.162 447.509 448.193 448.822 448.407 448.857 449.221 449.432 449.669 449.966 450.366 450.535 450.855 451.114 451.416 451.774 452.161 452.419 452.697 453.085 453.359 453.604 453.95 454.416 454.724 454.982 455.464 455.686 456.019 456.349 456.614 456.941 457.147 457.404 457.675 457.969 458.285 458.577 458.786 459.06 459.38 459.662 459.804 460.05 460.351 460.613 460.745 460.922 461.105 461.263 461.454 461.566 461.555 461.68 461.857 461.989 462.405 462.812 463.444 464.234 465.493 466.045 466.257 466.427 466.531 466.586 466.688 466.856 466.915 466.865 467.034 467.642 467.334 467.418 467.549 467.637 467.878 467.863 467.843 467.834 467.881 467.806 467.7 467.587 467.465 467.501 467.277 467.475 467.456 467.4 467.382 467.443 467.291 467.347 467.362 467.29 467.235 467.175 467.461 467.474 467.545 467.459 467.545 467.572 467.392 467.492 467.289 467.03 466.861 466.842 466.836 466.754 466.497 466.633 466.589 466.538 466.578 466.415 466.77 466.39 466.354 466.229 466.132 465.904 465.451 465.295 464.876 465.053 464.907 464.803 464.712 464.769 464.576 464.279 464.384 464.379 464.254 464.344 464.443 464.424 464.409 464.402 464.389 464.585 464.724 464.829 464.827 464.779 464.793 464.973 464.98 464.819 464.699 464.653 464.404 464.291 464.11 463.907 463.963 463.924 463.854 463.76 463.677 464.005 463.714 463.571 463.544 463.402 463.373 463.302 463.102 463.096 463.045 462.843 462.902 462.711 462.65 462.549 462.316 462.218 461.938 461.829 461.876 461.722 461.785 461.534 461.653 461.418 461.363 461.28 460.941 460.947 460.652 460.684 460.773 460.94 460.896 460.862 460.726 460.686 460.512 460.444 460.304 460.236 459.824 459.152 457.726 458.121 457.864 457.699 457.331 457.487 457.726 457.709 457.759 457.618 457.682 458.353 458.862 459.263 459.66 459.854 460.218 460.48 460.397 460.705 460.906 460.941 460.506 460.776 461.236 461.481 461.278 461.26 459.814 459.505 460.332 461.215 462.621 462.766 462.861 463.062 463.223 463.39 463.467 463.704 463.898 463.962 464.003 464.211 464.201
396.06 396.588 397.065 397.533 398.133 398.7 399.223 399.765 400.21 400.61 401.323 402.298 402.953 403.733 404.455 405.3 405.858 406.463 406.955 407.465 407.985 408.508 409.07 409.345 409.55 409.7 410.1 410.618 411.563 412.133 412.733 413.198 413.535 413.793 413.8 413.84 414.063 414.548 415.12 415.623 416.113 416.55 416.903 417.233 417.52 417.793 418.008 418.295 418.53 418.835 419.208 419.6 420.075 420.545 421.003 421.42 421.863 422.268 422.67 423.008 423.45 423.973 424.205 424.715 425.3 426.013 426.473 426.903 427.548 428.16 428.81 429.466 430.147 430.445 430.95 431.349 431.49 431.734 432.043 432.256 432.539 432.828 433.161 433.212 433.529 433.945 434.379 434.606 434.782 435.017 435.316 435.844 436.161 436.608 437.167 437.42 437.69 437.997 438.163 438.398 438.561 438.758 438.779 438.769 438.771 438.996 439.468 440.063 440.539 440.94 441.144 441.398 441.752 442.067 442.523 442.838 443.3 443.587 443.85 444.239 444.575 444.911 445.354 445.587 446.004 446.224 446.339 446.716 447.04 447.695 448.559 448.099 448.391 448.768 448.994 449.217 449.543 449.754 449.98 450.376 450.646 450.989 451.279 451.62 451.889 452.259 452.434 452.655 453.021 453.432 453.879 454.169 454.542 454.866 455.179 455.553 455.798 456.15 456.295 456.649 456.885 457.222 457.524 457.84 458.149 458.416 458.563 458.802 459.209 459.429 459.684 460.025 460.156 460.312 460.466 460.594 460.782 460.942 461.16 461.248 461.335 461.509 461.607 461.852 462.179 462.653 463.182 463.873 465.068 465.757 466.078 466.26 466.384 466.553 466.765 466.62 466.726 466.586 466.943 467.462 467.534 467.313 467.429 467.494 467.662 467.72 467.781 467.836 467.786 467.737 467.607 467.379 467.372 467.357 467.302 467.338 467.331 467.178 467.328 467.275 467.191 467.114 467.134 466.921 466.824 467.029 467.066 467.029 467.351 467.356 467.176 467.081 467.077 466.841 466.626 466.246 466.461 465.981 465.96 466.117 465.989 466.239 465.848 465.831 465.906 465.425 465.708 465.706 465.5 465.325 465.153 465.257 464.904 464.929 464.738 464.626 464.464 464.286 464.015 464.161 463.93 464.078 463.976 464.019 464.2 464.402 464.464 464.458 464.436 464.395 464.607 464.635 464.789 464.73 464.719 464.719 464.663 464.804 464.78 464.617 464.507 464.335 464.252 464.051 463.871 463.637 463.726 463.705 463.664 463.539 463.611 463.688 463.649 463.649 463.496 463.392 463.316 463.231 463.056 463.049 462.896 462.884 462.756 462.564 462.618 462.665 462.516 462.371 462.004 461.821 461.681 461.679 461.393 461.489 461.414 461.434 461.351 461.063 460.73 460.71 460.434 460.318 460.556 460.582 460.628 460.484 460.446 460.61 460.389 460.236 460.157 460.06 459.896 458.678 457.781 457.82 457.402 457.225 457.202 457.179 457.629 457.552 457.478 457.28 458.1 458.056 458.324 458.892 459.196 459.63 460.093 460.158 460.21 460.451 460.603 460.698 460.534 460.04 460.513 460.678 460.716 460.131 459.551 459.674 460.753 461.814 462.4 462.283 462.583 462.836 463.103 463.21 463.428 463.558 463.724 463.843 463.706 463.827 463.938
396.003 396.433 396.793 397.388 397.855 398.333 398.86 399.645 400.068 400.45 401.008 401.76 402.625 403.498 404.198 405.033 405.525 406.155 406.683 407.218 407.788 408.328 408.843 409.19 409.33 409.423 409.72 410.248 411.225 411.853 412.39 413.005 413.323 413.575 413.4 413.403 413.498 413.808 414.508 415.213 415.828 416.185 416.62 417.035 417.308 417.563 417.798 418.095 418.308 418.62 418.98 419.375 419.85 420.365 420.74 421.088 421.545 421.97 422.298 422.653 423.07 423.388 423.853 424.453 425.11 425.83 426.563 427.22 427.758 428.195 428.748 429.253 429.695 430.107 430.543 430.877 431.13 431.413 431.736 432.014 432.293 432.564 432.832 433.097 433.471 433.769 433.995 434.347 434.804 434.976 435.271 435.54 436.041 436.548 436.829 437.219 437.401 437.632 437.876 438.211 438.417 438.534 438.672 438.663 438.88 438.979 439.226 439.957 440.199 440.619 440.927 441.363 441.618 441.872 442.303 442.644 443.061 443.307 443.69 443.901 444.507 444.775 445.12 445.334 445.66 446.013 446.532 447.239 446.876 447.089 447.521 447.78 448.081 448.393 448.683 448.98 449.328 449.532 449.807 450.24 450.531 450.851 451.095 451.435 451.752 452.036 452.232 452.629 452.869 453.18 453.508 454.074 454.379 454.734 455.06 455.348 455.701 455.867 456.188 456.43 456.692 457.06 457.343 457.649 457.899 458.231 458.439 458.784 459.066 459.249 459.587 459.768 459.993 460.094 460.303 460.379 460.614 460.812 460.768 460.967 461.141 461.374 461.414 461.603 461.962 462.426 463.169 463.763 464.751 465.203 465.664 465.962 466.257 466.417 466.587 466.536 466.501 466.667 467.037 466.96 467.494 467.426 467.306 467.437 467.574 467.602 467.521 467.588 467.593 467.537 467.42 467.263 467.183 467.221 467.182 467.208 467.043 467.105 467.102 467.025 467.081 467.081 466.873 466.849 466.746 466.633 466.764 466.704 466.753 466.77 466.797 466.481 466.301 465.941 466.168 465.7 465.604 465.211 465.283 465.086 465.313 464.97 465.022 464.964 464.543 464.381 464.561 464.762 464.916 464.939 464.894 464.95 464.772 464.631 464.604 464.427 464.389 464.091 463.956 463.682 463.764 463.826 463.933 464.245 464.361 464.446 464.41 464.371 464.375 464.457 464.555 464.59 464.562 464.557 464.576 464.409 464.429 464.522 464.465 464.431 464.212 464.134 463.916 463.796 463.644 463.47 463.54 463.596 463.692 463.481 463.599 463.528 463.443 463.345 463.298 463.187 463.291 463.127 463.138 462.965 462.974 462.852 462.774 462.884 462.686 462.644 462.586 462.314 462.133 461.898 461.429 461.359 461.263 461.25 461.045 461.066 460.985 460.866 460.791 460.561 460.374 460.261 460.338 460.41 460.412 460.431 460.467 460.422 460.202 460.129 460.044 460.139 460.107 459.089 457.712 457.548 457.1 457.169 457.082 457.095 456.446 456.993 456.909 457.3 457.792 457.818 457.94 458.482 458.829 459.255 459.649 460.043 460.156 460.32 460.233 460.503 460.613 459.789 459.767 460.106 460.206 459.371 459.09 460.175 461.187 462.117 462.154 462.194 462.231 462.584 462.964 462.964 463.044 463.125 463.296 463.355 463.371 463.439 463.724
395.79 396.193 396.653 397.12 397.605 398.155 398.628 399.19 399.86 400.173 400.848 401.463 402.308 403.19 403.885 404.605 405.12 405.883 406.463 406.893 407.598 407.973 408.565 408.853 409.16 409.378 409.643 410.183 410.948 411.575 412.258 412.793 413.183 413.255 413.175 413.27 413.323 413.445 413.935 414.67 415.288 415.803 416.338 416.755 417.083 417.27 417.54 417.815 418.118 418.44 418.848 419.298 419.693 420.09 420.483 420.908 421.375 421.733 422.098 422.453 422.673 423.003 423.583 424.538 425.405 426.168 426.723 427.183 427.638 427.97 428.42 428.925 429.394 429.777 430.154 430.447 430.742 431.129 431.483 431.869 432.068 432.451 432.619 433.027 433.224 433.519 433.686 433.941 434.418 434.607 434.721 435.351 435.801 436.134 436.554 436.879 437.178 437.402 437.867 438.1 438.316 438.46 438.615 438.82 438.897 439.061 439.294 439.68 440.024 440.398 440.736 441.103 441.376 441.686 442.116 442.487 442.752 443.139 443.438 443.801 444.154 444.409 444.758 445.148 445.314 445.568 446.234 446.804 446.666 446.991 447.276 447.659 447.962 448.148 448.509 448.795 448.996 449.347 449.79 450.075 450.394 450.588 450.806 451.202 451.554 451.755 451.998 452.351 452.691 453.019 453.386 453.806 454.162 454.431 454.629 454.998 455.411 455.798 455.875 456.276 456.665 456.943 457.238 457.486 457.878 458.085 458.415 458.618 458.876 459.122 459.356 459.607 459.689 459.874 460.012 460.185 460.303 460.388 460.45 460.643 461.009 461.107 461.196 461.524 461.896 462.485 463.001 463.737 464.09 464.628 465.297 465.72 466.136 466.293 466.471 466.599 466.126 466.491 466.717 466.984 467.118 467.082 467.179 467.324 467.474 467.441 467.37 467.432 467.257 467.251 467.152 467.061 467.182 467.097 467.019 466.929 466.913 466.92 466.811 466.893 466.681 466.463 466.488 466.444 466.353 466.23 466.233 466.279 466.142 466.164 466.086 465.945 465.705 465.323 464.998 465.044 464.882 464.542 464.703 464.42 464.162 463.995 464.025 463.696 463.913 463.798 464.087 464.341 464.519 464.644 464.7 464.663 464.603 464.568 464.472 464.086 464.367 464.475 463.886 463.748 463.746 463.862 464.068 464.223 464.385 464.419 464.377 464.285 464.317 464.364 464.39 464.446 464.345 464.296 464.33 464.243 464.314 464.332 464.165 463.957 463.983 463.882 463.688 463.66 463.553 463.43 463.359 463.36 463.493 463.499 463.563 463.355 463.328 463.373 463.067 463.21 463.204 463.158 463.073 462.959 462.899 462.738 462.77 462.715 462.732 462.504 462.405 462.252 461.977 461.671 461.378 461.241 461.07 460.992 460.973 460.772 460.976 460.945 460.827 460.474 460.2 460.12 460.109 460.273 460.24 460.244 460.358 460.227 460.043 459.97 459.98 459.941 459.835 459.413 458.765 457.486 458.052 458.228 457.438 456.915 456.747 456.745 456.637 457.407 457.526 457.718 457.707 458.096 458.637 459.188 459.443 459.976 460.131 460.299 460.071 460.208 460.347 460.15 459.59 459.408 459.511 458.98 459.456 460.474 461.282 461.642 461.765 461.924 462.058 462.296 462.649 462.585 462.778 462.826 462.91 463.122 463.153 463.107 463.465
395.558 395.955 396.283 396.69 397.313 397.793 398.383 398.88 399.57 400.013 400.538 401.2 402.025 402.89 403.578 404.298 404.87 405.538 406.105 406.623 407.118 407.698 408.305 408.75 409.208 409.448 409.77 410.003 410.703 411.325 411.945 412.485 412.775 413.003 413.073 413.19 413.253 413.353 413.723 414.11 414.71 415.43 415.995 416.458 416.715 416.928 417.193 417.598 417.918 418.273 418.685 419.005 419.36 419.815 420.193 420.638 421.183 421.558 421.833 422.083 422.245 422.73 423.49 424.618 425.333 425.913 426.493 426.968 427.425 427.808 428.148 428.578 428.994 429.418 429.77 430.086 430.388 430.877 431.221 431.536 431.841 432.122 432.497 432.679 432.951 433.227 433.469 433.713 433.973 434.347 434.567 434.748 435.354 435.648 436.114 436.703 437.144 437.438 437.639 437.862 438.078 438.302 438.407 438.512 438.817 439.097 439.37 439.547 439.852 440.162 440.542 440.792 441.076 441.343 441.76 441.978 442.527 442.871 443.311 443.506 443.955 444.259 444.524 445.005 445.359 445.576 445.926 446.181 446.578 446.772 447.097 447.319 447.586 447.929 448.216 448.385 448.773 449.108 449.576 449.831 450.049 450.316 450.723 450.972 451.283 451.597 451.988 452.235 452.473 452.834 453.24 453.602 453.783 454.125 454.494 454.892 455.206 455.568 455.886 456.115 456.516 456.707 457.125 457.335 457.644 458.074 458.327 458.464 458.783 458.987 459.199 459.318 459.458 459.649 459.775 459.99 460.102 460.156 460.281 460.539 460.778 460.89 461.161 461.576 461.908 462.323 462.901 463.324 463.74 464.462 464.869 465.533 465.967 466.085 466.222 466.308 465.974 465.995 466.701 466.946 467.092 467.01 467.166 467.22 467.207 467.258 467.251 467.156 467.079 466.967 466.944 467.027 466.912 466.964 466.823 466.919 466.797 466.694 466.687 466.538 466.434 466.396 466.198 466.12 466.166 466.105 466.15 466.022 465.904 465.543 465.264 465.182 464.853 464.48 464.213 463.918 463.842 463.695 463.748 463.64 463.698 463.622 463.46 463.528 463.213 463.484 463.635 463.903 464.125 464.163 464.174 464.306 464.204 464.04 464.061 463.876 463.898 463.935 463.822 463.631 463.785 463.765 464.062 464.148 464.175 464.181 464.311 464.217 464.247 464.218 464.311 464.248 464.226 464.192 464.074 464.034 464.043 464.005 463.887 463.782 463.652 463.579 463.423 463.507 463.264 463.109 463.082 463.195 463.328 463.369 463.285 463.373 463.319 463.303 463.187 463.133 463.156 463.133 463.028 462.826 462.732 462.836 462.815 462.774 462.593 462.582 462.365 462.127 461.945 461.735 461.587 461.227 461.156 460.829 460.646 460.801 460.552 460.551 460.6 460.385 460.038 459.952 459.919 459.732 459.925 460.074 460.111 460.111 459.945 459.91 459.887 459.808 459.651 459.501 459.044 458.81 458.754 458.234 457.13 457.136 456.89 456.464 456.831 456.923 457.477 457.657 457.705 457.668 458.205 458.746 459.317 459.618 459.87 459.952 459.919 459.951 460.234 459.863 459.676 459.155 458.594 458.965 459.517 460.673 461.202 461.123 461.469 461.844 461.99 462.252 462.288 462.539 462.616 462.604 462.7 462.751 462.988 463.042 462.98
395.285 395.535 395.79 396.13 396.75 397.333 397.995 398.538 399.268 399.915 400.398 401.023 401.72 402.553 403.325 404.02 404.58 405.148 405.823 406.395 406.883 407.52 408.098 408.678 409.118 409.428 409.568 409.965 410.663 411.09 411.455 412 412.358 412.78 413.048 413.218 413.298 413.353 413.57 413.833 414.3 414.925 415.425 415.82 416.213 416.595 416.918 417.258 417.628 418.033 418.43 418.71 419.003 419.363 419.705 420.24 420.655 420.998 421.318 421.7 422.06 422.623 423.605 424.388 424.965 425.533 426.15 426.705 427.163 427.535 427.855 428.218 428.656 429.036 429.448 429.796 430.153 430.556 430.946 431.281 431.67 431.972 432.208 432.458 432.759 433.082 433.24 433.646 434.013 434.207 434.348 434.115 435.118 435.355 435.526 436.213 436.636 436.903 437.221 437.715 437.853 437.948 438.333 438.567 438.646 438.913 439.147 439.563 439.686 439.906 440.248 440.562 440.767 440.904 441.456 441.838 442.196 442.595 442.958 443.277 443.647 444.007 444.42 445.647 445.946 445.184 445.673 445.914 446.174 446.654 446.801 447.093 447.348 447.691 447.971 448.326 448.575 449.003 449.34 449.63 449.899 450.268 450.529 450.763 451.215 451.457 451.819 451.997 452.277 452.621 453.041 453.271 453.506 453.947 454.241 454.752 455.076 455.379 455.616 456.039 456.323 456.538 456.887 457.263 457.495 457.852 458.174 458.453 458.687 458.822 459.08 459.231 459.275 459.446 459.574 459.684 459.854 459.947 460.203 460.314 460.559 460.691 461.143 461.596 461.775 462.04 462.339 462.973 463.492 464.066 464.557 465.369 465.751 465.885 465.979 466.076 465.666 465.856 466.529 466.782 466.85 466.805 466.809 467.013 467.31 466.892 466.978 466.97 466.913 466.848 466.864 466.775 466.896 466.667 466.593 466.591 466.581 466.41 466.281 466.229 466.18 466.024 465.947 465.985 465.864 465.93 465.949 465.427 465.22 464.733 464.244 463.668 463.534 463.489 463.341 463.174 463.355 463.545 463.459 463.363 463.276 463.077 462.894 462.811 462.952 463.12 463.224 463.507 463.697 463.822 463.889 463.56 463.517 463.692 463.555 463.538 463.431 463.754 463.646 463.53 463.837 463.753 463.754 463.916 464.082 464.103 464.048 464.01 464.04 464.124 464.076 464.089 463.95 463.973 463.88 463.866 463.79 463.741 463.513 463.448 463.446 463.364 463.389 463.178 463.221 463.135 463.045 463.124 463.308 463.3 463.196 463.388 463.377 463.255 463.264 463.187 463.109 463.152 462.817 462.774 462.872 462.754 462.698 462.645 462.522 462.248 462.159 461.976 461.93 461.688 461.464 461.264 461.055 460.741 460.577 460.436 460.371 460.18 460.197 459.998 459.927 459.851 459.747 459.698 459.76 459.92 459.915 459.86 459.935 459.776 459.847 459.629 459.547 459.506 459.186 458.975 458.519 458.197 457.384 457.231 456.708 456.22 456.414 456.694 456.917 457.414 457.545 457.597 458.047 458.628 459.169 459.452 459.761 459.902 459.621 459.862 459.814 459.712 459.514 458.92 458.673 458.464 459.737 460.432 460.776 460.935 461.516 461.531 461.826 461.954 462.023 462.189 462.376 462.359 462.352 462.655 462.748 462.712 462.801
394.868 395.053 395.3 395.743 396.403 396.968 397.585 398.23 398.908 399.583 400.165 400.92 401.61 402.403 403.118 403.625 404.26 404.903 405.588 406.118 406.665 407.253 407.755 408.325 408.753 409.068 409.288 409.73 410.323 410.655 411.285 411.923 412.45 412.815 413.138 413.285 413.458 413.608 413.47 413.653 414.178 414.48 414.753 415.263 415.718 416.21 416.603 416.943 417.33 417.745 418.035 418.333 418.603 418.95 419.37 419.815 420.195 420.443 420.945 421.43 421.915 422.748 423.538 424.02 424.528 425.098 425.76 426.383 426.838 427.213 427.543 427.9 428.355 428.766 429.156 429.593 429.974 430.351 430.735 431.095 431.394 431.676 432.036 432.256 432.502 432.804 433.104 433.465 433.733 434.127 434.402 434.592 434.92 435.201 435.544 435.982 436.372 436.581 436.859 437.081 437.484 437.845 438.183 438.373 438.481 438.744 438.994 439.087 439.278 439.422 439.977 440.028 440.079 440.162 440.773 441.32 441.748 442.281 442.624 442.896 443.318 444.708 444.65 444.828 444.613 445.087 445.459 445.674 446.122 446.387 446.673 446.952 447.246 447.5 447.78 448.136 448.516 448.819 449.071 449.351 449.749 450.049 450.397 450.789 451.059 451.297 451.54 451.831 452.084 452.373 452.71 453.006 453.266 453.775 454.258 454.583 454.853 455.199 455.538 455.892 456.178 456.457 456.826 457.16 457.478 457.728 458.013 458.264 458.368 458.625 458.867 458.941 459.068 459.241 459.367 459.498 459.662 459.756 459.976 460.211 460.443 460.717 461.065 461.062 461.383 461.62 461.92 462.604 463.18 463.779 464.163 465.006 465.332 465.594 465.671 465.584 465.382 465.747 466.016 466.569 466.587 466.579 466.6 466.746 467.221 466.827 466.712 466.685 466.741 466.73 466.608 466.665 466.597 466.482 466.295 466.384 466.28 466.107 466.07 465.991 465.995 465.666 465.536 465.594 465.617 465.432 465.07 464.733 464.369 464.232 463.646 463.061 462.639 463.024 463.091 463.014 463.059 463.128 463.019 463.085 463.043 463.114 462.784 462.785 462.94 463.046 463.206 463.289 463.365 463.414 463.511 463.288 463.058 462.976 463.071 463.173 463.391 463.588 463.375 463.491 463.684 463.739 463.771 463.878 463.951 463.993 463.975 463.978 464.1 463.925 463.857 463.863 463.854 463.651 463.651 463.657 463.53 463.519 463.411 463.447 463.346 463.305 463.153 463.183 463.081 463.178 462.94 463.107 463.205 463.306 463.228 463.235 463.277 463.172 463.086 463.146 463.107 462.866 462.89 462.806 462.854 462.657 462.657 462.504 462.193 462.161 461.959 461.752 461.808 461.669 461.395 461.311 461.11 460.975 460.903 460.545 460.263 459.957 460.036 459.951 459.723 459.905 459.743 459.735 459.49 459.75 459.693 459.652 459.561 459.59 459.603 459.493 459.45 459.294 459.218 459.03 458.707 458.34 457.754 457.386 457.261 456.454 456.197 456.322 456.877 457.202 457.445 457.441 457.931 458.543 459.072 459.151 459.605 459.674 459.757 459.755 459.582 459.211 458.864 458.488 458.452 458.062 459.53 460.191 460.572 460.816 461.27 461.348 461.613 461.627 461.788 461.924 462.088 462.252 462.242 462.38 462.389 462.481 462.513
394.078 394.4 394.953 395.62 396.228 396.853 397.425 397.985 398.44 399.263 400.113 400.83 401.475 402.183 402.788 403.355 403.935 404.525 405.22 405.873 406.343 406.93 407.418 407.903 408.278 408.68 409.203 409.315 409.598 410.375 411.313 411.91 412.388 412.7 413.035 413.2 413.413 413.54 413.4 413.545 413.878 414.215 414.513 414.695 415.208 415.84 416.23 416.68 417.148 417.358 417.625 417.865 418.133 418.54 419.01 419.41 419.788 420.275 420.733 421.243 421.933 422.803 423.25 423.678 424.183 424.748 425.39 426.02 426.51 426.923 427.29 427.72 428.145 428.555 428.93 429.359 429.757 430.089 430.429 430.756 431.07 431.389 431.733 431.995 432.25 432.602 432.99 433.261 433.576 433.934 434.35 434.501 434.834 435.064 435.323 435.74 435.915 436.022 436.255 436.544 437.171 437.416 437.798 438 438.29 438.382 438.542 438.524 438.645 438.928 439.176 439.636 439.688 440.071 440.534 440.952 441.54 442.034 442.417 442.686 442.856 443.58 443.971 443.961 444.376 444.928 445.195 445.467 445.752 446.102 446.359 446.596 446.986 447.305 447.613 447.804 448.274 448.565 448.919 449.163 449.607 449.951 450.348 450.67 450.846 451.081 451.304 451.529 451.767 452.216 452.517 452.804 453.244 453.623 453.948 454.366 454.675 455.1 455.378 455.706 456.075 456.404 456.775 457.003 457.288 457.531 457.854 458.055 458.296 458.438 458.688 458.883 458.941 459.084 459.134 459.317 459.498 459.577 459.759 460.106 460.357 460.552 460.716 460.99 461.318 461.455 461.835 462.321 462.97 463.304 463.979 464.465 464.922 465.414 465.291 465.194 465.127 465.076 465.914 465.995 466.318 466.174 466.281 466.252 466.411 466.94 466.401 466.437 466.442 466.492 466.313 466.433 466.464 466.337 466.248 466.091 466.052 465.968 465.706 465.704 465.465 465.353 465.352 465.274 465.174 464.841 464.339 464.275 463.802 463.768 463.285 462.55 462.327 462.216 462.343 462.777 462.665 462.971 463.079 462.953 462.839 462.916 462.861 462.81 462.885 462.977 463.258 463.277 463.208 463.276 463.132 463.21 463.132 462.892 462.893 463.19 463.296 463.308 463.304 463.512 463.645 463.749 463.768 463.82 463.833 463.856 463.963 463.872 463.878 463.847 463.757 463.655 463.679 463.443 463.507 463.44 463.33 463.279 463.323 463.327 463.365 463.259 463.062 463.046 463.043 462.933 462.682 463.071 463.116 463.168 462.832 462.994 463.04 463.045 463.075 462.954 462.956 462.879 462.852 462.735 462.899 462.717 462.609 462.35 462.094 461.858 461.805 461.882 461.761 461.375 461.283 461.212 461.07 460.89 460.724 460.69 460.48 460.184 460.039 459.773 459.561 459.663 459.538 459.458 459.336 459.409 459.438 459.559 459.464 459.471 459.414 459.431 459.333 459.314 459.228 459.024 458.792 458.581 458.104 457.654 457.725 456.65 455.628 456.1 456.264 456.96 457.197 457.382 457.664 458.037 458.499 459.025 459.214 459.446 459.676 459.558 459.287 459.082 458.494 458.162 457.805 458.426 459.422 459.984 460.29 460.987 460.963 461.208 461.529 461.613 461.719 461.77 461.811 462.058 462.001 462.116 462.189 462.222 462.287
