ncols 378
nrows 32
xllcorner    389014
yllcorner    476458
cellsize     2
NODATA_value -9999
506.863 507.366 507.987 508.373 508.977 509.677 510.168 511.557 512.187 513.365 513.987 515.34 516.199 516.931 517.584 518.154 518.802 519.495 519.93 520.518 520.736 521.138 521.511 521.654 521.854 521.931 521.633 521.573 521.446 520.909 522.171 522.981 523.371 524.054 524.427 524.688 524.885 525.122 525.242 525.505 525.824 525.922 526.021 526.325 526.714 527.023 527.192 527.388 527.503 527.745 527.914 528.154 528.602 529.068 529.398 529.576 529.825 530.234 530.67 531.125 531.502 532.237 532.886 533.292 533.652 534.063 534.232 534.318 534.361 534.424 534.626 534.695 534.765 534.945 535.107 535.312 535.503 535.852 536.09 536.439 536.937 537.643 538.338 538.974 539.551 539.991 540.526 541.088 541.447 541.968 542.057 541.901 541.271 541.973 542.822 543.624 544.39 544.96 545.427 545.957 546.297 546.867 547.253 547.584 547.821 548.107 548.31 548.818 549.336 549.637 550.097 550.605 550.991 551.425 551.794 552.191 552.597 552.946 553.224 553.513 553.765 553.922 554.111 554.583 555.014 555.341 555.629 556.122 556.589 557.212 557.521 557.827 558.178 558.452 558.801 559.177 559.524 560.164 560.727 561.367 562.175 563.203 564.195 564.903 565.395 565.768 566.194 566.583 567.351 567.768 568.349 568.774 569.093 569.326 569.526 569.91 569.957 570.312 570.645 570.896 571.079 571.604 571.717 571.989 572.178 572.313 572.425 572.534 572.945 573.152 573.387 573.608 573.892 574.144 574.737 575.302 575.747 576.237 576.706 577.142 577.5 577.836 578.38 578.848 579.154 579.579 579.797 579.834 579.956 579.969 580.13 580.216 580.197 580.434 580.556 580.677 580.846 581.049 581.211 581.218 581.37 581.308 581.336 581.155 581.107 580.916 580.853 580.674 580.553 580.632 580.602 580.591 580.676 580.638 580.712 580.732 580.713 580.618 580.649 580.727 580.56 580.55 580.465 580.543 580.192 580.202 579.791 579.654 579.481 579.492 579.294 579.356 579.151 579.023 578.926 578.824 578.727 578.7 578.659 578.643 578.534 578.565 578.542 578.03 577.861 577.674 577.498 577.228 577.031 576.672 576.349 576.021 575.774 575.56 575.408 575.32 575.253 575.154 575.12 574.915 574.69 574.625 574.516 574.405 574.193 574.034 573.894 573.725 573.685 573.68 573.3 573.004 573.049 573.019 573.02 572.984 572.865 572.836 572.651 572.69 572.595 572.392 572.253 572.269 572.106 572.145 572.049 571.94 571.779 571.339 571.202 570.965 570.792 570.721 570.512 570.525 570.269 570.142 570.014 569.774 569.456 569.385 569.216 569.051 568.882 568.866 568.732 568.675 568.4 567.763 567.585 567.434 567.49 567.756 567.882 568.291 568.633 568.987 569.157 569.266 569.284 569.412 569.426 569.398 569.349 569.358 569.22 569.178 569.047 568.884 568.805 568.718 568.696 568.519 568.362 568.222 568.237 568.285 568.212 568.116 567.941 568.023 568.004 567.979 567.985 568.003 568.066 567.959 568.172 568.19 568.189 568.194 567.974 567.997 568.139 568.058 568.155 568.17 568.155 568.107 568.085 568.101 568.26 568.246 568.225 568.254 568.307 568.095 567.818 567.951 568.322 568.625 568.763 568.755 568.775 568.69 568.712 568.889
506.338 506.892 507.457 507.955 508.655 509.178 509.817 510.659 511.81 512.738 513.596 514.241 515.442 516.23 516.889 517.487 518.063 518.864 519.465 519.833 520.089 520.54 521.029 521.242 521.339 521.323 520.961 520.806 520.674 521.143 522.013 522.871 523.353 523.831 524.151 524.44 524.641 524.902 524.993 525.21 525.306 525.477 525.557 525.975 526.342 526.541 526.775 526.937 527.228 527.539 527.74 527.932 528.313 528.586 529.144 529.386 529.575 529.873 530.452 530.813 531.247 531.884 532.457 532.741 533.064 533.341 533.681 533.543 533.638 533.956 533.854 534.055 534.288 534.291 534.373 534.604 534.829 534.93 535.291 535.867 536.581 537.186 537.752 538.31 538.995 539.388 539.706 540.259 540.577 540.961 540.783 540.869 541.164 541.802 542.801 543.521 544.322 544.696 545.231 545.563 545.979 546.499 546.976 547.372 547.678 547.892 548.231 548.344 548.747 549.02 549.429 550.053 550.834 551.312 551.673 552.062 552.362 552.68 553.075 553.262 553.365 553.54 553.672 553.826 554.107 554.506 554.933 555.565 556.303 556.74 556.992 557.422 557.707 557.887 558.136 558.446 558.784 559.299 560.062 560.852 561.486 562.326 562.877 563.77 564.409 564.936 565.27 565.782 566.373 566.752 567.462 568.133 568.671 568.672 568.961 569.308 569.686 569.996 570.266 570.61 570.905 571.313 571.72 571.71 572.045 572.302 572.506 572.606 572.768 573.191 573.271 573.443 573.764 573.915 574.524 575.064 575.521 575.998 576.39 576.645 577.195 577.363 577.911 578.34 578.682 579.199 579.507 579.443 579.566 579.739 579.935 579.973 580.055 580.325 580.516 580.577 580.78 580.841 580.969 581.205 581.246 581.177 581.062 580.958 580.733 580.723 580.757 580.62 580.443 580.413 580.246 580.407 580.2 580.331 580.317 580.433 580.436 580.415 580.447 580.367 580.394 580.301 580.158 580.032 580.137 579.929 579.687 579.551 579.38 579.327 579.22 579.146 579.137 578.912 578.901 578.749 578.719 578.67 578.524 578.531 578.526 578.62 578.552 578.009 577.85 577.597 577.384 577.199 577.013 576.654 576.245 575.817 575.535 575.297 575.089 574.923 574.861 574.726 574.634 574.452 574.373 574.253 574.145 573.953 573.88 573.735 573.61 573.467 573.345 573.109 572.948 572.803 572.775 572.746 572.721 572.697 572.608 572.484 572.552 572.346 572.181 572.113 572.094 571.877 571.753 571.821 571.895 571.719 571.537 571.19 570.895 570.587 570.523 570.472 570.384 570.096 569.972 569.824 569.649 569.404 569.272 569.194 569.039 568.835 568.792 568.693 568.515 568.36 568.141 567.793 567.493 567.275 567.267 567.405 567.7 568.159 568.422 568.732 569.002 569.128 569.156 569.231 569.371 569.278 569.233 569.227 569.044 568.989 568.813 568.769 568.673 568.619 568.525 568.558 568.319 568.14 568.134 568.147 568.03 567.987 568.045 567.965 567.971 567.952 567.909 567.835 567.785 567.735 567.864 567.943 567.815 567.888 567.868 567.757 567.831 567.977 568.01 567.968 568.034 568.102 568.085 568.048 568.04 568.182 568.115 568.195 568.065 568.247 568.135 567.866 568.166 568.378 568.526 568.57 568.462 568.558 568.548 568.64
506.024 506.366 506.971 507.633 507.994 508.461 509.249 510.235 511.432 512.515 512.961 514.256 514.954 515.815 516.61 517.146 517.9 518.549 519.016 519.506 519.69 520.347 520.695 520.861 520.871 520.678 520.068 519.84 520.469 521.414 522.141 522.57 523.213 523.794 523.977 524.099 524.238 524.297 524.401 524.473 524.276 524.383 524.724 525.562 525.88 526.099 526.253 526.509 526.783 527.077 527.167 527.513 527.814 528.236 528.711 529.102 529.192 529.486 530.052 530.419 531.007 531.482 531.879 532.102 532.111 532.506 532.744 533.009 533.183 533.305 533.425 533.504 533.583 533.734 533.861 534.021 534.219 534.431 534.712 535.322 535.974 536.635 537.29 537.776 538.385 538.676 539.255 539.656 539.783 539.762 539.978 540.398 540.969 541.905 542.706 543.403 544.006 544.455 544.878 545.147 545.738 546.278 546.723 547.12 547.349 547.688 547.894 548.119 548.236 548.785 549.173 549.911 550.545 551.13 551.561 552.015 552.225 552.507 552.87 553.162 553.21 553.317 553.425 553.596 553.89 554.166 554.553 555.044 555.691 556.082 556.473 556.975 557.37 557.638 557.726 558.03 558.459 558.997 559.611 560.4 560.809 561.736 562.148 562.944 563.859 564.531 564.966 565.403 565.955 566.396 566.988 567.503 567.775 568.159 568.655 568.9 569.35 569.54 569.924 570.123 570.284 570.785 571.038 571.304 571.74 571.866 572.013 572.221 572.294 572.659 572.821 573.127 573.414 573.677 574.087 574.501 574.896 575.391 575.934 576.33 576.815 577.144 577.673 577.971 578.439 578.836 579.11 579.234 579.344 579.507 579.635 579.751 579.987 580.027 580.235 580.442 580.499 580.589 580.804 580.863 580.843 580.864 580.749 580.638 580.608 580.605 580.533 580.403 580.198 580.245 580.209 580.161 580.161 580.208 580.325 580.261 580.312 580.28 580.404 580.459 580.42 580.357 579.977 579.853 579.888 579.717 579.656 579.487 579.337 579.291 579.29 579.255 579.034 578.918 578.873 578.662 578.609 578.554 578.441 578.461 578.385 578.544 578.265 577.938 577.712 577.609 577.357 577.204 576.94 576.444 576.036 575.707 575.345 575.123 574.954 574.799 574.591 574.524 574.438 574.203 574.211 574.174 573.945 573.778 573.662 573.528 573.41 573.292 573.148 572.907 572.674 572.6 572.528 572.488 572.413 572.325 572.383 571.953 571.711 571.868 571.885 571.856 571.887 571.53 571.608 571.608 571.596 571.444 571.268 570.963 570.579 570.323 570.261 570.158 570.057 569.844 569.537 569.478 569.328 569.113 568.966 569.063 568.835 568.676 568.632 568.655 568.289 568.169 567.98 567.663 567.382 567.35 567.23 567.248 567.644 567.958 568.202 568.649 568.872 568.906 568.948 569.042 569.161 569.04 569.044 569.009 568.928 568.868 568.699 568.628 568.652 568.526 568.324 568.249 568.256 568.06 567.952 567.899 567.907 567.88 567.918 567.919 567.923 567.897 567.906 567.885 567.754 567.818 567.864 567.742 567.871 567.677 567.769 567.702 567.708 567.866 568.048 567.963 568.022 567.95 567.976 567.949 567.977 568.001 567.949 567.849 567.911 568 568.054 568.034 567.888 568.192 568.264 568.24 568.382 568.442 568.493 568.534
505.375 505.678 506.349 506.877 507.105 507.647 508.469 509.177 510.144 511.426 512.111 513.291 514.291 515.068 515.797 516.258 517.228 517.903 518.23 518.83 519.263 519.576 519.806 520.096 520.08 519.454 519.458 519.664 520.623 521.185 522.085 522.532 522.963 523.367 523.67 523.766 523.899 524.021 524.083 524.081 523.961 524.143 524.532 525.081 525.651 525.804 525.949 526.183 526.611 526.805 526.799 527.116 527.4 527.733 528.19 528.552 528.806 529.046 529.571 530.003 530.614 531.177 531.314 531.429 531.697 531.856 532.167 532.437 532.774 532.839 532.903 533.104 533.157 533.1 533.228 533.445 533.477 533.438 534.003 534.71 535.331 535.932 536.735 537.303 537.751 538.263 538.769 539.165 538.964 539.171 539.681 540.326 541.101 541.989 542.803 543.286 543.786 544.112 544.636 544.927 545.539 546.066 546.511 546.992 547.104 547.383 547.646 547.813 547.989 548.53 549.149 549.682 550.327 550.872 551.367 551.824 552.149 552.473 552.788 552.878 552.959 553.042 553.159 553.254 553.414 553.648 553.953 554.34 554.884 555.563 555.96 556.399 556.701 556.929 557.069 557.235 557.669 558.247 559.033 559.951 560.456 561.021 561.667 562.349 563.167 563.555 564.041 564.353 565.013 565.478 566.104 566.597 566.868 567.314 567.72 568.072 568.505 568.79 569.1 569.411 569.772 569.899 570.234 570.847 571.177 571.611 571.846 572.099 572.273 572.462 572.686 572.987 573.379 573.649 573.938 574.4 574.804 575.393 575.683 576.153 576.596 576.998 577.498 577.686 578.221 578.483 578.706 578.856 579.178 579.152 579.359 579.608 579.747 579.859 580.081 580.149 580.446 580.47 580.571 580.547 580.555 580.523 580.615 580.684 580.518 580.317 580.263 580.137 580.037 580.115 580.096 580.063 580.149 580.191 580.156 580.149 580.173 580.21 580.22 580.169 580.01 580.003 579.818 579.935 579.79 579.659 579.417 579.326 579.309 579.167 579.149 579.026 578.977 578.793 578.677 578.615 578.547 578.481 578.337 578.328 578.292 578.119 577.977 577.839 577.665 577.58 577.234 577.187 576.797 576.269 575.757 575.45 575.15 574.906 574.748 574.713 574.65 574.408 574.255 574.109 573.889 573.806 573.618 573.557 573.457 573.27 573.305 573.131 572.874 572.73 572.622 572.519 572.353 572.364 572.133 572.039 572.015 571.51 571.315 571.229 571.346 571.116 571.296 571.174 571.311 571.295 571.324 571.108 570.882 570.743 570.427 570.11 569.984 569.857 569.712 569.498 569.375 569.141 568.999 568.823 568.639 568.538 568.554 568.461 568.461 568.455 568.378 568.03 567.911 567.641 567.437 567.251 567.069 567.231 567.487 567.804 568.213 568.495 568.699 568.79 568.841 568.917 568.931 568.91 568.957 568.82 568.656 568.649 568.548 568.517 568.447 568.347 568.228 568.114 568.04 567.978 567.981 567.927 567.827 567.879 567.876 567.939 567.993 567.845 567.852 567.793 567.732 567.723 567.701 567.715 567.736 567.683 567.643 567.67 567.606 567.789 567.803 567.818 567.888 567.895 567.912 567.875 567.834 567.796 567.862 567.684 567.783 568.047 567.968 567.946 567.885 567.835 567.911 567.925 568.176 568.358 568.328 568.606
504.982 505.506 505.976 506.573 506.886 507.223 507.839 508.437 510.168 510.985 511.7 512.953 513.873 514.559 515.179 515.955 516.634 517.144 517.827 518.492 518.947 519.338 519.318 519.567 519.508 519.25 519.166 519.608 520.006 520.9 521.821 522.342 522.771 523.108 523.341 523.386 523.567 523.588 523.708 523.684 523.635 523.832 524.351 524.548 524.974 525.289 525.442 525.667 525.743 526.074 526.291 526.544 526.755 527.073 527.37 527.88 528.044 528.489 528.943 529.295 529.659 530.131 530.587 530.668 530.971 531.376 531.56 531.838 531.872 532.289 532.392 532.529 532.648 532.582 532.646 532.653 532.846 532.836 533.215 534.143 534.888 535.495 536.003 536.793 537.331 538.103 538.578 538.629 538.089 538.703 539.466 540.172 541.134 542.032 542.475 542.926 543.417 543.805 544.296 544.682 545.339 545.965 546.229 546.602 546.784 547.001 547.237 547.423 547.946 548.424 548.978 549.442 549.981 550.65 551.16 551.601 552.056 552.41 552.62 552.694 552.775 552.896 553.034 553.065 553.165 553.354 553.668 554.068 554.575 555.203 555.698 556.055 556.282 556.444 556.548 556.765 557.401 557.874 558.357 559.515 559.841 560.422 560.955 561.654 562.35 562.888 563.215 563.605 563.757 564.657 565.13 565.862 566.322 566.654 567.154 567.571 567.814 568.271 568.675 568.926 569.147 569.527 569.87 570.357 570.868 571.239 571.652 571.794 572.088 572.26 572.467 572.81 573.18 573.447 573.803 574.259 574.437 575.027 575.337 575.717 576.046 576.269 576.801 577.146 577.498 577.744 578.204 578.425 578.696 578.971 579.175 579.462 579.593 579.775 579.926 580.068 580.217 580.201 580.359 580.338 580.315 580.406 580.354 580.367 580.18 579.972 579.766 579.721 579.872 579.876 579.84 579.923 579.928 579.959 579.992 580.068 580.068 580.201 580.172 580.067 579.953 579.844 579.824 579.712 579.692 579.526 579.433 579.424 579.282 579.265 579.234 579.083 578.969 578.774 578.698 578.614 578.51 578.364 578.314 578.227 578.141 578.008 577.803 577.677 577.475 577.278 577.178 576.978 576.467 576.095 575.398 575.287 575.034 574.739 574.631 574.436 574.422 574.299 574.116 573.86 573.609 573.518 573.482 573.252 573.102 572.987 572.834 572.659 572.531 572.599 572.454 572.327 572.238 572.116 571.949 571.812 571.73 571.55 571.193 571.02 571.093 570.849 570.805 570.734 570.915 570.906 570.762 570.864 570.565 570.392 570.321 570.089 569.834 569.673 569.467 569.184 568.912 568.76 568.803 568.475 568.388 568.413 568.423 568.295 568.256 568.412 568.202 567.741 567.74 567.492 567.344 567.209 566.965 567.204 567.198 567.489 567.946 568.383 568.533 568.627 568.693 568.738 568.791 568.745 568.773 568.717 568.616 568.508 568.536 568.397 568.336 568.18 568.181 567.962 567.971 567.897 567.857 567.847 567.838 567.851 567.801 567.825 567.756 567.789 567.735 567.726 567.66 567.71 567.813 567.742 567.728 567.751 567.656 567.688 567.701 567.658 567.7 567.691 567.738 567.818 567.76 567.82 567.703 567.772 567.742 567.703 567.779 567.869 567.834 567.802 567.833 567.81 567.808 567.884 567.964 568.024 568.222 568.227
504.5 504.835 505.145 505.526 505.994 506.434 506.962 507.906 508.94 509.871 510.52 512.021 513.018 513.705 514.689 515.169 515.946 516.626 517.203 517.705 518.165 518.464 518.765 518.946 518.484 518.278 518.53 518.97 520.271 520.993 521.56 522.015 522.346 522.495 522.781 522.909 523.136 523.269 523.406 523.319 523.379 523.54 523.882 524.147 524.391 524.864 525.138 525.281 525.459 525.716 525.816 525.992 526.283 526.581 526.768 527.138 527.518 528.069 528.373 528.802 529.201 529.401 529.611 529.934 530.344 530.625 530.764 531.068 531.209 531.731 531.842 532.128 532.023 532.102 532.163 532.244 532.209 532.38 532.848 533.329 534.114 534.792 535.513 536.162 537.118 537.764 537.928 537.666 536.868 538.146 539.317 540.056 540.931 541.735 542.307 542.67 543.022 543.471 543.839 544.386 544.889 545.495 545.913 546.076 546.412 546.629 546.95 547.345 547.888 548.379 548.833 549.195 549.681 550.257 550.919 551.384 551.787 552.135 552.388 552.536 552.593 552.752 552.769 552.878 552.92 553.14 553.398 553.874 554.267 554.567 554.828 555.437 555.445 555.531 555.737 556.16 556.697 557.033 557.441 558.141 558.487 559.276 560.41 561.104 561.744 562.387 562.748 562.86 563.368 563.844 564.205 564.981 565.373 565.81 566.335 566.4 566.717 567.164 567.842 568.107 568.635 569.063 569.542 569.897 570.444 570.954 571.25 571.563 571.867 572.175 572.343 572.612 573.054 573.294 573.586 574.026 574.456 574.893 575.223 575.628 575.929 576.269 576.634 576.948 577.341 577.69 577.972 578.365 578.488 578.85 579.131 579.291 579.474 579.652 579.782 579.874 580.009 580 580.053 580.06 580.286 580.032 580.076 579.952 579.719 579.673 579.649 579.745 579.762 579.875 579.801 579.886 579.964 579.985 580.031 580.04 580.002 580.021 580.097 580.079 579.886 579.839 579.728 579.425 579.31 579.288 579.152 579.132 579.341 579.117 578.971 578.943 578.726 578.771 578.797 578.795 578.455 578.204 578.059 578.092 578.053 577.772 577.707 577.566 577.392 577.237 576.829 576.594 576.176 575.777 575.346 575.136 574.87 574.726 574.486 574.44 574.307 574.188 573.827 573.558 573.419 573.288 573.195 573.059 572.934 572.846 572.688 572.566 572.441 572.26 572.045 571.933 571.82 571.655 571.616 571.696 571.49 571.383 571.054 570.813 570.7 570.633 570.621 570.578 570.137 570.213 570.161 570.181 570.292 570.223 570.049 569.771 569.574 569.475 569.11 568.929 568.719 568.389 568.327 568.252 568.261 568.292 568.247 568.178 568.243 568.326 567.967 567.638 567.246 567.323 567.228 567.053 566.724 566.829 567.19 567.495 567.97 568.189 568.372 568.442 568.454 568.577 568.576 568.65 568.668 568.604 568.427 568.333 568.334 568.256 568.18 568.024 567.93 567.891 567.849 567.789 567.859 567.826 567.876 567.844 567.909 567.847 567.756 567.792 567.781 567.768 567.808 567.806 567.752 567.674 567.701 567.711 567.699 567.52 567.623 567.63 567.618 567.624 567.656 567.711 567.722 567.702 567.722 567.682 567.721 567.672 567.731 567.738 567.76 567.81 567.747 567.805 567.721 567.859 567.71 567.879 568.101 568.155
503.894 504.077 504.499 504.75 505.28 505.939 506.602 507.194 508.336 509.08 510.232 511.427 512.227 513.068 513.935 514.515 515.311 515.955 516.883 517.424 517.695 518.056 518.239 518.26 517.934 518.027 518.246 518.821 520.01 520.82 521.474 521.805 522.059 522.162 522.375 522.704 522.987 523.041 523.275 523.079 523.028 523.265 523.587 523.768 524.29 524.554 524.771 524.936 525.069 524.909 525.244 525.396 525.603 525.685 526.113 526.262 526.548 527.229 527.618 528.02 528.499 528.71 528.86 529.192 529.408 529.614 529.882 530.207 530.407 530.811 530.95 531.22 531.336 531.589 531.488 531.378 531.601 531.765 532.043 532.88 533.505 534.416 535.452 536.001 536.649 537.2 537.118 536.411 536.925 538.055 538.874 539.878 540.673 541.196 541.567 542.126 542.636 543.023 543.457 543.934 544.51 544.906 545.246 545.682 545.867 546.278 546.683 547.217 547.722 548.075 548.515 548.85 549.369 549.773 550.442 550.918 551.346 551.749 552.006 552.181 552.364 552.423 552.523 552.595 552.785 552.998 553.18 553.343 553.669 554.052 554.274 554.26 554.88 554.75 555.024 555.625 556.129 556.593 556.94 557.172 558.093 559.197 559.693 560.37 560.927 561.303 561.38 561.989 562.685 563.279 563.593 563.7 564.268 564.758 565.192 565.697 566.04 566.596 567.295 567.893 568.168 568.588 569.208 569.717 570.248 570.587 570.959 571.424 571.72 572.022 572.38 572.557 572.899 573.201 573.495 573.903 574.252 574.691 574.958 575.179 575.574 576.005 576.298 576.561 576.798 577.075 577.42 577.889 578.122 578.546 578.658 578.846 579.192 579.486 579.625 579.679 579.775 579.831 579.895 579.733 579.667 579.621 579.678 579.498 579.413 579.486 579.506 579.616 579.694 579.746 579.68 579.684 579.793 579.751 579.866 579.777 579.898 579.843 579.862 579.899 579.783 579.727 579.575 579.291 579.206 579.127 579.081 579.042 579.073 578.935 578.905 578.925 578.801 578.685 578.625 578.342 578.192 578.033 577.964 577.967 577.821 577.62 577.507 577.467 577.229 577.143 576.534 576.351 576.015 575.727 575.466 575.323 574.863 574.529 574.392 574.261 574.148 573.872 573.653 573.367 573.14 573.127 572.995 572.855 572.694 572.457 572.417 572.335 572.145 571.917 571.82 571.476 571.396 571.253 571.326 571.208 571.126 571.072 570.807 570.591 570.585 570.511 570.346 570.232 569.957 569.714 569.76 569.62 569.804 569.888 569.823 569.506 569.255 568.872 568.844 568.656 568.31 568.13 568.029 568.045 568.226 568.242 568.186 567.998 568.071 568.119 567.788 567.438 567.206 567.08 567.011 566.953 566.654 566.758 567.079 567.501 568.003 568.173 568.251 568.345 568.271 568.329 568.407 568.504 568.414 568.481 568.379 568.34 568.316 568.237 567.995 568.001 567.826 567.793 567.778 567.814 567.812 567.837 567.928 567.808 567.799 567.687 567.65 567.592 567.703 567.709 567.641 567.656 567.733 567.565 567.578 567.607 567.605 567.436 567.473 567.627 567.599 567.624 567.645 567.682 567.683 567.693 567.733 567.685 567.671 567.589 567.658 567.591 567.657 567.642 567.653 567.653 567.65 567.688 567.693 567.93 568.049 568.091
503.284 503.717 504.127 504.315 504.791 505.252 505.831 506.464 507.28 509.039 509.911 510.733 511.511 512.494 513.052 513.809 514.723 515.3 516.283 516.704 517.006 517.294 517.156 516.894 516.93 517.154 517.916 518.669 519.797 520.566 520.973 521.372 521.649 521.826 521.995 522.253 522.276 522.594 522.708 522.622 522.512 522.565 522.814 523.196 523.556 523.76 524.272 523.891 524.206 524.409 524.443 524.656 524.857 524.88 524.9 525.436 525.636 526.146 527.007 527.42 527.705 527.999 528.341 528.477 528.61 529.019 529.263 529.483 529.842 529.942 530.204 530.471 530.629 530.726 530.686 530.805 530.916 531.19 531.687 532.447 533.105 533.941 534.93 535.812 536.475 536.792 536.218 536.006 536.739 537.709 538.61 539.419 540.05 540.388 541.126 541.754 542.313 542.67 543.033 543.487 544.018 544.469 544.822 545.193 545.603 546.142 546.51 546.954 547.426 547.708 548.188 548.515 548.981 549.443 550.079 550.551 551.008 551.43 551.855 552.037 552.15 552.282 552.417 552.536 552.675 552.836 553.006 553.174 553.223 553.109 553.427 553.387 553.247 553.932 554.215 554.683 555.128 555.315 555.795 555.826 556.619 557.87 558.53 559 559.421 559.255 559.731 559.918 560.71 561.682 562.069 563.174 563.649 564.018 564.594 565.019 565.559 566 566.669 567.06 567.622 567.959 568.533 569.071 569.694 570.209 570.555 571.127 571.385 571.926 572.24 572.438 572.734 573.166 573.493 573.728 574.131 574.3 574.824 575.103 575.391 575.77 576.003 576.376 576.839 577.11 577.357 577.784 578.092 578.448 578.678 578.873 579.162 579.397 579.547 579.656 579.723 579.782 579.661 579.492 579.283 579.321 579.244 579.086 579.236 579.266 579.466 579.54 579.679 579.628 579.596 579.476 579.68 579.718 579.693 579.696 579.776 579.826 579.874 579.856 579.934 579.839 579.577 579.49 579.198 579.012 578.988 578.906 578.693 578.661 578.619 578.616 578.671 578.605 578.39 578.03 577.855 577.859 577.779 577.574 577.452 577.336 577.314 577.238 577.004 576.766 576.471 576.125 575.797 575.637 575.266 575.005 574.733 574.493 574.125 573.982 574.105 573.95 573.508 573.188 573.01 572.94 572.849 572.752 572.495 572.261 572.153 572.084 571.794 571.606 571.364 571.33 571.165 571.012 570.963 570.936 570.777 570.53 570.349 570.413 570.325 570.15 570.096 569.777 569.648 569.441 569.281 569.127 569.207 569.11 569.316 569.07 568.872 568.569 568.29 568.328 568.223 567.974 567.932 567.965 568.03 568.006 568.029 567.913 567.779 567.883 567.775 567.305 567.059 566.938 566.98 566.867 566.553 566.62 566.912 567.523 567.854 568.057 568.121 568.226 568.209 568.22 568.284 568.316 568.333 568.264 568.221 568.207 568.098 568.019 567.943 567.88 567.746 567.72 567.757 567.818 567.649 567.716 567.751 567.742 567.712 567.645 567.487 567.628 567.52 567.632 567.529 567.528 567.505 567.514 567.669 567.58 567.458 567.501 567.566 567.554 567.571 567.575 567.626 567.635 567.626 567.677 567.657 567.677 567.608 567.655 567.661 567.588 567.76 567.654 567.689 567.655 567.643 567.564 567.646 567.86 568.025 567.968
502.812 503.076 503.496 503.856 504.255 504.718 505.123 506.107 507.143 508.216 508.936 509.534 510.479 511.527 512.109 512.924 513.704 514.483 515.421 516.175 516.515 516.454 516.461 516.423 516.672 517.044 517.805 518.967 519.682 520.37 520.78 521.115 521.368 521.513 521.831 521.827 522.044 522.02 522.155 522.139 521.888 521.786 522.233 522.534 523.23 523.235 523.527 523.618 523.651 523.771 524.072 524.047 524.115 524.149 524.427 524.574 525.174 525.737 525.963 526.312 526.745 526.951 526.929 527.536 527.523 527.803 528.25 528.534 528.662 529.19 529.252 529.549 529.729 529.886 529.951 530.003 530.337 530.776 531.319 531.879 532.692 533.726 534.473 535.204 535.987 536.139 535.281 535.731 536.651 537.487 538.163 538.876 539.619 540.127 540.758 541.391 541.804 542.43 542.735 543.208 543.715 544.005 544.479 544.823 545.334 545.786 546.204 546.69 547.179 547.485 547.965 548.266 548.647 549.12 549.608 549.998 550.512 551.031 551.537 551.821 551.953 552.122 552.346 552.425 552.377 552.366 552.403 551.871 551.903 551.638 551.586 551.972 552.125 552.444 553.03 553.107 553.22 553.671 554.211 554.989 556.019 557.055 557.644 558.152 558.418 558.675 559.017 559.359 560.25 561.025 561.826 562.674 563.039 563.41 563.839 564.4 564.97 565.496 566.046 566.362 567.022 567.719 568.115 568.786 569.275 569.616 570.33 570.914 571.226 571.635 572.193 572.52 572.758 573.116 573.518 573.749 574.061 574.305 574.684 574.856 575.272 575.641 575.927 576.207 576.609 576.992 577.334 577.709 577.955 578.286 578.388 578.828 579.119 579.062 579.244 579.242 579.401 579.392 579.342 579.155 578.878 578.898 578.821 578.966 579.039 579.152 579.297 579.454 579.447 579.435 579.388 579.352 579.383 579.513 579.595 579.571 579.61 579.642 579.725 579.779 579.727 579.593 579.453 579.212 579.008 578.899 578.854 578.694 578.633 578.487 578.481 578.628 578.46 578.5 578.304 577.846 577.693 577.603 577.564 577.451 577.347 577.245 577.194 577.167 576.899 576.639 576.375 575.83 575.6 575.406 575.158 574.91 574.601 574.36 574.016 573.926 573.82 573.858 573.553 573.242 573.006 572.725 572.601 572.43 572.117 571.718 571.746 571.72 571.406 571.313 571.314 571.146 571.038 570.949 570.786 570.727 570.395 570.246 570.106 569.824 570.003 569.805 569.56 569.476 569.426 569.196 569.021 568.75 568.667 568.751 568.58 568.715 568.606 568.185 567.917 567.983 567.866 567.76 567.784 567.927 567.868 567.882 567.84 567.749 567.573 567.658 567.631 567.14 566.956 566.805 566.841 566.871 566.544 566.553 566.827 567.337 567.692 567.896 567.971 568.036 568.075 568.134 568.169 568.237 568.125 568.108 568.115 568.066 567.964 567.982 567.894 567.839 567.738 567.622 567.739 567.702 567.605 567.609 567.554 567.574 567.547 567.442 567.471 567.459 567.439 567.392 567.415 567.395 567.337 567.372 567.443 567.48 567.461 567.447 567.497 567.569 567.581 567.557 567.568 567.611 567.622 567.659 567.682 567.651 567.601 567.658 567.592 567.628 567.54 567.592 567.632 567.576 567.582 567.586 567.576 567.704 567.765 567.949
502.395 502.794 503.001 503.463 503.688 504.284 504.842 505.868 506.732 507.651 508.216 509.248 510.081 511.026 511.684 512.603 513.299 514.175 515.191 515.393 515.777 515.484 515.631 515.984 516.272 516.767 517.705 518.674 519.382 519.91 520.335 520.627 520.741 520.949 521.287 521.2 521.062 521.283 521.379 521.207 521.041 520.932 521.262 521.737 522.14 522.447 522.6 522.909 522.953 523.142 523.19 523.323 523.336 523.433 523.464 523.739 524.163 524.366 524.892 525.236 525.582 525.785 525.98 526.235 526.623 526.77 527.047 527.683 527.985 527.917 528.39 528.856 528.963 529.195 529.328 529.372 529.682 530.125 530.836 531.465 532.358 533.316 534.136 534.668 535.202 535.223 534.688 535.785 536.517 537.407 538.108 538.496 539.078 539.641 540.46 540.926 541.486 541.974 542.466 542.818 543.216 543.627 544.099 544.61 545.058 545.529 546.053 546.592 547.032 547.305 547.634 548.065 548.521 549.046 549.348 549.678 550.368 550.954 551.361 551.578 551.737 551.943 552.14 552.077 551.718 551.591 551.108 550.655 550.93 550.746 551.063 551.187 551.396 551.665 551.88 551.858 552.182 552.536 553.557 554.399 555.224 555.789 556.805 556.907 557.042 557.414 557.799 558.385 558.578 559.645 560.808 561.766 562.343 562.385 563.109 563.756 564.224 564.83 565.56 566.141 566.828 567.305 567.903 568.313 568.831 569.227 569.851 570.407 570.82 571.281 571.795 572.387 572.676 573.009 573.451 573.812 574.111 574.372 574.697 575.007 575.277 575.461 575.845 576.258 576.597 576.934 577.233 577.689 577.878 578.133 578.394 578.615 578.804 578.947 579.095 579.109 579.243 579.284 579.166 579.037 578.737 578.791 578.778 578.875 579.018 579.074 579.166 579.262 579.382 579.211 579.208 579.14 579.144 579.284 579.374 579.383 579.437 579.471 579.648 579.676 579.505 579.452 579.38 579.127 578.804 578.839 578.727 578.653 578.492 578.577 578.403 578.386 578.314 578.155 578.002 577.742 577.636 577.429 577.427 577.31 577.24 577.148 577.198 577.11 576.829 576.406 576.031 575.556 575.336 574.907 574.708 574.523 574.479 574.118 573.989 573.721 573.551 573.598 573.248 572.956 572.758 572.542 572.321 572.166 571.756 571.718 571.513 571.338 571.143 571.008 570.974 570.885 570.693 570.776 570.632 570.402 570.171 569.987 569.891 569.683 569.403 569.351 569.254 569.088 568.984 568.947 568.865 568.369 568.124 567.916 567.934 568.219 568.042 568.01 567.622 567.578 567.576 567.447 567.516 567.588 567.631 567.638 567.682 567.64 567.476 567.466 567.435 566.958 566.914 566.724 566.779 566.498 566.327 566.692 566.786 567.281 567.662 567.722 567.802 567.842 567.839 567.955 567.967 567.956 567.96 567.914 567.862 567.838 567.738 567.774 567.781 567.786 567.771 567.521 567.599 567.57 567.497 567.391 567.438 567.361 567.399 567.373 567.4 567.42 567.365 567.355 567.283 567.357 567.375 567.328 567.316 567.394 567.43 567.5 567.524 567.474 567.558 567.613 567.63 567.569 567.569 567.602 567.595 567.583 567.595 567.624 567.555 567.567 567.533 567.584 567.597 567.579 567.537 567.533 567.57 567.618 567.75 567.836
501.653 502.13 502.414 502.83 503.296 503.841 504.408 505.453 506.194 506.599 507.15 507.971 508.815 509.744 510.448 511.415 512.452 513.216 513.577 514.143 514.445 514.571 514.821 515.322 516.069 516.75 517.95 518.564 519.066 519.551 519.8 520.226 520.253 520.506 520.654 520.699 520.652 520.791 520.718 520.617 520.395 520.64 520.705 521.121 521.571 521.891 522.006 522.376 522.386 522.402 522.536 522.548 522.574 522.794 522.708 522.941 523.221 523.659 523.965 524.615 524.599 525.074 525.128 525.356 525.595 526.054 526.22 526.495 527.081 527.289 527.404 527.843 527.917 528.104 528.234 528.438 528.945 529.388 530.293 530.891 531.919 532.568 533.214 533.975 534.445 534.339 534.558 535.913 536.706 537.173 537.655 538.039 538.636 539.165 539.937 540.699 541.079 541.654 542.113 542.571 543.033 543.439 543.958 544.534 544.88 545.34 545.866 546.306 546.708 547.074 547.482 547.723 548.112 548.403 548.787 549.453 550.106 550.567 551.069 551.296 551.496 551.625 551.359 551.324 550.749 550.073 550.022 549.926 549.947 550.278 550.405 550.42 550.506 550.662 550.84 551.005 551.101 551.681 552.316 553.422 553.921 554.671 554.979 555.43 556.369 556.592 557.012 557.466 558.093 559.201 560.682 561.545 562.137 562.378 562.951 563.653 564.309 564.74 565.483 566.146 566.824 567.242 567.727 568.183 568.577 568.831 569.393 569.906 570.387 571.056 571.495 572.271 572.807 573.201 573.625 573.912 574.261 574.578 574.75 575.075 575.321 575.617 576.026 576.365 576.658 576.924 577.315 577.687 577.878 578.146 578.388 578.68 578.72 578.728 578.99 578.898 578.825 578.567 578.445 578.3 578.418 578.484 578.622 578.858 578.945 579.017 578.959 579.008 578.919 578.864 578.726 578.744 578.973 579.063 579.123 579.302 579.467 579.495 579.447 579.372 579.292 579.198 579.106 578.983 578.829 578.683 578.623 578.57 578.46 578.288 578.313 578.14 578.033 577.887 577.735 577.576 577.356 577.283 577.245 577.176 577.001 576.884 576.932 576.727 576.456 576.096 575.792 575.487 574.991 574.647 574.389 574.172 574.04 573.957 573.868 573.708 573.442 573.336 573.011 572.784 572.619 572.24 571.973 571.914 571.662 571.485 571.25 571.107 571.004 570.9 570.721 570.482 570.389 570.401 570.168 570.061 569.701 569.624 569.307 569.281 569.097 568.993 568.796 568.631 568.544 568.403 568.328 567.984 567.774 567.557 567.762 567.772 567.673 567.57 567.497 567.394 567.233 567.322 567.335 567.256 567.432 567.514 567.486 567.451 567.384 567.259 567.261 566.806 566.57 566.602 566.655 566.278 566.139 566.294 566.893 567.135 567.45 567.643 567.675 567.757 567.624 567.691 567.775 567.793 567.822 567.859 567.761 567.77 567.638 567.736 567.741 567.703 567.642 567.492 567.381 567.357 567.417 567.404 567.314 567.302 567.378 567.471 567.359 567.381 567.303 567.286 567.285 567.258 567.228 567.297 567.357 567.388 567.39 567.399 567.474 567.511 567.508 567.486 567.505 567.561 567.566 567.586 567.553 567.538 567.646 567.593 567.495 567.483 567.532 567.557 567.479 567.492 567.437 567.408 567.438 567.476 567.598 567.764
501.57 501.881 502.285 502.667 503.1 503.634 504.606 505.197 505.948 506.478 506.852 507.446 508.424 509.347 510.13 510.983 511.521 512.388 512.88 513.254 513.782 514.13 514.554 515.234 515.911 516.946 517.867 518.541 518.965 519.265 519.605 519.73 519.79 520.043 520.057 519.907 520.014 519.927 519.689 519.617 519.372 519.335 519.828 520.193 520.613 520.825 520.977 520.976 521.481 521.52 521.505 521.548 521.698 521.607 521.88 522.017 522.221 522.499 522.871 523.099 523.656 523.72 524.044 524.282 524.615 524.89 525.24 525.684 525.977 526.489 526.674 526.893 527.255 527.62 527.81 528.141 528.363 529.027 529.533 530.459 531.391 531.708 532.42 533.211 533.759 533.814 534.408 535.833 536.493 536.831 537.331 537.865 538.288 538.868 539.482 540.282 540.743 541.243 541.879 542.442 542.872 543.298 543.768 544.265 544.744 545.188 545.672 546.144 546.515 546.854 547.203 547.447 547.637 547.85 548.499 549.315 550.099 550.448 550.911 551.276 551.174 550.885 550.639 550.185 549.971 549.669 549.514 549.571 549.681 549.778 549.975 550.098 550.123 550.128 550.329 550.399 550.698 551.341 551.812 552.483 553.219 553.999 554.372 554.957 555.445 555.863 556.808 557.202 558.041 558.317 560.531 561.48 561.969 562.408 562.845 563.693 564.239 564.941 565.653 566.318 566.87 567.269 567.401 567.757 568.057 568.161 568.591 569.347 569.862 570.554 571.216 571.869 572.698 573.269 573.686 573.912 574.254 574.59 574.914 575.212 575.531 575.811 576.191 576.471 576.709 577.128 577.507 577.772 578.046 578.22 578.377 578.439 578.413 578.371 578.445 578.337 578.311 578.18 578.124 578.128 578.299 578.431 578.591 578.755 578.865 578.91 578.953 578.939 578.631 578.581 578.526 578.639 578.976 578.952 579.133 579.272 579.359 579.376 579.231 579.084 579.144 579.023 578.884 578.743 578.662 578.612 578.569 578.453 578.46 578.304 578.113 578.018 577.803 577.569 577.408 577.27 577.206 577.054 577.018 577.061 576.959 576.778 576.764 576.594 576.252 575.983 575.519 575.176 574.775 574.333 574.123 573.967 573.761 573.774 573.737 573.514 573.296 572.998 572.619 572.415 572.092 571.823 571.716 571.485 571.584 571.295 571.042 570.862 570.775 570.612 570.383 570.208 570.224 570.114 569.873 569.539 569.504 569.382 569.08 568.985 568.882 568.662 568.421 568.229 568.038 567.9 568.022 567.727 567.389 567.283 567.354 567.37 567.354 567.275 567.342 567.164 567.145 567.17 567.168 567.138 567.287 567.408 567.44 567.35 567.274 567.036 566.991 566.589 566.433 566.379 566.53 566.195 566.004 566.233 566.695 567.108 567.316 567.518 567.527 567.612 567.565 567.658 567.638 567.665 567.703 567.729 567.685 567.571 567.492 567.611 567.5 567.39 567.351 567.271 567.279 567.219 567.274 567.277 567.277 567.202 567.249 567.275 567.229 567.308 567.241 567.309 567.268 567.336 567.328 567.419 567.332 567.339 567.332 567.366 567.411 567.485 567.48 567.498 567.462 567.475 567.453 567.555 567.508 567.443 567.611 567.545 567.544 567.484 567.478 567.543 567.49 567.434 567.392 567.396 567.384 567.487 567.662 567.717
500.486 501.009 501.587 502.15 502.85 503.48 504.057 504.661 505.349 505.779 506.16 506.855 507.674 508.32 509.08 509.975 510.652 511.285 511.537 512.201 512.761 513.442 514.138 514.984 515.924 516.669 517.452 517.918 518.466 518.745 518.831 519.05 519.16 518.883 519.006 519.045 518.959 518.822 518.728 518.359 518.402 518.6 518.645 519.213 519.654 519.785 520.32 520.399 520.695 520.899 520.991 520.851 521.024 521.014 521.021 521.386 521.552 521.722 522.056 522.453 522.439 522.646 522.996 523.333 523.611 524.147 524.394 524.844 525.096 525.518 525.865 526.254 526.772 527.124 527.478 527.694 528.031 528.528 529.077 529.724 530.26 530.827 531.27 532.096 532.625 533.56 534.885 535.488 536.041 536.541 536.984 537.486 537.805 538.596 539.394 539.875 540.359 540.981 541.587 542.072 542.499 543.068 543.657 544.076 544.507 545.058 545.513 545.963 546.296 546.668 546.929 547.185 547.324 547.737 548.299 549.175 549.822 550.449 550.721 550.886 550.485 550.13 549.59 548.897 548.734 549.108 549.004 549.038 549.119 549.259 549.389 549.374 549.637 549.621 549.706 549.916 550.335 550.869 551.309 551.949 552.398 553.185 553.652 554.217 554.548 555.283 555.773 556.768 557.291 559.1 560.651 561.379 561.857 562.379 562.852 563.512 564.084 564.78 565.537 566.075 566.432 566.813 567.011 567.351 567.583 567.766 568.387 568.865 569.55 570.348 570.823 571.562 572.565 573.308 573.627 573.948 574.312 574.727 574.949 575.381 575.615 576.027 576.284 576.594 576.85 577.379 577.585 577.946 578.145 578.38 578.381 578.448 578.32 578.354 578.17 578.049 577.877 577.905 577.967 578.067 578.284 578.344 578.509 578.65 578.765 578.855 578.797 578.614 578.533 578.37 578.352 578.354 578.533 578.792 578.904 578.788 578.847 578.896 578.843 578.746 578.704 578.787 578.567 578.588 578.527 578.537 578.508 578.388 578.258 578.184 577.945 577.674 577.51 577.328 577.233 577.093 576.946 576.915 576.853 576.839 576.692 576.646 576.425 576.202 575.753 575.63 575.316 574.867 574.447 574.05 573.876 573.748 573.491 573.502 573.388 573.077 572.826 572.5 572.281 572.041 572.03 571.794 571.541 571.316 571.332 571.337 570.919 570.674 570.507 570.398 570.241 569.949 569.878 569.677 569.419 569.273 569.323 569.091 568.888 568.618 568.472 568.243 568.011 567.774 567.679 567.678 567.567 567.387 567.124 566.977 566.95 567.052 567.048 567.093 567.04 567.017 566.945 567.028 566.895 567.096 567.185 567.208 567.312 567.192 567.136 566.967 566.656 566.454 566.234 566.237 566.178 565.958 566.074 566.313 566.607 566.903 567.155 567.439 567.467 567.434 567.5 567.548 567.571 567.619 567.646 567.652 567.549 567.43 567.397 567.347 567.346 567.278 567.237 567.29 567.24 567.247 567.173 567.233 567.165 567.216 567.203 567.25 567.252 567.287 567.226 567.24 567.228 567.427 567.381 567.292 567.324 567.315 567.223 567.308 567.397 567.408 567.415 567.358 567.416 567.456 567.509 567.567 567.609 567.538 567.507 567.468 567.444 567.458 567.469 567.498 567.489 567.407 567.43 567.274 567.395 567.416 567.553 567.656
500.185 500.749 501.493 502.164 502.636 503.14 503.793 504.364 504.926 505.456 505.843 506.345 507.06 507.92 508.733 509.323 510.047 510.627 511.457 511.855 512.513 513.044 513.889 514.873 515.48 516.377 516.92 517.446 518.023 518.302 518.605 518.635 518.642 518.588 518.588 518.58 518.571 518.362 518.056 517.86 517.904 517.898 518.076 518.424 518.736 519.055 519.191 519.527 519.776 519.87 520.178 520.046 520.024 520.01 520.101 520.316 520.732 520.781 520.975 521.017 521.491 521.662 521.971 522.475 522.826 523.143 523.633 523.994 524.385 524.675 525.242 525.656 526.078 526.399 526.869 527.293 527.571 527.995 528.617 529.23 529.824 530.433 531.246 532.245 533.211 534.164 534.79 535.178 535.763 536.171 536.562 536.815 537.411 538.149 538.885 539.208 539.929 540.643 541.155 541.712 542.203 542.893 543.374 543.804 544.348 544.732 545.127 545.458 545.902 546.244 546.506 546.693 547.119 547.602 548.002 548.825 549.434 549.649 549.649 549.282 548.899 548.645 548.519 548.077 548.083 548.359 548.559 548.598 548.647 548.825 549.032 549.108 549.217 549.349 549.434 549.671 549.986 550.112 550.589 551.046 552.013 552.557 553.113 553.599 553.938 554.451 555.456 556.27 557.344 558.954 560.566 561.452 561.76 562.175 562.88 563.456 564.175 564.733 565.386 565.872 566.315 566.422 566.689 567.03 567.217 567.52 567.925 568.388 568.713 569.527 570.473 570.969 571.948 572.687 573.407 573.922 574.408 574.781 575.164 575.438 575.801 576.161 576.333 576.619 577.009 577.387 577.674 577.994 578.277 578.343 578.278 578.163 577.939 577.785 577.82 577.562 577.47 577.459 577.608 577.81 577.927 578.094 578.308 578.558 578.525 578.566 578.456 578.377 578.218 578.002 578.133 578.183 578.278 578.409 578.533 578.49 578.436 578.472 578.405 578.462 578.454 578.541 578.434 578.522 578.451 578.535 578.415 578.333 578.142 577.962 577.87 577.617 577.314 577.173 576.931 577.207 576.935 576.789 576.481 576.461 576.324 576.147 575.913 575.745 575.496 575.001 574.78 574.557 574.034 573.858 573.678 573.576 573.386 573.126 572.955 572.644 572.293 571.855 571.507 571.672 571.723 571.61 571.433 571.265 571.122 570.897 570.695 570.36 570.08 569.936 569.941 569.763 569.498 569.298 569.091 569.029 568.982 568.716 568.624 568.579 568.189 567.925 567.595 567.38 567.294 567.352 567.236 566.846 566.921 566.871 566.726 566.706 566.889 566.874 566.795 566.79 566.739 566.691 566.817 566.96 567.035 567.071 567.126 567.08 566.999 566.88 566.442 566.235 566.103 566.02 565.964 565.812 566.119 566.303 566.634 566.863 567.058 567.195 567.397 567.427 567.385 567.434 567.523 567.596 567.624 567.557 567.468 567.357 567.358 567.203 567.135 567.121 567.045 567.143 567.149 567.222 567.146 567.166 567.16 567.111 567.191 567.154 567.213 567.255 567.315 567.281 567.205 567.289 567.281 567.261 567.4 567.283 567.331 567.381 567.352 567.371 567.373 567.417 567.4 567.365 567.496 567.512 567.529 567.483 567.544 567.545 567.408 567.494 567.386 567.477 567.411 567.417 567.447 567.297 567.272 567.285 567.461 567.654
500.068 500.789 501.396 502.079 502.586 502.848 503.302 503.891 504.632 504.967 505.368 505.887 506.683 507.227 508.135 508.647 509.374 510.118 510.569 511.121 511.83 512.456 513.529 514.229 514.795 515.773 516.467 517.002 517.394 517.624 517.712 517.826 517.884 517.831 517.802 517.655 517.548 517.593 517.003 516.961 517.224 517.131 517.222 517.276 517.354 517.935 518.149 518.583 518.826 518.95 518.915 519.057 519.208 519.049 519.108 519.467 519.556 519.96 520.405 520.601 520.768 521.099 521.458 521.658 522.245 522.6 522.991 523.457 523.886 524.064 524.518 524.997 525.319 525.755 526.254 526.799 527.099 527.634 528.127 528.755 529.642 530.595 531.298 532.258 533.29 534.179 534.392 534.747 535.296 535.721 536.056 536.275 536.723 537.369 538.081 538.786 539.618 540.337 540.747 541.46 542.131 542.621 543.06 543.588 544.117 544.522 544.679 544.961 545.493 545.809 546.049 546.479 546.951 547.32 547.673 548.106 548.363 548.413 548.053 548.095 547.955 547.743 547.723 547.579 547.808 548.082 548.237 548.382 548.339 548.459 548.621 548.785 548.807 549.013 548.958 549.081 549.227 549.705 550.298 550.992 551.529 552.161 552.741 553.227 553.404 554.066 554.883 556.186 557.584 559.375 560.56 561.187 561.626 561.914 562.368 562.806 563.336 563.966 564.678 564.966 565.475 565.835 566.079 566.444 566.971 567.107 567.419 567.82 568.545 569.245 570.055 570.801 571.519 572.382 572.941 573.618 574.075 574.635 575.089 575.41 575.799 576.102 576.515 576.908 577.207 577.429 577.77 578.121 578.272 578.126 578.099 577.885 577.653 577.487 577.314 577.303 577.211 577.321 577.416 577.656 577.808 577.976 578.198 578.302 578.361 578.432 578.263 578.073 578.011 577.86 577.909 578.1 578.07 578.048 577.912 578.016 577.97 577.995 578.135 578.211 578.202 578.011 577.941 578.138 578.091 578.028 577.956 577.901 577.758 577.566 577.446 577.28 577.108 576.836 576.671 576.48 576.469 576.405 576.318 576.118 576.021 575.846 575.726 575.345 575.104 574.74 574.488 574.001 573.846 573.695 573.583 573.24 573.037 572.978 572.619 572.044 571.722 571.311 571.233 571.272 571.352 571.301 571.144 571.031 570.943 570.674 570.382 570.085 569.807 569.576 569.464 569.311 569.025 568.917 568.891 568.896 568.634 568.366 568.295 568.179 567.824 567.555 567.214 567.142 567.078 566.901 566.905 566.442 566.473 566.633 566.494 566.511 566.512 566.614 566.572 566.53 566.539 566.603 566.701 566.773 566.898 566.87 567.053 566.905 566.834 566.704 566.255 566.086 565.909 565.803 565.641 565.536 565.938 566.113 566.519 566.851 567.047 567.135 567.212 567.306 567.241 567.302 567.358 567.479 567.438 567.489 567.43 567.362 567.318 567.244 567.091 567.11 567.086 567.109 567.066 567.177 567.21 567.122 567.162 567.108 567.223 567.191 567.254 567.284 567.414 567.339 567.33 567.266 567.202 567.208 567.249 567.239 567.343 567.317 567.275 567.259 567.357 567.314 567.338 567.372 567.413 567.444 567.41 567.458 567.405 567.495 567.435 567.42 567.362 567.434 567.377 567.453 567.323 567.249 567.213 567.341 567.228 567.564
499.642 500.254 500.896 501.16 501.851 502.521 502.847 503.326 503.875 504.27 504.843 505.352 505.965 506.519 507.072 507.98 508.834 509.552 510.169 510.836 511.466 512.279 513.141 513.967 514.911 515.566 516.051 516.667 516.902 517.308 517.38 517.467 517.495 517.528 517.453 517.313 517.187 517.274 517.058 516.788 516.788 516.905 516.684 516.629 516.672 517.019 517.469 517.741 518.054 518.025 518.142 518.265 518.218 518.49 518.464 518.516 518.785 519.341 519.751 519.648 520.135 520.477 520.837 521.078 521.363 521.966 522.342 522.706 523.205 523.513 523.933 524.399 524.714 525.176 525.69 526.323 526.785 527.265 527.836 528.662 529.385 530.391 531.27 532.33 533.29 533.724 534.008 534.378 534.904 535.264 535.396 536.067 536.485 536.991 537.738 538.582 539.327 539.933 540.649 541.349 541.966 542.35 542.876 543.253 543.727 543.938 544.395 544.738 545.043 545.348 545.776 546.178 546.626 546.76 546.833 546.633 546.836 546.728 546.668 546.793 546.452 546.574 546.926 547.094 547.277 547.574 547.722 547.848 547.877 548.104 548.15 548.271 548.43 548.58 548.644 548.736 549.013 549.332 549.951 550.487 550.759 551.503 552.329 552.635 552.969 553.352 554.311 556.218 557.628 559.173 560.19 560.977 561.405 561.894 562.301 562.613 563.26 563.69 564.246 564.671 565.128 565.609 565.985 566.37 566.633 566.761 567.194 567.655 568.318 568.979 569.776 570.611 571.12 571.702 572.451 572.917 573.22 573.905 574.548 574.998 575.512 576.098 576.555 577.01 577.368 577.671 577.929 578.123 578.051 578.001 577.791 577.624 577.48 577.211 577.168 576.943 576.838 576.906 577.031 577.044 577.277 577.515 577.733 577.891 577.903 578.05 578.026 577.885 577.753 577.616 577.551 577.327 577.347 577.137 577.271 577.402 577.333 577.534 577.644 577.748 577.924 577.836 577.809 577.893 577.816 577.771 577.673 577.483 577.409 577.285 576.984 576.973 576.68 576.55 576.349 576.461 576.318 576.158 575.893 575.712 575.733 575.477 575.174 574.75 574.714 574.175 573.877 573.718 573.567 573.449 573.239 573.015 572.759 572.46 572.049 571.563 571.439 571.239 571.189 571.135 571.221 571.07 570.926 570.74 570.607 570.501 569.979 569.721 569.561 569.293 569.084 568.882 568.689 568.637 568.514 568.272 568.331 567.9 567.76 567.551 567.443 567.321 567.047 566.876 566.859 566.512 566.37 566.122 566.193 566.203 566.312 566.425 566.306 566.348 566.36 566.342 566.329 566.533 566.616 566.617 566.645 566.758 566.82 566.712 566.608 566.676 566.228 565.791 565.563 565.516 565.361 565.395 565.763 566.145 566.557 566.73 566.861 567 567.082 567.096 567.134 567.172 567.277 567.251 567.292 567.346 567.293 567.276 567.284 567.063 567.052 567.074 567.083 567.108 567.012 566.909 567.002 567.156 567.172 567.13 567.072 567.132 567.165 567.196 567.253 567.317 567.336 567.163 567.18 567.263 567.278 567.326 567.232 567.249 567.294 567.262 567.274 567.28 567.281 567.379 567.387 567.347 567.359 567.407 567.358 567.272 567.388 567.401 567.319 567.313 567.317 567.235 567.325 567.21 567.176 567.136 567.106 567.357
499.35 500.1 500.808 501.091 501.739 502.226 502.603 503.047 503.555 504.118 504.575 505.04 505.558 506.251 506.933 507.67 508.363 508.942 509.876 510.504 511.159 512.013 512.967 513.54 514.388 515.197 515.7 515.995 516.405 516.517 516.712 516.812 516.947 516.86 516.915 516.846 516.809 516.749 516.765 516.625 516.485 516.338 516.02 515.896 515.554 515.294 515.464 516.192 516.863 517.056 516.784 517.073 517.395 517.364 517.752 518.134 518.546 518.917 519.146 519.491 519.93 520.114 520.586 520.928 521.222 521.551 521.882 522.248 522.665 523.079 523.679 524.05 524.518 525.116 525.515 526.187 526.524 527.238 527.684 528.35 529.129 530.147 531.005 532.033 532.927 533.114 533.418 533.881 534.383 534.697 535.063 535.718 536.1 536.796 537.494 538.233 539.003 539.588 540.235 540.937 541.398 541.904 542.344 542.766 543.079 543.501 544.14 544.583 544.812 545.078 545.543 545.759 546.089 546.261 546.011 545.958 545.745 545.813 545.931 546.059 546.034 546.223 546.514 546.669 546.907 547.143 547.319 547.46 547.608 547.935 547.953 548.031 548.203 548.416 548.457 548.602 548.551 549.056 549.491 550.093 550.614 551.275 552.061 552.283 552.566 553.23 554.909 556.105 557.035 557.935 559.411 560.833 561.192 561.621 561.953 562.26 562.859 563.349 563.738 564.274 564.697 564.932 565.305 565.618 565.786 565.943 566.424 567.063 567.713 568.098 568.999 569.881 570.419 571.047 571.584 572.271 572.761 573.266 573.819 574.463 575.202 575.784 576.38 576.855 577.308 577.614 577.789 577.831 577.871 577.671 577.321 577.128 576.985 576.832 576.728 576.513 576.432 576.474 576.654 576.839 577.006 577.252 577.407 577.636 577.595 577.705 577.837 577.771 577.795 577.675 577.36 577.06 576.732 576.778 576.747 576.685 576.84 577.089 577.234 577.449 577.45 577.472 577.519 577.546 577.487 577.451 577.346 577.202 577.157 576.844 576.633 576.608 576.488 576.233 576.065 576.035 575.984 575.719 575.545 575.25 575.124 574.928 574.626 574.587 574.192 574.041 573.78 573.689 573.502 573.254 573.094 572.748 572.507 572.295 571.899 571.335 571.253 571.292 571.152 571.041 570.973 570.859 570.692 570.371 570.312 570.221 569.596 569.418 569.29 568.955 568.602 568.542 568.417 568.237 568.087 567.871 567.741 567.549 567.371 567.327 567.105 566.952 566.651 566.573 566.467 566.306 566.09 566.073 566.103 566.047 566.107 566.176 566.114 566.164 566.116 566.158 566.27 566.328 566.434 566.469 566.601 566.601 566.634 566.644 566.546 566.476 565.962 565.544 565.256 565.22 565.113 565.392 565.805 566.071 566.368 566.622 566.791 566.841 566.974 567.001 567.046 567.145 567.21 567.167 567.139 567.222 567.144 567.111 567.052 566.953 567.036 566.947 566.879 566.874 566.854 566.947 567.001 567.079 567.225 567.098 567.23 567.238 567.203 567.224 567.323 567.28 567.302 567.264 567.237 567.271 567.237 567.274 567.149 567.152 567.199 567.146 567.169 567.179 567.247 567.323 567.384 567.294 567.315 567.318 567.27 567.26 567.325 567.309 567.361 567.317 567.294 567.314 567.301 567.231 567.158 567.045 567.055 567.145
498.616 499.011 499.692 500.346 500.571 501.137 501.471 501.993 502.358 502.936 503.634 504.177 504.704 505.469 506.162 507.015 507.63 508.402 508.901 509.984 510.717 511.741 512.532 513.104 513.956 514.725 515.269 515.608 515.964 516.19 516.321 516.521 516.59 516.688 516.64 516.67 516.566 516.517 516.439 516.358 516.093 515.967 515.827 515.755 515.375 515.025 514.97 515.426 515.784 516.212 516.534 516.826 517.106 517.266 517.448 518.031 518.471 519.038 519.541 519.724 520.074 520.301 520.614 520.856 520.979 521.476 521.838 522.165 522.385 522.951 523.425 523.881 524.442 525.018 525.448 525.954 526.327 526.71 527.14 528.103 529.13 529.895 530.816 531.836 532.246 532.471 532.908 533.424 533.807 534.187 534.76 535.31 535.753 536.6 537.271 537.995 538.563 539.256 539.963 540.504 540.919 541.461 541.954 542.351 542.64 543.249 543.824 544.296 544.416 544.869 545.181 545.393 545.414 545.14 545.172 544.921 544.874 544.87 545.052 545.325 545.606 545.875 545.964 546.206 546.507 546.706 547.024 547.096 547.196 547.323 547.44 547.662 547.817 547.872 548.011 548.229 548.374 548.788 549.353 549.62 550.029 550.534 551.059 551.396 552.128 553.036 553.935 555.021 556.377 557.123 558.162 559.65 560.499 561.14 561.506 561.875 562.497 562.794 563.353 563.957 564.229 564.789 565.003 565.255 565.607 565.801 566.213 566.659 567.439 568.023 568.804 569.689 570.086 570.808 571.128 571.92 572.332 572.725 573.404 573.718 575.024 575.721 576.258 576.577 577.04 577.433 577.519 577.687 577.451 577.231 577.087 576.967 576.791 576.645 576.456 576.329 576.295 576.315 576.435 576.646 576.685 576.852 577.087 577.052 577.278 577.266 577.377 577.458 577.358 577.089 576.73 576.542 576.191 575.967 575.986 576.008 576.038 576.043 576.432 576.752 576.896 576.941 577.064 577.188 577.039 576.969 576.934 576.769 576.666 576.551 576.357 576.243 576.186 576.042 575.827 575.64 575.515 575.411 575.245 574.955 574.808 574.624 574.368 574.198 573.956 573.751 573.624 573.36 573.03 573.183 572.969 572.552 572.166 572.046 571.769 571.39 571.173 571.102 570.968 570.847 570.734 570.595 570.463 570.33 570.072 569.833 569.582 569.19 569.033 568.771 568.367 568.229 568.05 567.961 567.635 567.462 567.369 567.258 567.12 566.896 566.847 566.763 566.489 566.315 566.314 566.036 565.805 565.779 565.8 565.863 565.94 565.902 565.954 565.956 565.984 566.025 566.15 566.176 566.269 566.398 566.41 566.414 566.552 566.437 566.431 566.277 565.684 565.37 565.166 565.175 564.954 565.119 565.446 565.935 566.227 566.417 566.591 566.663 566.717 566.835 566.946 567.024 567.176 567.15 567.115 567.05 567.082 567.035 566.956 566.999 567.07 566.966 566.696 566.759 566.767 566.848 567.014 567.019 567.041 567.056 567.124 567.116 567.15 567.017 567.118 567.219 567.064 567.165 567.251 567.192 567.19 567.2 567.11 567.184 567.176 567.187 567.141 567.082 567.245 567.332 567.316 567.299 567.4 567.328 567.242 567.252 567.217 567.233 567.245 567.29 567.295 567.291 567.228 567.212 567.114 567.037 567.011 567.085
498.106 498.521 499.349 499.853 500.175 500.603 501.079 501.53 501.961 502.514 503.374 504.046 504.777 505.337 505.975 506.75 507.517 508.177 508.924 509.486 510.419 511.391 512.186 513.01 513.67 514.233 514.766 515.097 515.377 515.813 515.982 516.128 516.213 516.255 516.297 516.294 516.296 516.199 516.018 515.919 515.765 515.615 515.674 515.566 514.85 514.575 514.757 515.293 515.742 516.375 517.166 517.666 518.072 518.6 518.96 519.144 519.43 519.753 520.071 520.187 520.28 520.685 520.826 520.981 521.313 521.714 522.075 522.498 522.795 523.168 523.523 523.955 524.339 525.011 525.313 525.771 526.036 526.252 527.003 528.185 528.883 529.684 530.65 531.389 531.805 532.116 532.645 532.979 533.334 533.889 534.468 535.043 535.639 536.394 537.263 537.698 538.273 538.848 539.52 540.023 540.484 541.01 541.679 542.09 542.408 543.025 543.493 543.774 544.129 544.525 544.751 544.795 544.349 544.488 544.056 544.276 544.427 544.496 544.535 545.023 545.249 545.509 545.67 545.923 546.298 546.334 546.621 546.858 546.941 547.09 547.218 547.399 547.485 547.569 547.767 547.832 548.025 548.581 548.924 549.155 549.343 549.767 549.787 550.69 551.602 552.175 553.309 554.754 555.454 557.18 558.084 559.424 560.396 560.886 561.3 561.801 562.061 562.517 563.038 563.523 563.953 564.277 564.449 564.613 564.923 565.31 565.644 566.092 566.96 567.461 567.883 568.628 568.962 569.621 570.015 570.87 571.382 572.082 572.741 573.331 574.119 574.892 575.608 576.215 576.513 577.068 577.206 577.138 577.048 576.978 576.75 576.568 576.324 576.209 575.949 575.905 575.815 575.85 576.004 576.084 576.316 576.44 576.475 576.845 576.869 576.777 576.831 576.889 576.967 576.588 576.318 576.124 575.872 575.596 575.771 575.842 575.923 576.024 576.223 576.468 576.626 576.792 576.911 576.941 576.755 576.722 576.816 576.45 576.336 576.111 576.116 575.927 575.726 575.645 575.551 575.263 575.207 574.977 574.954 574.682 574.458 574.128 574.039 573.915 573.664 573.432 573.304 573.155 572.965 572.748 572.571 572.266 571.959 571.775 571.584 571.352 571.08 570.997 570.851 570.749 570.61 570.504 570.377 570.008 569.794 569.55 569.282 569.076 568.439 568.341 567.896 567.674 567.608 567.429 567.271 567.107 566.938 566.913 566.753 566.556 566.488 566.481 566.347 566.181 565.904 565.874 565.629 565.63 565.689 565.701 565.743 565.842 565.8 565.836 565.84 565.89 565.961 566.02 566.048 566.173 566.171 566.206 566.29 566.335 566.199 565.901 565.54 565.184 564.886 564.963 564.79 565.06 565.457 565.916 566.148 566.313 566.429 566.535 566.631 566.649 566.758 566.949 566.973 567.059 567.055 567.004 566.922 566.817 566.806 566.874 566.873 566.769 566.619 566.62 566.688 566.727 566.859 566.963 566.947 566.962 567.019 567.077 567.072 566.954 567.079 567.094 567.226 567.174 567.148 567.211 567.073 567.132 567.083 567.133 567.082 567.097 567.176 567.121 567.158 567.183 567.199 567.261 567.257 567.287 567.149 567.107 567.198 567.151 567.169 567.209 567.308 567.229 567.196 567.143 567.2 567.061 566.781 566.984
497.283 497.911 498.348 498.688 499.007 499.749 500.328 500.742 501.162 501.825 502.794 503.651 504.221 504.965 505.678 506.398 507.097 507.606 508.481 509.377 510.386 511.141 511.684 512.397 512.987 513.534 513.96 514.072 514.586 514.902 515.385 515.492 515.7 515.868 516.021 516.072 516.088 515.979 515.836 515.697 515.664 515.586 515.569 515.461 514.608 514.307 514.606 515.399 516.501 517.242 517.9 518.349 518.663 519.125 519.483 519.749 520.018 520.192 520.44 520.426 520.538 520.787 520.945 521.166 521.447 521.832 522.191 522.58 522.86 523.227 523.568 523.935 524.29 525.04 525.259 525.541 526.018 526.688 527.382 528.132 528.83 529.605 530.472 531.04 531.41 531.882 532.318 532.728 533.132 533.687 534.398 534.814 535.428 536.225 536.837 537.345 537.743 538.328 538.989 539.382 539.899 540.493 541.332 541.772 542.261 542.852 543.218 543.519 543.946 544.086 544.05 543.844 543.743 543.634 543.64 543.7 543.826 543.845 544.073 544.431 544.79 545.159 545.461 545.681 545.775 545.884 546.123 546.483 546.619 546.801 546.933 547.073 547.166 547.269 547.206 547.404 547.523 547.865 548.105 548.459 548.862 549.044 549.367 550.135 550.937 551.989 553.081 554.214 554.785 555.659 556.898 557.834 559.02 559.977 560.523 560.966 561.715 562.177 562.748 563.084 563.462 563.826 564.226 564.498 564.892 565.266 565.638 566.157 566.739 567.135 567.633 568.255 568.873 569.404 569.98 570.708 571.053 571.913 572.532 573.153 573.534 574.118 574.991 575.66 575.882 576.367 576.692 576.58 576.585 576.523 576.21 575.934 575.907 575.673 575.574 575.447 575.365 575.438 575.571 575.536 575.881 576.151 576.15 576.305 576.338 576.438 576.43 576.328 576.083 576.376 575.986 575.826 575.68 575.417 575.271 575.308 575.216 575.415 575.651 575.889 576.112 576.442 576.072 575.821 576.088 575.896 576.011 575.744 575.767 575.555 575.373 575.378 575.242 575.091 575.014 574.852 574.762 574.672 574.398 574.276 574.243 573.949 573.821 573.665 573.449 573.273 573.122 572.968 572.811 572.5 572.229 571.983 571.682 571.455 571.255 571.091 570.99 570.798 570.62 570.637 570.591 570.455 570.153 569.781 569.516 569.238 569.014 568.589 568.163 567.748 567.539 567.423 567.22 567.161 566.949 566.7 566.546 566.644 566.553 566.354 566.071 566.105 566.028 565.866 565.565 565.594 565.543 565.529 565.476 565.53 565.603 565.638 565.697 565.693 565.632 565.781 565.875 565.908 565.942 565.98 566.074 566.076 566.085 566.048 566.103 565.697 565.46 565.087 564.695 564.842 564.79 564.869 565.348 565.752 565.912 566.146 566.171 566.382 566.498 566.616 566.675 566.821 566.836 566.862 566.886 566.84 566.872 566.626 566.815 566.863 566.818 566.65 566.654 566.78 566.653 566.757 566.815 566.869 567.015 566.955 566.971 567.095 567.002 567.024 567.076 567.035 567.135 567.129 567.117 567.138 567.027 567.027 567.076 567.03 567.001 567.006 567.08 567.108 567.045 567.123 567.175 567.285 567.209 567.259 567.066 567.111 567.081 567.147 567.194 567.209 567.188 567.269 567.092 567.127 567.084 566.973 567.045 566.946
496.417 496.876 497.455 498.116 498.714 499.445 499.626 500.339 500.851 501.965 502.723 503.415 503.893 504.673 505.39 506.151 506.769 507.6 508.453 509.4 510.191 510.942 511.516 512.164 512.713 513.183 513.466 513.771 514.075 514.55 514.837 515.063 515.369 515.535 515.701 515.76 515.907 515.793 515.478 515.484 515.569 515.523 515.497 515.095 513.906 513.904 514.464 515.963 516.717 517.506 518.473 518.807 519.124 519.435 519.718 520.032 520.26 520.476 520.719 520.957 520.929 521.055 521.284 521.543 521.598 521.882 522.245 522.687 522.837 523.081 523.415 523.924 524.307 524.79 525.023 525.529 526.12 526.751 527.362 528.083 528.628 529.355 530.187 530.582 530.99 531.658 531.996 532.533 532.882 533.468 533.979 534.438 535.058 535.814 536.295 536.735 537.313 537.964 538.419 538.94 539.493 540.116 541.022 541.459 542.015 542.667 543.007 543.317 543.24 542.873 542.696 542.749 542.737 542.947 542.712 543.07 543.216 543.449 543.728 543.936 544.384 544.63 545.213 545.431 545.458 545.524 545.77 546.184 546.268 546.508 546.674 546.788 546.902 547.021 547.141 547.075 547.26 547.58 547.873 547.967 548.117 548.451 548.522 549.493 550.663 551.834 552.647 553.302 553.961 554.911 555.8 556.857 557.938 558.888 560.244 560.7 561.483 562.025 562.708 563.153 563.311 563.807 564.215 564.702 564.99 565.33 565.902 566.2 566.496 566.731 567.3 567.801 568.348 568.753 569.463 569.884 570.39 570.895 571.335 571.817 572.36 572.876 573.443 573.655 574.327 574.637 575.055 575.69 576.05 575.942 575.804 575.55 575.377 575.203 575.1 574.972 575.011 575.115 575.167 575.204 575.379 575.454 575.474 575.697 575.861 575.849 575.764 575.462 575.053 575.086 575.065 574.818 574.97 574.868 574.853 574.835 574.932 575.138 575.173 575.559 575.614 575.678 575.717 575.552 575.566 575.626 575.706 575.551 575.352 575.402 575.18 575.043 574.88 574.726 574.769 574.767 574.475 574.351 574.124 573.906 573.767 573.598 573.487 573.351 573.186 573.086 572.949 572.755 572.43 572.024 571.814 571.677 571.428 571.145 570.982 570.792 570.691 570.543 570.487 570.329 570.164 570.196 569.842 569.476 569.291 568.923 568.426 567.971 567.887 567.464 567.211 567.051 566.957 566.764 566.531 566.461 566.376 566.23 566.076 566.016 565.795 565.668 565.589 565.482 565.325 565.275 565.315 565.366 565.363 565.393 565.415 565.538 565.435 565.537 565.543 565.703 565.734 565.81 565.785 565.839 565.897 565.916 565.96 565.909 565.94 565.803 565.311 564.745 564.638 564.657 564.708 564.905 565.324 565.522 565.749 565.996 565.973 566.238 566.359 566.409 566.598 566.653 566.696 566.735 566.727 566.607 566.568 566.607 566.663 566.563 566.565 566.634 566.582 566.707 566.716 566.722 566.61 566.629 566.873 566.829 566.914 566.967 566.948 566.956 567.037 567.021 567.051 567.097 567.131 567.094 567.019 567.073 566.96 566.983 566.975 567.104 567.048 567.083 566.997 567.096 567.039 567.081 567.072 567.081 567.06 567.038 567.059 567.061 567.14 567.12 567.119 567.122 567.096 566.951 567.019 567.045 567.033 566.981
495.072 496.34 496.589 497.491 498.173 498.673 499.153 499.924 500.737 501.405 502.145 503.076 503.765 504.291 505.025 505.823 506.698 507.614 508.19 508.993 509.743 510.415 511.037 511.558 512.072 512.375 512.694 513.051 513.479 513.81 514.139 514.513 514.933 515.016 515.241 515.349 515.367 515.487 515.454 515.471 515.533 515.547 515.351 515.057 513.801 514.419 514.99 516.27 517.088 517.934 518.671 518.971 519.268 519.585 519.854 520.109 520.332 520.636 520.847 521.09 521.205 521.315 521.483 521.771 521.82 521.992 522.375 522.555 522.769 523.092 523.489 523.948 524.338 524.657 524.981 525.635 526.162 526.739 527.523 528.178 528.667 529.237 529.875 530.292 530.895 531.39 531.863 532.313 532.627 533.055 533.511 534.102 534.692 535.308 535.843 536.37 536.947 537.549 538.003 538.458 539.151 540.111 540.865 541.289 541.845 542.412 542.6 542.754 542.147 541.894 541.757 541.688 541.794 541.891 542.178 542.535 542.884 543.233 543.553 543.795 543.995 544.33 544.777 545 545.053 545.193 545.438 545.621 545.855 546.028 546.15 546.3 546.473 546.523 546.668 546.728 546.802 547.074 547.086 547.273 547.571 547.473 547.671 548.589 549.471 551.026 551.782 552.558 553.329 554.262 555.086 555.528 556.191 557.261 559.247 560.228 561.045 561.699 562.275 562.691 563.147 563.798 564.263 564.769 565.119 565.453 566.004 566.41 566.629 566.939 567.401 567.744 568.209 568.539 569.193 569.556 570.108 570.427 571.146 571.325 571.964 572.614 572.953 573.177 573.703 574.186 574.632 575.487 575.735 575.626 575.422 575.12 575.176 574.848 574.674 574.64 574.725 574.684 574.755 575.11 575.106 575.157 575.292 575.077 574.987 575.117 575.216 574.915 574.563 574.316 574.408 574.381 574.336 574.372 574.453 574.517 574.571 574.751 575.038 575.006 575.144 575.358 575.407 575.115 575.245 575.095 575.101 574.749 574.715 574.556 574.251 574.247 574.346 574.205 574.28 574.002 573.861 573.756 573.803 573.591 573.356 573.356 573.288 573.131 572.85 572.654 572.682 572.406 572.074 571.915 571.729 571.352 571.207 571.031 570.759 570.498 570.308 570.238 570.175 569.952 569.801 569.731 569.464 569.112 568.578 568.484 567.962 567.53 567.328 567.287 567.082 566.706 566.665 566.451 566.37 566.315 566.177 565.967 565.658 565.723 565.668 565.566 565.429 565.292 565.211 565.175 565.233 565.305 565.284 565.187 565.179 565.342 565.282 565.354 565.431 565.485 565.597 565.62 565.587 565.663 565.734 565.789 565.762 565.794 565.737 565.578 565.191 564.668 564.521 564.625 564.556 564.905 565.325 565.436 565.618 565.77 565.937 566.043 566.304 566.249 566.328 566.446 566.471 566.461 566.457 566.384 566.459 566.324 566.565 566.585 566.533 566.57 566.514 566.583 566.759 566.623 566.72 566.757 566.803 566.79 566.784 566.931 566.818 566.925 566.974 566.993 567.03 566.973 566.996 566.987 566.994 566.935 566.958 566.88 566.843 566.918 566.922 567.013 566.9 566.946 567.008 567.048 567.02 566.986 566.962 566.986 566.995 567.021 567.089 567.035 567.016 567.037 566.987 566.94 567.073 567.056 566.994 566.744
492.777 493.772 494.933 495.818 496.622 497.405 498.549 499.065 500.203 500.993 502.084 502.74 503.528 504.15 504.936 505.831 506.646 507.42 508.129 508.821 509.438 510.101 510.825 511.166 511.651 512.064 512.317 512.63 513.006 513.371 513.849 514.067 514.474 514.766 514.91 515.017 515.198 515.191 515.379 515.512 515.658 515.7 515.566 515.499 514.789 514.964 516.053 516.748 517.371 518.234 518.679 519.086 519.421 519.69 519.929 520.253 520.39 520.899 521.04 521.256 521.513 521.793 521.797 522.005 522.098 522.254 522.641 522.538 522.795 523.159 523.566 523.913 524.198 524.632 525.002 525.492 526.185 526.751 527.315 528.059 528.516 529.161 529.644 530.298 530.696 531.047 531.565 531.953 532.306 532.763 533.231 533.774 534.356 534.882 535.279 535.953 536.601 537.122 537.633 538.168 538.969 539.839 540.404 540.966 541.48 541.946 542.057 541.505 541.048 540.786 540.762 540.859 540.833 541.139 541.676 542.302 542.661 542.987 543.5 543.706 543.82 544.024 544.372 544.642 544.774 544.929 545.164 545.322 545.65 545.733 545.823 545.948 545.784 545.932 546.072 546.379 546.521 546.825 546.896 546.996 547.177 547.267 547.457 548.16 549.238 550.681 551.597 551.966 552.705 553.34 554.177 554.887 555.64 556.522 557.834 559.05 560.522 561.181 562.134 562.572 563.075 563.77 564.164 564.695 565.193 565.699 565.98 566.426 566.848 567.003 567.454 567.886 568.213 568.447 568.837 569.306 569.66 570.024 570.287 570.539 570.817 571.223 571.769 571.943 572.111 572.554 572.852 573.463 574.344 574.429 574.405 574.405 574.406 574.323 574.295 574.239 574.332 574.416 574.326 574.232 574.261 574.573 574.612 574.547 574.355 574.4 574.336 574.321 573.983 573.921 573.864 573.886 573.696 573.855 573.876 573.868 574.182 574.296 574.434 574.343 574.588 574.727 574.886 574.693 574.686 574.561 574.396 574.244 574.165 574.194 574.004 573.941 574.095 574.094 573.93 573.889 573.71 573.616 573.466 573.378 573.298 573.077 572.936 572.936 572.747 572.497 572.211 572.075 571.707 571.411 571.376 571.178 571.146 570.684 570.265 570.148 569.961 569.738 569.754 569.659 569.471 568.98 568.89 568.667 568.264 567.835 567.689 567.233 566.847 566.782 566.786 566.458 566.329 566.373 566.279 566.142 565.844 565.761 565.581 565.423 565.412 565.398 565.105 565.13 565.117 565.069 565.047 564.983 565.177 564.999 565.076 565.033 565.197 565.32 565.32 565.351 565.518 565.529 565.458 565.462 565.632 565.574 565.635 565.622 565.589 565.388 564.742 564.416 564.328 564.433 564.588 564.826 565.277 565.461 565.475 565.767 565.861 565.909 565.93 566.05 566.148 566.241 566.337 566.431 566.295 566.229 566.204 566.323 566.528 566.547 566.478 566.472 566.528 566.508 566.53 566.52 566.508 566.582 566.657 566.677 566.703 566.705 566.777 566.842 566.769 566.952 567.015 566.967 567.027 567.017 566.907 566.922 566.939 566.849 566.843 566.904 567.004 566.948 566.905 566.844 567.054 566.888 566.828 566.854 566.881 566.909 566.938 566.962 566.911 567.02 566.908 566.953 566.915 566.826 566.745 567.004 566.987 566.902
491.635 492.391 493.583 494.617 495.537 496.589 498.003 499.076 500.002 500.943 501.768 502.6 503.54 504.155 504.918 505.887 506.599 507.283 507.904 508.484 509.037 509.676 510.243 510.722 511.198 511.392 511.643 512.143 512.512 512.826 513.112 513.576 513.836 514.076 514.253 514.472 514.672 515.029 515.493 515.743 516.053 516.139 516.405 516.443 516.248 516.472 517.109 517.323 517.824 518.173 518.591 519.095 519.559 519.777 519.943 520.28 520.56 520.842 521.193 521.263 521.594 521.951 521.996 522.127 522.241 522.307 522.496 522.633 522.947 523.245 523.643 523.95 524.212 524.609 524.874 525.339 525.985 526.569 527.078 527.747 528.366 529.006 529.535 530.171 530.547 530.926 531.345 531.66 532.105 532.366 532.788 533.349 533.599 534.239 534.972 535.345 535.988 536.695 537.507 538.063 538.576 539.506 540.202 540.686 541.105 541.259 540.892 540.541 540.08 540.128 540.27 540.222 540.512 540.996 541.415 541.891 542.545 543.155 543.446 543.623 543.854 544 544.2 544.451 544.657 544.861 545.061 545.338 545.461 545.466 545.487 545.443 545.727 545.973 546.185 546.242 546.25 546.408 546.365 546.575 546.617 546.734 547.019 547.713 548.751 549.583 550.148 550.979 551.889 552.551 553.245 553.768 554.317 555.433 556.864 558.452 559.546 560.464 561.279 562.141 562.719 563.554 564.087 564.74 565.163 565.584 566.231 566.503 566.771 567.031 567.367 567.704 568.027 568.26 568.664 568.971 569.333 569.65 569.853 570.17 570.243 570.456 571.019 571.352 571.629 571.902 572.612 573.211 574.007 574.166 574.138 573.977 574.02 573.947 574.119 574.167 574.108 574.152 573.937 573.721 573.966 573.803 573.726 573.708 573.389 573.261 573.642 573.61 573.401 573.418 573.42 573.286 573.273 573.37 573.39 573.452 573.753 573.856 574.086 574.09 573.99 574.041 574.236 574.35 574.452 574.022 573.9 573.889 573.663 573.638 573.581 573.532 573.694 573.689 573.572 573.515 573.508 573.555 573.246 573.054 572.942 572.827 572.67 572.574 572.234 572.159 571.907 571.545 571.268 571.156 570.909 570.844 570.529 570.323 570.05 569.858 569.732 569.56 569.348 569.205 569.031 568.816 568.427 568.133 567.704 567.413 567.101 566.911 566.548 566.417 566.205 566.133 566.071 566.054 566.005 565.814 565.627 565.465 565.45 565.306 565.15 564.999 564.992 564.937 564.919 564.941 564.971 565.015 564.936 564.911 564.921 565.005 565.083 565.083 565.227 565.299 565.388 565.329 565.283 565.395 565.439 565.52 565.469 565.449 565.429 565.133 564.557 564.443 564.214 564.204 564.387 564.892 565.131 565.282 565.415 565.576 565.707 565.834 565.795 565.88 565.947 566.038 566.175 566.113 566.178 566.109 566.118 565.99 566.066 566.255 566.338 566.368 566.346 566.472 566.506 566.432 566.538 566.614 566.597 566.633 566.658 566.769 566.685 566.884 566.998 566.977 566.947 566.955 566.887 566.999 566.9 566.853 566.793 566.716 566.781 566.751 566.907 566.903 566.946 566.846 566.775 566.716 566.726 566.799 566.891 566.814 566.831 566.951 567.028 566.997 566.884 566.771 566.791 566.677 566.802 566.852 566.878 566.835
490.294 491.301 492.538 493.791 494.569 495.64 497.491 498.481 499.74 500.544 501.564 502.342 503.268 504.098 504.725 505.514 506.246 506.744 507.663 508.295 508.77 509.377 509.748 510.401 510.861 511.118 511.588 511.798 512.22 512.486 512.867 513.321 513.461 513.694 513.937 514.18 514.561 515.091 515.495 515.818 516.142 516.334 516.561 516.841 516.88 517.201 517.389 517.695 517.907 518.112 518.444 518.893 519.487 519.89 520.28 520.45 520.678 520.962 521.397 521.682 521.801 522.221 522.169 522.273 522.398 522.442 522.535 522.836 522.972 523.284 523.613 523.952 524.232 524.526 524.895 525.338 525.885 526.541 527 527.379 528.253 529.014 529.62 530.007 530.399 530.902 531.24 531.599 531.915 532.237 532.414 532.678 533.271 533.647 534.34 535.125 535.922 536.432 536.996 537.652 538.352 539.154 539.698 540.1 540.5 540.075 539.52 539.399 539.286 539.391 539.685 539.976 540.375 540.727 541.288 541.925 542.709 543.124 543.468 543.644 543.804 543.908 544.108 544.358 544.514 544.664 544.83 545.046 545.041 545.127 545.055 545.08 545.127 545.443 545.591 545.603 545.723 545.666 545.779 545.685 545.929 546.24 546.775 547.469 548.36 549.189 550.146 550.815 551.552 552.379 552.934 553.673 554.186 555.067 556.396 557.485 559.048 559.68 561.11 561.559 562.086 562.717 563.706 564.48 565.148 565.544 566.054 566.487 566.701 566.941 567.213 567.613 567.931 568.16 568.487 568.912 569.258 569.475 569.765 570.02 569.884 569.982 570.318 570.861 571.254 571.14 571.156 571.95 572.882 573.208 573.325 573.538 573.383 573.38 573.598 573.435 573.407 573.429 573.449 573.336 573.284 573.252 573.061 573.044 572.898 572.745 572.863 573.018 572.855 572.83 572.844 572.873 572.847 572.868 572.91 573.01 573.318 573.506 573.514 573.527 573.545 573.476 573.549 573.733 573.63 573.368 573.089 572.794 572.816 572.974 573.138 573.223 573.375 573.326 573.353 573.267 573.311 573.212 572.972 572.945 572.788 572.591 572.45 572.258 572.08 571.801 571.596 571.237 571.084 570.751 570.61 570.506 570.289 569.938 569.677 569.456 569.261 569.127 569.045 568.754 568.416 568.093 568.148 567.686 567.221 566.85 566.599 566.324 566.165 566.087 565.9 565.804 565.83 565.569 565.517 565.447 565.348 565.168 565.167 565.054 564.942 564.805 564.795 564.828 564.836 564.793 564.775 564.842 564.828 564.744 564.8 564.896 564.913 564.991 565.144 565.174 565.228 565.204 565.084 565.183 565.26 565.293 565.33 565.223 565.282 564.935 564.361 564.188 563.994 564.117 564.762 564.783 565.031 565.24 565.379 565.492 565.575 565.715 565.863 565.761 565.896 565.873 565.954 566.184 566.082 565.995 565.999 566.13 566.15 566.131 566.3 566.323 566.341 566.394 566.432 566.548 566.519 566.513 566.46 566.619 566.662 566.743 566.646 566.759 566.845 566.859 566.896 566.875 566.783 566.83 566.768 566.805 566.776 566.71 566.729 566.817 566.775 566.783 566.716 566.868 566.696 566.667 566.75 566.729 566.703 566.564 566.638 566.751 566.841 566.81 566.555 566.687 566.655 566.292 566.723 566.872 566.766 566.668
489.721 490.486 491.541 492.723 493.917 495.319 496.692 498.211 499.551 500.289 501.316 502.369 503.297 503.93 504.6 505.279 505.993 506.785 507.415 508.024 508.595 508.903 509.322 510.014 510.506 510.86 511.117 511.377 511.76 512.065 512.249 512.539 512.805 513.229 513.615 514.189 514.598 515.049 515.412 515.779 516.105 516.373 516.796 516.932 517.086 517.354 517.6 517.793 517.944 518.058 518.368 518.883 519.563 520.124 520.572 520.766 521.074 521.279 521.72 521.815 522.123 522.277 522.454 522.42 522.602 522.649 522.679 522.846 523.04 523.253 523.619 523.949 524.162 524.451 525.018 525.399 525.839 526.602 527.082 527.671 528.242 528.847 529.39 529.718 530.281 530.756 531.229 531.553 531.882 532.041 532.199 532.378 532.83 533.546 534.246 534.961 535.509 535.955 536.62 537.341 538.136 538.692 539.031 539.325 539.461 538.618 538.765 538.781 538.838 539.11 539.409 539.682 540.04 540.571 541.5 542.014 542.541 543.069 543.467 543.579 543.58 543.779 544.034 544.217 544.361 544.547 544.76 544.891 544.864 544.927 544.77 544.605 545.017 545.225 545.442 545.516 545.428 545.52 545.497 545.601 545.918 546.013 546.755 547.523 548.15 548.62 549.512 550.316 550.984 551.606 552.268 552.84 553.401 554.79 555.869 556.84 557.694 558.584 559.118 560.775 561.407 562.501 563.253 564.095 564.633 564.973 565.793 566.202 566.246 566.43 566.8 567.208 567.461 567.859 568.319 568.554 569.062 569.17 569.192 569.135 569.1 569.117 569.704 570.489 570.423 570.151 570.49 570.956 571.9 572.689 572.85 573.062 573.08 573.087 573.245 573.127 573.268 573.17 573.27 572.995 572.853 572.873 572.989 572.713 572.526 572.633 572.486 572.559 572.453 572.417 572.434 572.466 572.628 572.535 572.589 572.757 573.07 573.228 573.158 573.243 573.191 573.066 573.024 573.048 572.755 572.637 572.732 572.675 572.591 572.581 572.545 572.717 572.855 573.15 573.146 573.147 573.078 572.835 572.751 572.732 572.42 572.14 571.93 571.698 571.651 571.54 571.129 570.851 570.616 570.497 570.236 569.9 569.624 569.437 569.279 569.168 568.998 568.755 568.559 568.288 568.158 567.855 567.5 567.42 566.926 566.56 566.342 566.104 565.879 565.679 565.594 565.467 565.287 565.296 565.193 565.174 565.093 564.992 564.854 564.799 564.731 564.633 564.611 564.593 564.639 564.713 564.687 564.749 564.604 564.627 564.606 564.718 564.826 564.74 564.913 565.032 565.067 564.946 564.958 565.046 565.023 565.112 565.114 565.044 564.967 564.528 564.174 563.96 564.096 563.996 564.247 564.643 564.908 565.096 565.327 565.287 565.477 565.595 565.773 565.767 565.923 565.827 565.902 566.089 566.065 565.816 566.013 566.003 566.061 566.075 566.269 566.246 566.315 566.308 566.357 566.401 566.417 566.484 566.437 566.645 566.623 566.67 566.787 566.792 566.783 566.849 566.797 566.831 566.78 566.765 566.72 566.723 566.666 566.709 566.657 566.647 566.732 566.633 566.66 566.669 566.659 566.62 566.521 566.657 566.681 566.522 566.563 566.623 566.78 566.7 566.341 566.443 566.424 566.295 566.774 566.852 566.624 566.582
487.659 488.921 490.441 491.874 492.771 493.769 495.423 497.016 498 499.167 500.413 501.813 502.683 503.314 504.138 504.913 505.484 506.246 507.126 507.661 508.117 508.476 508.993 509.53 510.013 510.41 510.671 511.041 511.367 511.602 511.779 512.113 512.537 513.145 513.514 514.16 514.619 514.971 515.276 515.714 516.003 516.316 516.665 516.88 517.131 517.351 517.631 517.851 518.066 518.252 518.652 519.128 519.624 520.116 520.862 521.073 521.34 521.601 521.921 522.042 522.314 522.487 522.59 522.639 522.755 522.837 522.784 522.878 523.021 523.373 523.516 523.817 524.143 524.617 524.925 525.351 525.959 526.604 527.226 527.897 528.313 528.683 529.19 529.561 529.999 530.654 531.056 531.375 531.644 531.939 532.068 532.108 532.555 533.46 534.11 534.776 535.319 535.883 536.352 536.965 537.678 538.236 538.529 538.24 537.766 537.926 538.167 538.372 538.687 538.927 539.118 539.259 539.697 540.424 541.23 541.706 542.229 542.789 543.003 543.262 543.301 543.599 543.748 544.041 544.176 544.219 544.258 544.426 544.582 544.485 544.674 544.625 544.61 544.742 544.797 544.868 544.805 544.844 544.842 544.887 545.195 545.518 546.37 547.081 547.739 548.187 548.951 549.574 550.127 551.078 551.717 552.26 553.143 554.086 555.542 556.462 557.025 557.933 558.917 560.169 561.448 562.089 562.273 563.478 564.378 565.119 565.392 565.835 566.024 565.99 566.065 566.4 567.274 567.693 568.14 568.251 568.468 568.613 568.573 568.661 568.759 568.892 569.18 569.978 569.974 569.829 569.937 570.422 570.909 571.832 572.249 572.621 572.749 572.697 572.773 572.71 572.547 572.435 572.348 572.099 572.138 572.298 571.956 571.685 571.744 571.673 571.478 571.68 571.793 571.806 571.815 571.898 571.741 572.007 572.106 572.24 572.583 572.641 572.745 572.763 572.562 572.553 572.549 572.392 572.278 572.171 572.218 572.19 572.174 572.189 572.157 572.299 572.452 572.645 572.805 572.789 572.682 572.457 572.478 572.414 572.009 571.811 571.583 571.36 571.164 571.014 570.74 570.638 570.258 570.183 569.944 569.549 569.196 569.082 568.967 568.7 568.506 568.392 568.114 567.961 567.71 567.52 567.325 567.034 566.741 566.397 566.027 565.857 565.585 565.39 565.218 565.067 565.109 564.955 564.851 564.857 564.781 564.614 564.521 564.57 564.543 564.403 564.453 564.485 564.494 564.579 564.563 564.518 564.563 564.516 564.598 564.529 564.562 564.524 564.671 564.753 564.693 564.766 564.775 564.902 564.954 564.949 564.948 564.869 564.86 564.153 563.886 563.916 563.823 563.922 564.118 564.529 564.811 565.068 565.174 565.186 565.425 565.517 565.627 565.756 565.725 565.711 565.742 565.857 565.679 565.699 565.818 565.9 565.949 566.084 566.156 566.219 566.315 566.347 566.356 566.367 566.459 566.468 566.437 566.508 566.633 566.599 566.726 566.756 566.768 566.71 566.713 566.68 566.677 566.65 566.632 566.57 566.601 566.598 566.551 566.729 566.709 566.637 566.735 566.57 566.512 566.456 566.502 566.536 566.533 566.439 566.414 566.352 566.639 566.267 566.24 566.267 566.401 566.5 566.842 566.821 566.713 566.72
486.891 487.615 489.305 490.541 491.714 493.025 494.618 495.988 497.515 498.843 500.076 501.196 502.156 503.128 504.007 504.626 505.194 506.033 506.894 507.429 507.857 508.198 508.659 509.202 509.619 510.081 510.396 510.73 510.97 511.328 511.334 511.798 512.312 512.93 513.492 514.02 514.562 514.829 515.312 515.683 516.039 516.323 516.464 516.813 517.186 517.43 517.725 518.065 518.219 518.474 518.771 519.169 519.833 520.383 520.772 521.345 521.609 521.823 522.121 522.219 522.495 522.599 522.739 522.788 522.888 522.89 522.811 523.048 523.118 523.276 523.441 523.731 523.985 524.437 524.752 525.445 526.108 526.625 527.308 527.861 528.344 528.511 528.912 529.403 529.91 530.444 530.913 531.21 531.41 531.777 531.89 531.914 532.535 533.324 534.163 534.692 535.065 535.654 536.245 536.65 537.072 537.288 537.155 536.999 537.082 537.48 537.796 538.03 538.376 538.62 538.656 539.006 539.487 540.183 540.908 541.516 542.1 542.226 542.603 542.837 543.043 543.239 543.639 543.833 544 544.042 544.094 544.166 544.294 544.29 544.315 544.338 544.282 544.375 544.238 544.264 544.281 544.279 544.459 544.612 545.149 545.355 545.967 546.874 547.56 548 548.637 549.041 549.909 550.645 551.374 551.929 552.664 553.427 554.267 554.952 555.544 556.11 557.426 558.384 559.643 560.565 561.134 561.658 562.484 563.034 563.676 564.474 565.202 565.478 565.836 566.126 566.578 567.348 567.594 567.817 567.879 568.068 568.03 568.174 568.21 568.339 568.628 569.561 569.274 569.034 569.11 569.264 570.114 571.009 571.61 571.922 571.88 572.054 572.003 572.059 571.764 571.62 571.413 571.621 571.846 571.5 571.415 571.275 571.34 571.29 571.273 571.386 571.539 571.552 571.52 571.691 571.654 571.712 571.834 572.178 572.07 572.168 572.346 572.39 572.176 572.103 572.083 572.118 571.789 571.799 571.673 571.714 571.68 571.684 571.937 571.991 572.214 572.406 572.565 572.489 572.252 572.13 571.93 571.702 571.448 571.228 571.039 570.825 570.679 570.588 570.332 570.216 570.107 569.776 569.213 569.014 568.845 568.692 568.494 568.136 567.889 567.921 567.64 567.358 567.188 567.047 566.912 566.74 566.298 565.991 565.708 565.56 565.297 565.096 564.949 564.835 564.809 564.834 564.769 564.683 564.404 564.271 564.283 564.248 564.184 564.237 564.214 564.306 564.374 564.318 564.392 564.485 564.482 564.378 564.35 564.47 564.416 564.447 564.46 564.46 564.49 564.643 564.675 564.769 564.74 564.827 564.794 564.78 564.52 564.03 563.832 563.571 563.705 563.897 564.268 564.597 564.785 564.899 565.01 565.153 565.401 565.566 565.706 565.794 565.78 565.713 565.682 565.615 565.612 565.59 565.716 565.787 565.883 566.025 566.137 566.239 566.271 566.272 566.23 566.295 566.307 566.283 566.359 566.371 566.408 566.4 566.451 566.613 566.764 566.684 566.54 566.571 566.547 566.52 566.528 566.499 566.554 566.595 566.619 566.623 566.714 566.653 566.575 566.484 566.404 566.389 566.349 566.177 566.24 566.245 566.325 566.266 566.152 566.276 566.269 566.41 566.438 566.388 566.757 566.783 566.673 566.748
485.774 486.99 488.836 489.84 491.258 492.291 493.762 494.954 496.081 497.909 499.298 500.042 501.083 502.676 503.507 504.169 504.728 505.569 506.335 507.042 507.476 507.965 508.264 508.73 509.218 509.529 509.975 510.295 510.611 510.302 510.972 511.515 512.12 512.605 513.471 513.969 514.303 514.731 515.315 515.722 515.875 516.188 516.465 516.791 517.142 517.392 517.799 518.191 518.383 518.637 518.911 519.334 519.84 520.315 520.772 521.284 521.656 521.848 522.139 522.415 522.553 522.711 522.714 522.796 522.917 522.876 522.888 523.004 523.097 523.235 523.408 523.665 523.97 524.304 524.636 525.322 525.975 526.746 527.311 527.805 527.919 528.383 528.813 529.207 529.791 530.285 530.761 530.913 531.285 531.572 531.815 531.995 532.635 533.366 534.068 534.601 535.039 535.356 535.605 535.908 536.151 536.254 535.716 536.455 536.776 537.097 537.638 537.89 538.133 538.29 538.568 538.839 539.169 539.923 540.7 541.294 541.456 541.737 542.019 542.296 542.597 542.964 543.297 543.521 543.453 543.663 543.86 543.903 543.933 544.027 544.131 544.219 544.2 544.191 544.105 544.117 543.966 543.976 544.149 544.44 544.63 545.043 545.645 546.181 546.944 547.302 547.834 548.606 549.008 549.798 550.331 551.127 551.699 552.16 553.327 554.466 555.098 555.638 557.007 558.245 559.287 560.168 560.675 561.474 562.056 562.397 563.204 563.717 564.777 565.245 565.502 565.879 566.315 567.243 567.484 567.305 567.133 567.316 567.719 567.703 567.661 567.543 568.173 569.141 568.774 568.472 568.688 568.705 569.68 570.271 570.876 571.121 571.446 571.344 571.338 571.301 571.19 571.173 570.982 570.97 571.156 570.992 570.673 570.659 570.658 570.628 570.672 570.677 570.644 570.716 570.895 571.024 570.926 571.1 571.254 571.311 571.485 571.542 571.608 571.636 571.518 571.689 571.661 571.42 571.461 571.336 571.209 571.193 571.389 571.387 571.578 571.69 571.876 572.023 572.172 572.132 571.918 571.639 571.158 570.693 570.245 570.035 570.08 569.942 569.922 569.877 569.879 569.667 569.34 569.074 568.824 568.533 568.397 568.241 568.034 567.767 567.475 567.521 567.489 567.088 566.83 566.63 566.447 566.318 566.009 565.639 565.365 565.169 565.072 564.908 564.727 564.559 564.539 564.502 564.55 564.544 564.213 564.146 564.094 564.102 564.101 564.146 564.185 564.125 564.264 564.35 564.346 564.269 564.26 564.253 564.271 564.372 564.418 564.363 564.36 564.451 564.594 564.507 564.5 564.512 564.685 564.788 564.689 564.615 564.428 563.859 563.54 563.516 563.624 563.742 564.113 564.561 564.741 564.861 565.033 565.287 565.415 565.579 565.695 565.78 565.781 565.58 565.627 565.591 565.481 565.394 565.612 565.69 565.774 565.859 566.073 566.215 566.196 566.242 566.358 566.301 566.288 566.306 566.407 566.321 566.445 566.335 566.56 566.657 566.64 566.535 566.335 566.508 566.45 566.483 566.499 566.502 566.574 566.588 566.554 566.5 566.576 566.612 566.532 566.462 566.43 566.403 566.245 566.132 566.028 565.968 565.948 566.074 566.05 566.123 566.379 566.385 566.27 566.499 566.627 566.699 566.665 566.641
485.155 486.086 487.522 488.874 490.379 491.117 492.564 493.544 495.58 497.255 498.394 499.89 500.679 502.237 503.078 503.856 504.699 505.355 506.148 506.759 507.252 507.612 508.042 508.45 508.978 509.267 509.516 509.913 510.167 509.954 510.61 511.368 512.106 512.839 513.451 513.932 514.212 514.704 515.15 515.592 515.909 516.146 516.416 516.754 517.133 517.518 518.022 518.246 518.488 518.9 519.232 519.621 520.271 520.541 520.995 521.444 521.702 521.862 522.198 522.296 522.405 522.594 522.643 522.817 522.834 522.83 522.877 522.904 523.064 523.196 523.401 523.686 523.878 524.209 524.737 525.48 526.158 526.598 527.114 527.438 527.842 528.203 528.607 529.016 529.627 530.117 530.406 530.704 531.067 531.352 531.751 532.06 532.646 533.208 533.801 534.311 534.827 534.851 534.985 534.843 534.576 534.534 534.892 535.636 536.08 536.599 537.16 537.529 537.742 538.046 538.32 538.569 539.106 539.678 540.407 540.855 541.034 541.364 541.598 541.902 542.196 542.589 543.003 543.214 543.265 543.466 543.559 543.668 543.79 543.869 543.972 543.936 543.957 543.838 543.801 543.601 543.54 543.668 543.831 543.97 544.284 544.713 545.238 546.153 546.593 546.837 547.457 548.132 548.96 549.216 549.862 550.713 551.523 552.01 552.551 554.272 554.996 555.666 556.822 557.529 559.099 559.506 560.098 560.438 561.059 561.532 561.982 562.642 563.385 563.849 563.905 565.006 565.624 566.229 566.446 566.605 566.665 566.884 567.476 567.45 567.082 566.996 567.514 568.389 568.534 568.032 567.79 568.17 568.601 569.438 569.811 570.417 570.378 570.433 570.489 570.371 570.184 570.279 570.121 570.209 570.242 570.195 570.157 570.175 570.056 570.167 570.121 570.192 570.464 570.363 570.54 570.691 570.839 570.817 570.98 571.092 571.176 571.271 571.34 571.288 571.323 571.367 571.223 570.929 570.732 570.577 570.635 570.54 570.691 571.031 571.206 571.397 571.448 571.771 571.856 571.422 570.92 570.659 570.235 569.929 569.7 569.489 569.549 569.415 569.45 569.434 569.35 569.146 568.904 568.6 568.441 568.089 567.948 567.73 567.659 567.506 567.392 567.29 567.043 566.913 566.601 566.262 566.099 565.913 565.635 565.382 565.061 564.869 564.585 564.49 564.441 564.191 564.201 564.113 564.045 564.073 563.877 563.942 564.008 563.976 564.013 564.069 564.073 564.114 564.109 564.267 564.36 564.264 564.242 564.193 564.171 564.2 564.32 564.234 564.21 564.352 564.417 564.409 564.342 564.422 564.609 564.669 564.601 564.341 564.137 563.617 563.354 563.599 563.658 563.58 564.26 564.662 564.782 564.955 565.104 565.271 565.393 565.491 565.582 565.738 565.714 565.48 565.444 565.469 565.413 565.385 565.514 565.699 565.764 565.938 566.169 566.115 566.185 566.225 566.197 566.33 566.292 566.326 566.281 566.233 566.359 566.401 566.255 566.306 566.303 566.233 566.105 566.274 566.371 566.385 566.363 566.463 566.581 566.582 566.46 566.543 566.526 566.499 566.439 566.299 566.227 566.204 566.126 566.008 565.771 565.87 565.919 566.031 566.113 566.42 566.468 566.354 566.336 566.414 566.506 566.669 566.655 566.605
484.686 485.366 486.446 487.216 489.163 490.682 491.638 493.585 495.279 496.679 498.408 499.589 500.64 501.811 502.833 503.559 504.485 505.067 505.709 506.2 506.569 507.216 507.482 507.927 508.434 508.547 508.387 509.052 509.709 510.413 510.863 511.455 512.049 512.677 513.349 513.79 514.114 514.503 514.859 515.334 515.676 515.853 516.17 516.47 516.805 517.354 517.964 518.34 518.781 519.038 519.414 519.793 520.276 520.814 521.115 521.477 521.82 521.937 522.091 522.238 522.353 522.463 522.448 522.549 522.6 522.644 522.689 522.903 522.981 523.205 523.315 523.559 523.799 524.191 524.693 525.502 526.058 526.503 526.911 527.221 527.668 528.014 528.409 528.82 529.448 529.898 530.117 530.596 530.846 531.081 531.465 532.047 532.656 533.113 533.754 534.277 534.576 534.359 533.974 533.87 533.692 533.809 534.035 534.934 535.519 536.219 536.846 537.159 537.415 537.793 538.023 538.505 538.832 539.462 540.017 540.5 540.907 541.175 541.351 541.567 541.976 542.48 542.799 542.67 542.853 543.086 543.266 543.345 543.449 543.356 543.642 543.551 543.735 543.629 543.404 543.321 543.287 543.383 543.557 543.74 544.046 544.521 544.99 545.606 546.227 546.624 546.994 547.606 547.971 548.763 549.173 549.759 550.412 551.063 551.701 552.804 553.62 554.383 555.245 556.609 557.853 559.044 559.695 560.403 561.16 561.788 562.205 562.596 563.058 563.323 563.695 564.32 565.47 565.919 566.063 566.251 566.548 566.68 567.152 567.049 566.377 566.266 566.79 567.869 567.772 567.59 567.276 567.274 568.071 568.91 569.356 569.679 569.852 569.878 569.811 569.879 569.864 569.673 569.84 569.84 569.861 569.775 569.692 569.524 569.625 569.634 569.703 569.823 569.921 569.959 570.056 570.332 570.344 570.428 570.345 570.506 570.417 570.479 570.403 570.618 570.678 570.449 570.517 570.307 570.166 570 569.934 570.019 570.166 570.398 570.52 570.851 571.052 571.099 571.121 570.631 570.123 569.997 569.6 569.258 568.878 568.965 568.735 568.889 568.861 568.771 568.691 568.435 568.153 568.041 567.952 567.768 567.542 567.412 567.406 567.302 567.153 566.934 566.684 566.491 566.344 566.084 565.782 565.697 565.329 565.286 564.997 564.678 564.368 564.192 564.054 563.954 563.965 563.81 563.748 563.728 563.704 563.791 563.831 563.778 563.813 563.856 563.979 564.005 563.979 564.239 564.346 564.157 564.14 564.119 564.108 564.106 564.168 564.219 564.177 564.255 564.281 564.233 564.177 564.293 564.45 564.57 564.3 564 563.605 563.37 563.178 563.355 563.634 563.498 563.916 564.54 564.704 564.902 565.073 565.311 565.35 565.422 565.597 565.646 565.581 565.379 565.36 565.385 565.352 565.456 565.551 565.681 565.697 565.768 565.973 566.034 566.095 566.19 566.106 566.216 566.294 566.407 566.363 566.321 566.392 566.285 566.241 566.207 566.174 566.123 565.951 566.169 566.284 566.296 566.234 566.428 566.439 566.429 566.427 566.437 566.522 566.485 566.369 566.269 566.144 566.203 566.039 566.011 565.794 565.79 565.79 565.897 565.902 566.476 566.448 566.331 566.344 566.32 566.484 566.373 566.611 566.686
483.701 484.668 485.449 486.658 487.885 489.038 490.359 491.4 493.276 495.416 497.137 498.598 500.014 501.342 502.023 502.844 503.612 504.519 505.083 505.705 506.243 506.548 507.045 507.357 507.523 507.934 508.348 508.908 509.678 510.266 510.781 511.177 511.887 512.521 513.07 513.609 513.954 514.276 514.78 515.138 515.506 515.696 515.977 516.252 516.75 517.223 517.849 518.318 518.695 519.112 519.521 520.08 520.447 520.926 521.353 521.53 521.976 522.029 522.143 522.232 522.446 522.186 522.148 522.247 522.349 522.47 522.577 522.677 522.86 523.043 523.256 523.449 523.731 524.254 524.696 525.257 525.949 526.325 526.559 526.965 527.473 527.863 528.347 528.771 529.223 529.52 529.867 530.291 530.595 530.899 531.341 531.987 532.458 533.139 533.624 533.89 533.845 533.122 532.447 532.448 532.757 533.085 533.482 534.365 535.231 535.937 536.362 536.641 537.074 537.38 537.626 537.987 538.56 538.952 539.372 540.11 540.581 540.918 541.156 541.37 541.574 541.964 542.085 542.313 542.42 542.786 542.907 543.048 543.019 543.116 543.152 543.221 543.406 543.339 543.155 543.107 542.999 543.141 543.357 543.491 543.91 543.96 544.538 545.089 545.938 546.225 546.528 546.905 547.792 548.371 548.765 549.337 549.893 550.597 551.567 552.571 553.226 553.992 554.992 556.107 557.571 558.741 559.857 560.418 561.353 561.916 562.346 562.599 562.785 562.661 562.827 563.175 564.004 565.062 565.513 565.496 565.406 565.574 565.714 565.435 565.421 565.449 565.589 566.926 567.282 566.816 566.75 566.744 567.395 568.298 568.845 568.919 569.019 569.168 569.147 569.123 569.139 569.209 569.078 569.263 569.245 568.873 568.906 568.781 568.879 568.978 569.038 569.153 569.267 569.488 569.61 569.76 569.808 569.879 569.891 569.906 570.137 570.238 570.25 570.464 570.382 570.178 570.076 569.97 569.579 569.688 569.705 569.801 569.991 570.17 570.247 570.138 570.436 570.705 570.23 570.02 569.819 569.628 569.327 568.724 568.51 568.287 568.179 568.061 568.128 567.995 568.002 567.825 567.614 567.453 567.34 567.328 567.413 567.308 567.224 566.995 566.704 566.506 566.401 566.265 566.002 565.676 565.644 565.357 565.065 564.738 564.687 564.154 563.808 563.792 563.776 563.698 563.753 563.672 563.471 563.511 563.555 563.55 563.706 563.705 563.683 563.683 563.744 563.785 564.165 564.116 564.153 564.211 564.119 564.086 563.982 564.041 564.099 564.037 563.956 564.066 564.09 564.099 563.963 564.225 564.202 564.178 563.701 563.298 563.419 563.169 563.19 563.33 563.462 563.549 563.829 564.244 564.711 564.857 565.079 565.24 565.259 565.261 565.449 565.366 565.504 565.329 565.347 565.287 565.312 565.45 565.59 565.646 565.688 565.858 565.836 565.893 565.952 566.003 566.183 566.141 566.299 566.389 566.245 566.198 566.273 566.348 566.334 566.258 566.133 565.854 565.89 566.007 566.179 566.283 566.204 566.202 566.331 566.432 566.554 566.393 566.385 566.328 566.361 566.259 566.283 566.19 566.115 565.978 565.641 565.708 565.753 565.841 566.047 566.31 566.3 566.262 566.233 566.274 566.393 566.457 566.519 566.609
