ncols 382
nrows 31
xllcorner    389192
yllcorner    478918
cellsize     2
NODATA_value -9999
410.427 410.17 409.952 409.727 409.522 409.355 409.332 409.417 409.522 409.567 409.722 409.87 409.907 409.84 409.83 409.74 409.58 409.472 409.305 409.18 409.077 408.827 408.625 408.532 408.517 408.35 408.155 408.032 407.807 407.535 407.375 407.22 407.082 407.017 406.962 406.697 406.347 406.015 405.832 405.645 405.552 405.467 405.23 404.99 404.817 404.637 404.36 404.147 403.937 403.787 403.62 403.382 403.25 403.202 403.022 402.835 402.762 402.772 402.717 402.545 402.447 402.347 402.21 402.052 401.982 401.895 401.665 401.51 401.277 401.057 400.907 400.59 400.317 399.912 399.2 398.295 397.165 397.417 398.34 398.89 399.105 399.082 398.945 398.95 398.837 398.66 398.58 398.42 398.222 398.035 397.87 397.685 397.545 397.497 397.382 397.235 397.115 396.715 396.285 395.835 395.397 395.21 395.022 394.807 394.497 394.287 394.277 394.217 394.222 394.357 394.49 394.367 394.28 394.19 394.137 394.045 393.947 393.855 393.717 393.577 393.37 393.29 393.117 392.895 392.417 391.8 391.547 391.36 390.985 390.76 390.587 390.177 390.097 389.567 389.005 388.495 388.165 388.9 389.305 388.995 388.477 387.87 387.027 386.595 386.257 385.775 385.382 385.082 384.772 384.537 384.322 384.19 384.16 384.217 384.162 384.055 383.935 383.66 383.45 383.35 383.265 383.322 383.365 383.29 383.28 383.175 382.99 382.882 382.627 382.432 382.15 381.897 381.665 381.335 381.022 380.782 380.502 380.215 380.032 379.842 379.602 379.417 379.155 378.872 378.555 378.305 378.112 377.89 377.62 377.35 376.982 376.625 376.347 376.04 375.79 375.55 375.402 375.075 374.855 374.682 374.487 374.347 374.23 374.082 373.88 373.835 373.647 373.525 373.467 373.387 373.277 373.19 372.99 372.765 372.67 372.552 372.452 372.32 372.23 372.017 371.932 371.762 371.665 371.545 371.325 371.245 371.085 370.835 370.492 370.305 370.035 369.822 369.492 369.112 368.717 368.187 367.66 367.14 366.767 366.372 365.995 365.622 365.025 364.425 364.037 363.69 363.472 363.482 363.757 363.797 363.732 363.582 363.432 363.11 362.772 362.542 362.305 362.047 361.78 361.615 361.32 361.07 360.855 360.637 360.46 360.247 360.05 359.845 359.635 359.46 359.335 359.177 358.872 358.657 358.41 358.152 357.85 357.652 357.317 357.065 356.885 356.63 356.307 356.022 355.75 355.395 355.155 354.912 354.737 354.447 354.052 353.762 353.512 353.24 353.01 352.682 352.407 352.107 351.835 351.532 351.26 351.107 350.962 350.765 350.632 350.525 350.425 350.1 349.835 349.602 349.39 349.15 348.805 348.445 348.075 347.52 347.137 346.757 346.487 346.277 345.99 345.91 345.715 345.532 345.297 344.975 344.75 344.407 344.182 343.74 343.15 342.92 342.49 342.152 341.837 341.285 340.777 340.23 339.745 339.182 338.592 338.03 337.732 337.165 336.71 336.21 335.807 335.5 335.327 335.21 335.017 334.85 334.652 334.24 333.85 333.5 333.147 332.577 331.93 331.507 331.095 331.175 330.445 330.095 329.755 329.465 329.237 328.545 328.095 327.942 327.835 327.785 327.712 327.6 327.382 326.99 326.547 326.287 326.137 326.022 325.61 325.227
410.577 410.375 410.147 409.895 409.86 409.73 409.635 409.69 409.812 410.012 410.047 410.165 410.197 410.187 410.147 410.127 409.9 409.807 409.647 409.467 409.317 409.102 408.92 408.852 408.832 408.66 408.48 408.272 408.067 407.875 407.705 407.452 407.372 407.29 407.18 407.082 406.817 406.522 406.25 406.14 405.895 405.797 405.59 405.41 405.22 405.11 404.84 404.6 404.38 404.257 403.977 403.837 403.715 403.575 403.445 403.227 403.137 403.107 402.982 402.812 402.725 402.612 402.482 402.327 402.237 402.135 402.002 401.802 401.61 401.422 401.207 400.872 400.567 400.06 399.247 398.167 397.502 398.325 398.975 399.412 399.515 399.46 399.38 399.332 399.16 399.02 398.865 398.762 398.592 398.415 398.292 398.137 397.992 397.83 397.75 397.582 397.417 397.107 396.685 396.23 395.835 395.517 395.405 395.252 395.067 394.86 394.865 394.81 394.792 395.062 394.975 394.777 394.607 394.517 394.492 394.375 394.31 394.197 394.067 393.907 393.71 393.562 393.53 393.367 392.98 392.527 392.222 391.85 391.587 391.417 391.242 390.635 390.492 390.095 389.76 388.937 388.237 388.785 389.54 389.367 388.83 388.405 387.807 387.307 386.932 386.287 385.835 385.462 385.117 384.797 384.62 384.597 384.595 384.57 384.515 384.435 384.28 384.065 383.887 383.825 383.717 383.657 383.695 383.65 383.522 383.38 383.187 382.985 382.802 382.627 382.32 382.047 381.785 381.445 381.14 380.947 380.665 380.432 380.242 380.032 379.837 379.627 379.312 379.072 378.86 378.572 378.302 378.12 377.872 377.567 377.212 376.897 376.64 376.11 375.935 375.702 375.517 375.267 375.062 374.925 374.672 374.462 374.342 374.235 374.115 373.94 373.822 373.662 373.595 373.51 373.45 373.34 373.232 373.045 372.982 372.88 372.655 372.517 372.382 372.212 372.12 371.955 371.825 371.742 371.53 371.377 371.16 370.947 370.727 370.51 370.237 369.962 369.655 369.332 368.885 368.305 367.712 367.227 366.917 366.467 366.02 365.617 365.065 364.622 364.297 364.077 363.942 364.122 364.257 364.365 364.24 363.96 363.775 363.425 363.13 362.872 362.612 362.407 362.147 361.932 361.61 361.36 361.145 360.965 360.74 360.505 360.34 360.172 359.975 359.762 359.637 359.497 359.26 359.075 358.8 358.507 358.23 357.962 357.667 357.407 357.282 357.082 356.82 356.5 356.23 355.92 355.58 355.322 355.102 354.742 354.372 354.22 353.892 353.58 353.332 353 352.717 352.392 352.085 351.762 351.437 351.252 351.115 350.937 350.775 350.655 350.517 350.345 350.2 349.972 349.775 349.552 349.23 348.88 348.505 347.93 347.57 347.27 347.135 346.792 346.655 346.405 346.215 346.007 345.847 345.502 345.145 344.842 344.535 344.205 343.695 343.48 343.065 342.785 342.422 341.982 341.31 340.892 340.615 339.917 339.245 338.65 338.125 337.66 337.095 336.65 336.275 336.005 335.737 335.595 335.35 335.232 335.145 334.807 334.475 334.277 333.862 333.502 332.93 332.267 331.607 331.285 331.01 330.685 330.405 330.125 329.782 329.495 329.082 328.597 328.437 328.285 328.155 327.995 327.705 327.277 326.84 326.615 326.5 326.312 325.96 325.845
410.755 410.597 410.332 410.252 410.087 409.995 409.977 410 410.055 410.17 410.252 410.342 410.405 410.412 410.387 410.347 410.2 410.082 409.902 409.682 409.522 409.35 409.247 409.155 409.102 409.012 408.792 408.625 408.44 408.225 408.025 407.822 407.642 407.56 407.552 407.285 407.105 406.822 406.577 406.525 406.272 406.1 405.907 405.78 405.567 405.377 405.215 405.037 404.857 404.672 404.397 404.115 404.012 403.827 403.662 403.54 403.397 403.315 403.172 403.095 403.072 402.942 402.765 402.6 402.48 402.437 402.315 402.137 401.94 401.717 401.45 401.167 400.715 400.105 399.37 398.232 398.172 399.055 399.645 399.887 399.84 399.767 399.75 399.667 399.47 399.25 399.105 398.982 398.897 398.75 398.667 398.472 398.352 398.192 398.045 397.94 397.82 397.46 397.12 396.707 396.235 395.855 395.68 395.732 395.7 395.537 395.515 395.445 395.467 395.427 395.312 395.19 395.02 394.905 394.76 394.652 394.52 394.442 394.312 394.197 394.015 393.835 393.717 393.672 393.445 393.105 392.802 392.525 392.302 392.12 391.825 391.125 390.96 390.492 390.067 389.397 389.002 389.482 389.765 389.347 388.935 388.612 388.197 387.585 387.112 386.715 386.337 385.835 385.387 385.135 384.955 384.997 384.952 384.93 384.887 384.755 384.637 384.465 384.29 384.257 384.202 384.022 384.01 383.882 383.705 383.537 383.32 383.155 382.935 382.647 382.337 382.002 381.685 381.532 381.317 381.06 380.837 380.582 380.422 380.15 380.01 379.725 379.422 379.19 378.94 378.712 378.49 378.272 378.05 377.827 377.63 377.297 377.085 376.52 376.132 376.002 375.797 375.542 375.29 375.052 374.997 374.775 374.502 374.32 374.177 374.092 373.942 373.85 373.775 373.662 373.51 373.355 373.387 373.262 373.085 373.017 372.89 372.83 372.707 372.495 372.335 372.13 371.98 371.832 371.662 371.562 371.36 371.147 370.97 370.717 370.397 370.05 369.76 369.402 368.912 368.29 367.762 367.26 366.917 366.492 366 365.552 365.202 364.967 364.777 364.73 364.677 364.67 364.732 364.707 364.615 364.24 364.052 363.74 363.457 363.195 362.935 362.667 362.42 362.237 361.915 361.735 361.46 361.245 361.067 360.87 360.667 360.505 360.305 360.122 359.995 359.842 359.695 359.457 359.09 358.755 358.595 358.435 358.132 357.857 357.63 357.547 357.332 357.032 356.707 356.375 356.015 355.695 355.435 355.042 354.71 354.575 354.245 353.942 353.717 353.457 353.072 352.672 352.35 351.942 351.627 351.462 351.312 351.15 350.992 350.792 350.667 350.49 350.337 350.145 349.977 349.865 349.492 349.17 348.817 348.517 348.365 348.072 348.16 347.462 347.547 347.03 346.74 346.372 346.292 345.912 345.527 345.307 345.005 344.54 344.205 343.98 343.502 343.157 342.852 342.477 341.992 341.472 340.962 340.337 339.755 339.18 338.74 338.247 337.61 337.255 336.912 336.565 336.295 336.065 335.807 335.55 335.452 335.16 334.925 334.592 334.337 334.08 333.465 332.92 332.3 331.78 331.5 331.197 330.987 330.752 330.397 330.102 329.815 329.362 329.04 328.78 328.557 328.42 328.06 327.685 327.417 327.167 326.93 326.677 326.51 326.452
410.925 410.795 410.607 410.455 410.39 410.277 410.237 410.222 410.225 410.315 410.415 410.477 410.575 410.61 410.582 410.535 410.467 410.292 410.067 409.925 409.815 409.607 409.49 409.442 409.335 409.257 409.187 408.927 408.765 408.555 408.357 408.175 408.005 407.845 407.81 407.582 407.395 407.19 406.97 406.742 406.625 406.505 406.415 406.235 406.082 405.76 405.602 405.445 405.362 405.117 404.875 404.582 404.387 404.117 403.957 403.875 403.705 403.572 403.425 403.24 403.257 403.15 403.022 402.942 402.832 402.74 402.67 402.527 402.235 401.962 401.632 401.327 400.752 400.117 399.407 398.555 399.02 399.765 400.197 400.325 400.215 400.145 400.087 400.022 399.887 399.6 399.412 399.277 399.202 399.057 398.93 398.812 398.675 398.525 398.337 398.247 398.097 397.932 397.607 397.19 396.732 396.367 396.117 396.24 396.295 396.145 395.997 396.007 395.957 395.827 395.675 395.622 395.422 395.195 395.052 394.952 394.777 394.617 394.495 394.385 394.252 394.095 393.997 393.84 393.68 393.557 393.372 393.155 392.892 392.652 392.26 391.55 391.41 391.14 390.792 390.45 390.247 390.212 389.99 389.832 389.68 388.867 388.187 387.95 387.28 386.9 386.507 386.19 385.82 385.442 385.342 385.335 385.26 385.215 385.187 385.03 384.9 384.69 384.55 384.502 384.41 384.295 384.192 384.015 383.815 383.61 383.43 383.167 382.92 382.56 382.245 381.867 381.537 381.552 381.3 381.01 380.915 380.735 380.575 380.275 380.117 379.805 379.567 379.29 379.167 378.96 378.85 378.542 378.4 378.175 377.837 377.662 377.385 376.96 376.385 376.05 375.945 375.667 375.46 375.22 375.09 374.85 374.742 374.49 374.317 374.257 374.145 374.027 373.902 373.827 373.722 373.607 373.545 373.352 373.262 373.2 373.145 373.102 372.97 372.86 372.685 372.627 372.307 372.025 371.87 371.697 371.547 371.31 371.067 370.82 370.462 370.105 369.767 369.335 368.892 368.295 367.775 367.38 366.937 366.537 366.155 365.812 365.555 365.355 365.267 365.27 365.21 365.225 365.135 364.972 364.792 364.517 364.327 364.11 363.825 363.557 363.305 363.04 362.825 362.59 362.322 362.11 361.86 361.585 361.435 361.282 361.005 360.817 360.65 360.48 360.392 360.197 360.067 359.81 359.435 359.112 358.92 358.707 358.382 358.147 357.975 357.922 357.822 357.462 357.127 356.8 356.415 356.072 355.74 355.365 355.102 354.847 354.575 354.355 354.155 353.837 353.392 352.892 352.575 352.252 351.972 351.74 351.532 351.392 351.232 351.047 350.93 350.722 350.58 350.407 350.155 349.985 349.747 349.525 349.235 348.965 348.79 348.49 348.377 347.99 347.792 347.587 347.8 347.19 346.602 346.3 346.04 345.742 345.375 345.022 344.782 344.442 344.007 343.632 343.237 342.81 342.42 342.065 341.542 340.907 340.457 339.98 339.315 338.835 338.247 337.815 337.47 337.09 336.815 336.565 336.315 336.1 335.83 335.557 335.302 335.02 334.632 334.397 334.075 333.582 333.025 332.545 332.222 331.672 331.357 331.19 330.975 330.735 330.45 330.077 329.795 329.487 329.062 328.79 328.46 328.075 327.962 327.77 327.502 327.237 327.112 326.995
411.185 410.997 410.807 410.73 410.617 410.502 410.405 410.417 410.497 410.587 410.677 410.755 410.8 410.775 410.822 410.755 410.672 410.567 410.387 410.22 410.145 409.89 409.855 409.812 409.707 409.592 409.442 409.29 409.11 408.917 408.775 408.627 408.34 408.14 408.025 407.895 407.675 407.557 407.23 407.06 406.927 406.86 406.705 406.57 406.4 406.182 406.032 405.897 405.65 405.492 405.292 405.067 404.837 404.57 404.372 404.227 404.025 403.892 403.855 403.665 403.647 403.487 403.34 403.242 403.147 403.08 402.915 402.737 402.535 402.292 401.937 401.475 400.855 400.135 399.53 399.042 399.552 400.357 400.77 400.707 400.682 400.52 400.395 400.312 400.185 400.032 399.8 399.637 399.52 399.382 399.28 399.112 399.005 398.82 398.635 398.552 398.427 398.242 398.015 397.742 397.34 397.047 396.847 396.832 396.88 396.752 396.615 396.485 396.347 396.252 396.207 396.057 395.827 395.602 395.392 395.165 395.035 394.842 394.707 394.592 394.455 394.395 394.322 394.142 393.947 393.895 393.687 393.475 393.262 393.057 392.637 391.955 391.847 391.872 391.672 391.412 390.905 390.475 390.285 390.352 389.792 388.595 387.477 387.987 387.91 387.462 387.097 386.645 386.217 385.875 385.675 385.497 385.455 385.412 385.36 385.21 385.102 384.922 384.725 384.62 384.47 384.372 384.245 384.062 383.87 383.652 383.352 383.07 382.732 382.482 382.275 382.062 381.927 381.625 381.18 381.137 381.072 380.92 380.752 380.435 380.22 379.985 379.725 379.502 379.485 379.577 379.295 379.145 378.96 378.625 378.175 377.9 377.645 377.267 376.902 376.367 376.04 375.942 375.722 375.447 375.31 374.995 374.805 374.59 374.505 374.362 374.282 374.232 374.06 374.007 373.957 373.815 373.575 373.465 373.402 373.332 373.305 373.325 373.2 373.115 373.012 372.942 372.812 372.465 372.152 371.895 371.677 371.417 371.147 370.882 370.492 370.107 369.717 369.345 368.932 368.425 367.932 367.527 367.112 366.77 366.505 366.275 366.06 365.862 365.785 365.82 365.695 365.665 365.47 365.227 365.007 364.772 364.57 364.375 364.14 363.922 363.662 363.48 363.265 363.007 362.777 362.495 362.252 362.017 361.885 361.692 361.395 361.262 361.102 360.955 360.77 360.565 360.415 360.165 359.865 359.625 359.375 359.107 358.79 358.415 358.22 358.192 358.08 357.89 357.612 357.25 356.84 356.472 356.057 355.705 355.487 355.26 355.025 354.785 354.502 354.147 353.717 353.245 352.842 352.597 352.372 352.04 351.79 351.595 351.387 351.245 351.192 350.972 350.752 350.555 350.382 350.112 349.92 349.845 349.607 349.362 349.085 348.85 348.745 348.517 348.192 348.002 347.872 347.557 347.24 346.782 346.482 346.17 345.77 345.532 345.257 344.927 344.54 344.142 343.78 343.322 342.972 342.467 342.097 341.65 341.227 340.657 340.095 339.46 338.875 338.445 337.955 337.44 337.205 337.047 336.845 336.585 336.242 335.937 335.76 335.447 335.112 334.817 334.487 334.17 333.667 333.467 333.1 332.585 332.087 331.545 331.282 331.207 330.962 330.68 330.43 330.082 329.777 329.362 328.89 328.462 328.422 328.26 328.04 327.78 327.62 327.442
411.38 411.265 411.062 410.927 410.872 410.822 410.71 410.697 410.752 410.927 411.002 411.04 411.027 411.037 411.012 410.987 410.91 410.877 410.73 410.565 410.53 410.357 410.057 410.042 410.075 409.945 409.717 409.505 409.365 409.282 409.117 408.927 408.655 408.49 408.277 408.162 408.097 407.982 407.592 407.382 407.297 407.19 407.037 406.897 406.76 406.6 406.447 406.252 406.057 405.855 405.687 405.452 405.232 404.942 404.775 404.6 404.437 404.28 404.115 404.04 403.832 403.725 403.607 403.535 403.462 403.347 403.212 403.035 402.837 402.567 402.22 401.66 401.14 400.47 399.82 399.795 400.352 400.902 401.097 400.96 400.945 400.837 400.747 400.595 400.44 400.287 400.147 399.97 399.877 399.752 399.605 399.415 399.28 399.132 398.95 398.85 398.76 398.532 398.407 398.29 398.025 397.79 397.587 397.397 397.257 397.17 396.997 396.81 396.69 396.525 396.36 396.247 396.115 395.897 395.66 395.447 395.255 395.135 395.002 394.825 394.722 394.685 394.59 394.517 394.212 394.137 393.96 393.74 393.492 393.225 392.622 392.205 392.375 392.405 392.192 391.845 391.38 390.922 390.695 390.542 389.825 388.905 388.062 388.505 388.522 388.025 387.52 387.095 386.682 386.267 385.892 385.702 385.56 385.57 385.565 385.44 385.28 385.055 384.83 384.68 384.497 384.307 384.162 383.955 383.762 383.475 383.187 382.97 382.79 382.585 382.445 382.247 382.065 381.855 381.557 381.465 381.305 381.147 380.892 380.57 380.385 380.162 379.895 379.755 379.712 379.59 379.4 379.24 379.295 378.802 378.485 378.17 377.842 377.58 377.35 377.06 376.487 376.272 376.18 375.755 375.437 375.187 374.937 374.782 374.69 374.55 374.43 374.335 374.317 374.212 374.132 374.1 373.837 373.775 373.715 373.56 373.512 373.472 373.392 373.377 373.235 373.175 372.972 372.73 372.43 372.13 371.862 371.567 371.2 370.912 370.522 370.132 369.792 369.462 368.992 368.557 368.095 367.69 367.35 367.065 366.955 366.697 366.512 366.407 366.297 366.357 366.247 366.067 365.832 365.597 365.315 365.05 364.862 364.755 364.532 364.327 364.152 363.962 363.692 363.455 363.03 362.815 362.657 362.477 362.277 362.02 361.772 361.615 361.417 361.297 361.125 360.92 360.707 360.492 360.047 359.965 359.762 359.52 359.245 358.927 358.695 358.44 358.252 358.235 358.05 357.622 357.27 356.895 356.425 356.155 355.87 355.672 355.445 355.202 354.87 354.455 354.062 353.63 353.23 352.927 352.64 352.335 352.055 351.805 351.402 351.232 351.405 351.19 351.01 350.815 350.55 350.332 350.157 349.96 349.872 349.75 349.492 349.237 348.99 348.83 348.6 348.327 348.077 347.797 347.567 347.077 346.792 346.39 346.042 345.805 345.472 345.115 344.665 344.282 343.982 343.72 343.4 343.052 342.695 342.28 341.942 341.42 340.907 340.227 339.605 339.125 338.667 338.167 337.855 337.57 337.377 336.997 336.682 336.642 336.137 335.847 335.502 335.27 334.847 334.462 334.182 334.082 333.817 333.395 333.132 332.5 331.902 331.75 331.455 331.075 330.732 330.39 330.025 329.685 329.342 329.025 328.892 328.717 328.475 328.192 327.967 327.712
411.66 411.425 411.262 411.13 411.097 411.022 410.977 410.96 411.037 411.19 411.292 411.322 411.302 411.345 411.292 411.252 411.177 411.21 411.025 410.93 410.872 410.757 410.475 410.342 410.362 410.212 409.987 409.757 409.67 409.575 409.44 409.237 408.987 408.825 408.692 408.58 408.397 408.215 408.08 407.817 407.65 407.507 407.35 407.217 407.1 406.977 406.81 406.592 406.415 406.21 406.035 405.817 405.555 405.357 405.185 405.007 404.805 404.652 404.402 404.252 404.127 403.99 403.905 403.817 403.727 403.587 403.492 403.31 403.05 402.777 402.475 401.935 401.467 400.612 400.022 400.437 401.032 401.402 401.455 401.297 401.217 401.252 401.082 400.952 400.725 400.565 400.435 400.307 400.117 400.017 399.89 399.755 399.57 399.387 399.275 399.155 399.027 398.87 398.697 398.592 398.36 398.252 398.08 397.767 397.56 397.407 397.195 397.005 396.895 396.865 396.695 396.512 396.345 396.152 395.93 395.72 395.497 395.367 395.23 395.127 394.967 394.857 394.802 394.667 394.55 394.31 394.035 393.765 393.477 393.11 392.832 392.765 392.927 392.812 392.645 392.315 391.89 391.492 391.27 390.81 390.08 389.402 389.057 389.157 388.942 388.462 387.935 387.315 386.617 386.027 385.587 385.35 385.41 385.65 385.74 385.587 385.44 385.187 384.907 384.72 384.495 384.245 384.065 383.865 383.56 383.257 383.125 382.997 382.925 382.775 382.632 382.442 382.325 382.142 381.9 381.735 381.577 381.382 381.177 380.897 380.642 380.322 380.102 379.945 379.847 379.807 379.75 379.45 379.415 379.35 378.965 378.497 378.127 378.002 377.735 377.4 377.175 376.77 376.532 376.155 375.862 375.415 375.122 374.945 374.825 374.692 374.647 374.532 374.42 374.32 374.23 374.27 374.052 374.065 373.96 373.967 373.772 373.632 373.572 373.572 373.462 373.39 373.212 372.912 372.59 372.297 371.937 371.617 371.32 370.945 370.532 370.212 369.947 369.62 369.195 368.745 368.397 368.097 367.87 367.655 367.525 367.315 367.087 367.025 366.897 366.86 366.68 366.385 366.205 366.002 365.767 365.545 365.387 365.23 365.055 364.852 364.655 364.47 364.227 363.83 363.457 363.285 363.13 362.902 362.672 362.392 362.212 361.98 361.832 361.647 361.44 361.277 361.077 360.8 360.545 360.312 360.107 359.88 359.652 359.362 359.09 358.835 358.652 358.44 358.06 357.865 357.605 357.32 356.91 356.65 356.417 356.187 355.955 355.637 355.275 354.832 354.367 353.987 353.655 353.362 353.007 352.705 352.445 352.222 351.89 351.68 351.632 351.39 351.222 351.01 350.76 350.515 350.297 350.122 350.047 349.962 349.825 349.63 349.392 349.285 349.112 348.87 348.575 348.082 347.747 347.472 347.205 346.872 346.545 346.377 346.02 345.702 345.272 344.882 344.437 344.157 343.812 343.432 343.035 342.675 342.347 341.795 341.247 340.837 340.47 339.937 339.432 338.935 338.6 338.327 337.982 337.645 337.352 337.035 336.662 336.287 335.962 335.662 335.43 335.045 334.82 334.54 334.195 333.885 333.69 333.38 332.75 332.132 331.737 331.445 331.27 330.907 330.502 330.04 329.577 329.34 329.115 328.84 328.597 328.357 328.062 327.83
411.8 411.635 411.445 411.32 411.285 411.232 411.24 411.247 411.327 411.437 411.547 411.585 411.605 411.58 411.56 411.52 411.455 411.41 411.26 411.125 411.027 410.952 410.775 410.652 410.547 410.447 410.242 410.042 409.945 409.792 409.642 409.452 409.222 409.115 408.945 408.835 408.655 408.467 408.282 408.082 407.997 407.857 407.695 407.59 407.487 407.382 407.157 406.982 406.83 406.675 406.422 406.2 405.972 405.767 405.592 405.39 405.14 404.935 404.795 404.655 404.517 404.347 404.227 404.097 404.012 403.85 403.67 403.472 403.292 403.025 402.72 402.212 401.74 400.877 400.47 400.925 401.525 401.837 401.785 401.657 401.602 401.57 401.382 401.212 401.027 400.882 400.792 400.567 400.405 400.267 400.15 400.075 399.925 399.705 399.592 399.42 399.3 399.132 398.982 398.885 398.72 398.52 398.37 398.105 397.91 397.775 397.465 397.282 397.22 397.187 396.97 396.83 396.577 396.405 396.22 396.027 395.81 395.632 395.487 395.357 395.207 395.027 394.937 394.872 394.78 394.565 394.42 394.227 393.97 393.717 393.467 393.407 393.377 393.22 393.112 392.82 392.412 391.937 391.662 391.215 390.565 389.972 389.665 389.587 389.07 388.602 388.007 387.017 385.83 385.03 384.062 384.032 384.672 385.187 385.79 385.68 385.53 385.277 384.985 384.76 384.535 384.262 384.072 383.732 383.105 383.167 383.287 383.22 383.152 383.015 382.872 382.752 382.717 382.422 382.19 382.072 381.947 381.602 381.4 381.232 380.907 380.617 380.392 380.28 380.14 379.987 379.962 379.735 379.567 379.452 379.29 378.982 378.5 378.672 378.432 377.882 377.51 377.272 376.797 376.492 376.037 375.702 375.452 375.12 374.985 374.942 374.832 374.707 374.575 374.48 374.35 374.26 374.235 374.312 374.217 374.132 374.042 373.885 373.85 373.805 373.685 373.475 373.302 372.955 372.625 372.3 371.965 371.665 371.417 371.107 370.65 370.335 370.1 369.74 369.372 368.96 368.71 368.542 368.345 368.155 367.937 367.88 367.77 367.717 367.562 367.235 367.007 366.737 366.545 366.355 366.19 366.012 365.872 365.72 365.56 365.362 365.157 364.952 364.75 364.292 363.997 363.787 363.64 363.445 363.182 362.917 362.812 362.522 362.255 361.947 361.777 361.5 361.37 361.175 361.022 360.802 360.507 360.265 360.075 359.842 359.575 359.34 359.092 358.552 357.585 357.742 357.87 357.64 357.367 357.125 356.897 356.632 356.347 355.982 355.662 355.242 354.802 354.397 354.077 353.705 353.41 353.13 352.777 352.532 352.415 352.205 351.965 351.722 351.49 351.255 350.972 350.76 350.542 350.392 350.267 350.137 350.077 349.952 349.742 349.597 349.44 349.137 348.892 348.552 348.192 348.002 347.815 347.457 347.165 346.86 346.48 346.277 346.177 345.605 344.962 344.585 344.307 343.862 343.467 343.167 342.817 342.522 342.027 341.367 340.827 340.447 340.067 339.702 339.37 339.032 338.695 338.282 337.927 337.57 337.22 336.912 336.665 336.23 335.995 335.69 335.395 335.147 334.787 334.42 334 333.46 333.042 332.705 332.432 332.247 331.91 331.265 330.742 330.405 329.995 329.72 329.487 329.21 329.03 328.812 328.577 328.325
411.987 411.862 411.707 411.535 411.432 411.397 411.477 411.547 411.637 411.742 411.845 411.905 411.84 411.817 411.782 411.72 411.677 411.655 411.502 411.39 411.275 411.19 411.06 410.88 410.765 410.66 410.512 410.335 410.22 410.105 409.987 409.77 409.54 409.332 409.227 409.08 408.91 408.73 408.617 408.495 408.44 408.22 408.095 407.925 407.795 407.63 407.435 407.307 407.215 406.985 406.707 406.497 406.355 406.125 405.962 405.79 405.552 405.33 405.172 405.017 404.89 404.732 404.585 404.52 404.227 404.1 403.98 403.795 403.515 403.335 403.007 402.432 401.88 401.19 400.775 401.315 401.877 402.105 402.11 402.027 401.962 401.85 401.622 401.457 401.287 401.165 401.025 400.927 400.722 400.635 400.4 400.312 400.235 400.06 399.84 399.742 399.577 399.42 399.36 399.167 399.055 398.89 398.71 398.412 398.21 398.057 397.882 397.682 397.532 397.39 397.26 397.13 396.897 396.742 396.51 396.312 396.147 395.922 395.722 395.56 395.477 395.317 395.187 395.145 395.047 394.88 394.765 394.617 394.505 394.36 394.167 393.852 393.73 393.617 393.457 393.192 392.765 392.337 392.042 391.595 391.042 390.637 390.317 389.957 389.005 388.345 388.07 386.765 385.19 383.43 383.06 383.175 383.715 384.525 385.477 385.792 385.575 385.345 385.127 384.862 384.585 384.302 384.04 383.862 383.407 383.487 383.522 383.497 383.37 383.25 383.13 383.045 382.945 382.775 382.502 382.182 382.032 381.75 381.572 381.317 381.157 381.022 380.93 380.65 380.49 380.277 380.007 379.945 379.695 379.62 379.485 379.225 378.952 379.162 380.195 379 378.107 377.695 377.477 377.027 376.742 376.147 375.8 375.387 375.23 375.067 374.952 374.917 374.757 374.64 374.537 374.485 374.41 374.357 374.31 374.287 374.297 374.157 374.075 374.05 373.827 373.572 373.347 373.032 372.675 372.335 372.017 371.717 371.487 371.237 370.82 370.505 370.162 369.857 369.547 369.292 369.02 368.902 368.742 368.52 368.405 368.332 368.302 368.205 367.937 367.692 367.355 367.042 366.882 366.67 366.497 366.447 366.307 366.075 365.835 365.715 365.537 365.412 365.145 364.805 364.537 364.235 364.055 363.93 363.83 363.527 363.357 363.08 362.757 362.435 362.162 361.837 361.672 361.48 361.337 361.22 360.865 360.305 360.28 360.265 360.007 359.772 359.487 358.977 358.505 358.405 358.297 358.077 357.825 357.582 357.362 357.042 356.657 356.312 355.942 355.585 355.215 354.87 354.48 354.16 353.827 353.502 353.19 352.88 352.66 352.51 352.322 352.12 351.837 351.575 351.265 351.04 350.887 350.737 350.61 350.465 350.365 350.29 350.035 349.827 349.602 349.317 349.062 348.775 348.567 348.352 348.115 347.71 347.427 347.037 346.695 346.325 346.157 345.71 345.187 344.767 344.4 344.067 343.71 343.365 343.04 342.615 342.167 341.772 341.285 340.645 340.172 339.812 339.552 339.307 338.822 338.392 337.972 337.63 337.312 337.08 336.837 336.545 336.342 336.017 335.715 335.457 335.037 334.67 334.137 333.712 333.537 333.26 332.902 332.542 332.16 331.542 331.075 330.83 330.425 330.19 330.027 329.81 329.637 329.525 329.317 328.987
412.285 412.105 411.95 411.765 411.567 411.597 411.727 411.84 411.927 411.93 411.987 412.075 412.07 412.165 412.117 412.015 411.922 411.825 411.735 411.637 411.495 411.422 411.312 411.135 410.995 410.89 410.66 410.565 410.46 410.33 410.167 410.032 409.835 409.662 409.477 409.345 409.142 408.997 408.882 408.787 408.74 408.6 408.43 408.227 408.192 408.027 407.852 407.665 407.455 407.287 407.027 406.78 406.652 406.482 406.305 406.152 405.955 405.782 405.59 405.43 405.25 405.012 404.902 404.82 404.57 404.445 404.197 404.02 403.8 403.555 403.18 402.612 402.025 401.47 401.17 401.535 402.207 402.387 402.395 402.365 402.285 402.162 402.002 401.687 401.577 401.415 401.27 401.175 401.082 400.84 400.712 400.527 400.515 400.317 400.125 400 399.82 399.802 399.587 399.38 399.207 399.127 398.892 398.627 398.5 398.265 398.125 398.005 397.865 397.612 397.51 397.39 397.317 397.052 396.832 396.607 396.41 396.23 396.05 395.9 395.755 395.582 395.515 395.38 395.267 395.107 395.02 394.842 394.74 394.595 394.44 394.227 394.07 393.897 393.722 393.51 393.125 392.882 392.53 392.097 391.582 391.182 390.782 390.297 389.482 388.822 388.172 386.732 384.967 383.715 383.662 383.37 383.512 384.457 385.465 385.925 385.715 385.575 385.327 385.022 384.78 384.48 384.115 383.907 383.95 383.717 383.732 383.76 383.725 383.562 383.457 383.32 383.167 382.935 382.707 382.382 382.13 381.807 381.64 381.392 381.325 381.325 381.152 380.947 380.817 380.645 380.29 379.962 379.92 379.895 379.757 379.535 379.342 379.337 379.535 379.26 378.602 378.317 377.867 377.505 377.445 376.56 376.207 375.697 375.48 375.497 375.375 375.167 374.985 374.855 374.787 374.72 374.59 374.51 374.402 374.407 374.375 374.337 374.297 374.15 373.972 373.73 373.447 373.112 372.817 372.472 372.165 371.805 371.587 371.352 371.035 370.662 370.3 370.072 369.857 369.737 369.382 369.182 369.065 369.055 368.902 368.767 368.68 368.57 368.27 368.012 367.642 367.435 367.33 367.112 367.022 366.877 366.75 366.497 366.235 366.02 365.815 365.615 365.33 365.035 364.91 364.715 364.532 364.332 364.255 363.962 363.872 363.577 363.265 363.08 362.777 362.455 362.142 361.952 361.74 361.525 361.18 360.807 360.762 360.645 360.385 360.137 359.87 359.557 359.235 359.01 358.797 358.53 358.11 357.85 357.735 357.39 356.695 356.542 356.185 355.82 355.48 355.19 354.842 354.6 354.265 353.995 353.707 353.382 353.042 352.845 352.685 352.452 352.167 351.917 351.642 351.44 351.317 351.132 350.927 350.827 350.662 350.537 350.302 350.092 349.865 349.85 349.645 349.465 349.165 348.867 348.58 348.08 347.872 347.287 346.765 346.232 346.085 345.915 345.617 345.157 344.772 344.475 344.237 344.025 343.39 342.91 342.345 341.972 341.667 341.067 340.535 340.06 339.617 339.39 339.112 338.657 338.3 337.897 337.605 337.285 336.992 336.64 336.405 336.045 335.69 335.372 335.032 334.737 334.387 334.117 333.865 333.53 333.26 332.977 332.512 331.945 331.57 331.142 330.83 330.702 330.585 330.302 330.177 330.065 329.752 329.435
412.38 412.285 412.112 411.92 411.752 411.802 411.927 411.97 412.027 412.115 412.23 412.267 412.342 412.415 412.402 412.322 412.272 412.145 412.032 411.887 411.812 411.68 411.547 411.372 411.24 411.14 410.972 410.787 410.67 410.557 410.44 410.22 410.137 410.04 409.757 409.637 409.392 409.21 409.15 409.145 409.035 408.905 408.775 408.565 408.445 408.372 408.137 407.89 407.782 407.587 407.32 407.145 407.015 406.79 406.65 406.485 406.375 406.195 406.04 405.845 405.62 405.42 405.292 405.212 405.02 404.775 404.455 404.242 404 403.607 403.207 402.652 402.142 401.87 401.54 402.122 402.73 402.79 402.777 402.645 402.562 402.385 402.21 402.007 401.925 401.737 401.712 401.427 401.227 401.082 400.997 400.865 400.732 400.615 400.35 400.172 400.162 400.002 399.77 399.577 399.48 399.355 399.162 398.94 398.697 398.557 398.367 398.237 398.115 397.945 397.847 397.68 397.507 397.365 397.162 396.915 396.785 396.587 396.42 396.252 396.09 395.965 395.842 395.705 395.607 395.457 395.292 395.122 394.99 394.902 394.647 394.475 394.395 394.275 394.082 393.84 393.51 393.242 392.95 392.572 392.077 391.647 391.157 390.7 390.01 389.375 388.48 387.087 385.17 384.16 384.095 384.037 384.5 384.932 385.797 386.162 385.997 385.84 385.632 385.445 385.29 384.975 384.627 384.497 384.327 384.205 384.005 384.057 384.072 383.895 383.74 383.617 383.342 383.032 382.722 382.477 382.172 381.915 381.857 381.642 381.607 381.607 381.542 381.47 381.332 381.212 380.89 380.577 380.352 380.245 380.11 379.987 379.95 379.782 379.45 379.105 379.05 378.837 378.277 377.745 377.577 376.815 376.46 375.967 375.825 375.732 376.037 375.52 375.397 375.205 375.05 374.895 374.8 374.687 374.627 374.622 374.547 374.527 374.43 374.34 374.13 373.945 373.612 373.277 372.955 372.685 372.332 371.907 371.687 371.522 371.297 370.915 370.665 370.457 370.175 370.115 369.937 369.732 369.502 369.437 369.315 369.22 369.167 368.945 368.807 368.527 368.355 368.197 367.935 367.682 367.492 367.332 367.112 366.897 366.717 366.495 366.172 365.84 365.512 365.302 365.145 364.992 364.882 364.765 364.607 364.332 364.14 363.932 363.617 363.422 363.247 362.975 362.692 362.475 362.295 361.95 361.672 361.417 361.202 361.002 360.755 360.545 360.232 360.012 359.78 359.497 359.24 358.927 358.45 358.115 357.94 357.647 357.16 356.93 356.587 356.08 355.722 355.407 355.175 354.88 354.635 354.382 354.095 353.772 353.467 353.207 352.97 352.745 352.497 352.237 351.972 351.785 351.64 351.46 351.27 351.13 350.952 350.777 350.575 350.452 350.29 350.162 350 349.755 349.55 349.357 349.052 348.632 348.38 347.982 347.46 347.09 346.815 346.722 346.457 345.965 345.66 345.222 345.03 344.62 344.122 343.507 342.86 342.502 342.14 341.82 341.235 340.885 340.345 340.082 340.105 339.68 339.142 338.737 338.425 338.09 337.767 337.44 337.08 336.72 336.287 335.84 335.49 335.135 334.66 334.292 333.987 333.755 333.487 333.262 332.825 332.355 331.975 331.692 331.527 331.215 331.317 331.187 330.825 330.455 329.982 329.697
412.512 412.482 412.252 412.127 412.072 412.15 412.155 412.152 412.175 412.285 412.422 412.432 412.482 412.56 412.597 412.607 412.52 412.427 412.347 412.237 412.037 411.925 411.807 411.635 411.542 411.405 411.282 411.095 410.967 410.915 410.675 410.435 410.3 410.24 410.205 410.07 409.715 409.63 409.442 409.34 409.277 409.162 409.052 408.835 408.69 408.577 408.47 408.265 408.055 407.865 407.597 407.387 407.185 407.05 406.96 406.855 406.667 406.522 406.337 406.125 405.99 405.745 405.68 405.507 405.427 405.122 404.745 404.417 404.15 403.81 403.197 402.627 402.367 402.192 402.027 403.04 403.255 403.157 403.087 402.96 402.88 402.712 402.532 402.277 402.127 401.962 401.897 401.7 401.507 401.407 401.302 401.107 400.957 400.742 400.602 400.52 400.365 400.125 400.005 399.812 399.667 399.557 399.335 399.202 398.955 398.822 398.672 398.54 398.455 398.357 398.137 397.962 397.805 397.672 397.61 397.287 397.09 396.977 396.74 396.607 396.427 396.262 396.167 396.097 395.99 395.842 395.665 395.47 395.235 395.132 394.927 394.79 394.74 394.667 394.417 394.145 393.897 393.58 393.282 392.945 392.472 391.96 391.485 390.952 390.22 389.375 388.535 386.81 385.182 384.387 384.295 384.56 385.642 385.857 386.472 386.727 386.525 386.285 386.12 385.952 385.887 385.585 385.3 385.1 384.912 384.722 384.475 384.372 384.315 384.235 383.992 383.712 383.387 383.075 382.905 382.602 382.435 382.28 382.127 382.155 382.152 382.03 382.022 382.015 381.932 381.762 381.557 381.212 381.1 380.837 380.547 380.377 380.395 380.202 379.985 379.695 379.487 378.917 378.925 378.315 377.527 377.062 376.747 376.242 376.267 376.477 377.075 375.967 375.73 375.557 375.325 375.185 375.067 374.88 374.847 374.767 374.735 374.765 374.645 374.532 374.355 374.115 373.81 373.452 373.16 372.837 372.562 372.205 371.94 371.747 371.507 371.192 371.007 370.73 370.515 370.385 370.18 369.992 369.827 369.755 369.677 369.585 369.455 369.325 369.252 369.062 368.882 368.605 368.385 368.14 367.925 367.755 367.515 367.26 367.12 366.93 366.415 366.122 365.912 365.58 365.472 365.287 365.17 365.042 364.917 364.705 364.54 364.282 364 363.77 363.5 363.42 363.3 363.095 362.805 362.45 362.16 361.865 361.615 361.377 361.152 360.88 360.572 360.335 360.097 359.875 359.53 359.152 358.757 358.47 358.195 357.88 357.53 357.177 356.862 356.38 356.045 355.722 355.45 355.207 354.967 354.767 354.502 354.165 353.83 353.492 353.24 352.977 352.732 352.5 352.402 352.25 352.112 351.852 351.652 351.457 351.397 351.055 350.882 350.71 350.57 350.457 350.275 350.067 349.897 349.697 349.46 349.047 348.8 348.5 348.117 347.835 347.527 347.362 347.147 346.812 346.495 345.882 345.675 345.27 344.817 344.157 343.375 343.085 342.832 342.605 342.262 341.787 341.395 341.077 341.137 340.747 340.282 339.842 339.485 339.032 338.777 338.465 338.002 337.662 337.217 336.915 336.497 335.887 335.26 334.8 334.455 334.087 333.602 333.367 333.127 332.947 332.577 332.425 332.195 332.197 331.872 331.612 331.255 330.847 330.697 330.515
412.765 412.615 412.452 412.325 412.337 412.417 412.417 412.51 412.427 412.437 412.495 412.477 412.562 412.665 412.687 412.72 412.682 412.632 412.587 412.517 412.305 412.185 412.025 411.885 411.792 411.75 411.545 411.392 411.19 410.95 410.737 410.617 410.552 410.522 410.44 410.287 410.1 409.957 409.86 409.675 409.602 409.485 409.29 409.09 408.96 408.877 408.682 408.557 408.32 408.137 407.872 407.7 407.477 407.327 407.232 407.135 406.987 406.837 406.712 406.557 406.355 406.152 406.015 405.825 405.627 405.467 405.035 404.7 404.395 404.002 403.307 402.807 402.672 402.477 403.08 403.505 403.48 403.437 403.46 403.347 403.25 403.102 402.952 402.73 402.455 402.237 402.115 401.952 401.795 401.677 401.532 401.355 401.165 401.005 400.83 400.692 400.487 400.28 400.107 399.965 399.87 399.762 399.487 399.342 399.202 399.13 399.005 398.842 398.762 398.675 398.41 398.33 398.15 397.987 397.84 397.625 397.417 397.277 397.105 397.002 396.877 396.667 396.56 396.442 396.282 396.15 396.02 395.792 395.62 395.535 395.365 395.162 395.082 394.862 394.677 394.472 394.222 393.935 393.622 393.255 392.772 392.23 391.695 391.077 390.215 389.265 388.05 386.662 385.502 385.045 385.395 386.285 386.89 387.03 387.305 387.307 387.137 386.86 386.747 386.495 386.197 386.042 385.947 385.775 385.635 385.397 384.935 384.662 384.5 384.452 384.205 383.835 383.507 383.38 383.272 383.105 382.875 382.875 382.697 382.742 382.642 382.485 382.617 382.642 382.58 382.462 382.11 381.785 381.542 381.317 381.032 380.907 380.717 380.56 380.32 379.975 379.727 379.235 378.852 378.562 377.665 377.227 376.92 376.79 376.7 376.825 376.542 376.5 376.12 375.905 375.637 375.455 375.23 375.107 375.05 374.955 375.005 374.94 374.807 374.692 374.517 374.33 374.005 373.782 373.377 373.07 372.78 372.52 372.255 372.005 371.732 371.492 371.267 371.127 370.977 370.932 370.627 370.425 370.215 370.18 370.005 369.835 369.685 369.592 369.527 369.297 369.152 368.972 368.73 368.492 368.315 368.142 367.975 367.767 367.61 367.28 366.78 366.567 366.332 365.922 365.77 365.64 365.477 365.382 365.152 365.062 364.892 364.757 364.515 364.235 363.977 363.827 363.782 363.53 363.252 362.96 362.65 362.38 362.08 361.802 361.522 361.182 360.82 360.567 360.287 360.057 359.68 359.297 358.935 358.735 358.447 358.065 357.73 357.362 357.025 356.617 356.45 356.092 355.82 355.555 355.327 355.11 354.785 354.525 354.155 353.81 353.56 353.402 353.025 352.855 352.775 352.792 352.57 352.32 352.035 351.875 351.727 351.555 351.295 351.082 350.875 350.702 350.48 350.297 350.1 349.937 349.68 349.397 349.072 348.827 348.567 348.367 348.015 347.857 347.662 347.35 346.997 346.522 346.132 345.732 345.407 344.84 344.227 343.837 343.515 343.522 343.147 342.737 342.472 342.142 341.927 341.642 341.05 340.61 340.25 339.895 339.587 339.162 338.807 338.447 338.12 337.742 337.382 336.602 336.09 335.67 335.212 334.647 334.05 333.53 333.39 333.2 333.017 332.887 332.752 332.655 332.427 332.172 331.992 331.707 331.442 330.967
412.94 412.852 412.707 412.6 412.707 412.635 412.655 412.65 412.61 412.575 412.627 412.645 412.617 412.727 412.797 412.822 412.807 412.837 412.752 412.697 412.547 412.43 412.295 412.085 411.95 411.905 411.782 411.68 411.462 411.212 411.057 411.02 410.967 410.945 410.767 410.585 410.355 410.252 410.18 409.987 409.835 409.702 409.515 409.375 409.28 409.107 408.832 408.702 408.52 408.357 408.182 407.915 407.727 407.64 407.482 407.345 407.182 407.135 407.055 406.877 406.685 406.485 406.322 406.192 405.922 405.65 405.3 405 404.695 404.135 403.52 403.142 402.807 402.895 403.592 403.982 403.82 403.82 403.817 403.702 403.595 403.505 403.3 403.092 402.895 402.627 402.46 402.345 402.117 401.907 401.742 401.582 401.362 401.12 400.935 400.832 400.752 400.612 400.462 400.35 400.207 400.072 399.817 399.682 399.527 399.387 399.387 399.157 399.152 399.007 398.83 398.68 398.552 398.39 398.157 397.942 397.772 397.63 397.437 397.317 397.215 397.012 396.962 396.8 396.655 396.5 396.385 396.26 396.052 395.9 395.745 395.572 395.437 395.185 394.997 394.8 394.527 394.265 393.987 393.577 393.132 392.545 391.975 391.217 390.447 389.462 388.162 386.827 386.367 386.5 386.867 387.737 388.192 388.075 388.005 387.91 387.737 387.365 387.235 387.055 386.872 386.745 386.615 386.45 386.242 385.957 385.455 385.042 384.915 384.93 384.435 384.205 384.225 384.097 383.845 383.687 383.497 383.537 383.405 383.225 383.262 383.225 383.255 383.27 383.172 383.037 382.81 382.462 382.02 381.757 381.505 381.35 381.07 380.78 380.37 380.097 379.882 379.477 379.3 378.382 377.885 377.557 377.297 377.392 377.325 377.232 377.055 376.972 376.487 376.222 375.95 375.74 375.692 375.52 375.282 375.23 375.232 375.207 375.032 374.925 374.872 374.592 374.327 374.16 373.747 373.39 373.07 372.74 372.495 372.357 372.082 371.887 371.665 371.537 371.47 371.41 371.13 370.93 370.722 370.517 370.35 370.15 369.98 369.892 369.742 369.622 369.432 369.277 369.097 368.907 368.672 368.542 368.347 368.13 367.88 367.615 367.44 367.215 366.82 366.432 366.192 366.067 365.802 365.67 365.482 365.477 365.295 365.152 364.932 364.635 364.517 364.28 364.142 363.895 363.562 363.33 363.115 362.86 362.552 362.222 361.89 361.525 361.19 360.867 360.527 360.257 359.92 359.48 359.165 358.947 358.672 358.262 357.915 357.582 357.305 357.05 356.93 356.582 356.44 356.055 355.775 355.377 354.995 354.735 354.44 354.132 353.84 353.602 353.352 353.25 353.192 353.155 353.035 352.705 352.41 352.262 352.052 351.92 351.73 351.38 351.17 351.017 350.787 350.557 350.427 350.242 349.935 349.74 349.412 349.207 348.907 348.687 348.465 348.22 347.962 347.725 347.4 346.98 346.555 346.212 345.812 345.515 345.12 344.795 344.475 344.272 343.892 343.497 343.187 342.855 342.567 342.242 341.695 341.175 340.91 340.557 340.19 339.837 339.607 339.255 338.952 338.57 338.015 337.715 337.12 336.625 336.045 335.492 334.742 334.202 333.885 333.55 333.415 333.2 332.985 333.002 332.882 332.74 332.577 332.39 332.155 331.7
413.207 413.137 412.982 412.85 412.857 412.932 412.885 412.822 412.83 412.812 412.855 412.825 412.827 413.022 413.04 413.072 413.032 413.032 412.977 412.89 412.75 412.66 412.545 412.36 412.22 412.087 411.997 411.875 411.782 411.645 411.57 411.442 411.382 411.207 411.01 410.882 410.73 410.455 410.352 410.24 410.09 409.975 409.797 409.572 409.422 409.26 409.172 408.982 408.777 408.64 408.437 408.19 408.057 407.94 407.722 407.615 407.475 407.375 407.282 407.147 406.96 406.765 406.567 406.357 406.145 405.892 405.657 405.327 404.88 404.44 403.812 403.482 403.15 403.445 404.132 404.335 404.235 404.202 404.155 403.982 403.872 403.787 403.577 403.345 403.26 403.082 402.75 402.585 402.46 402.197 401.982 401.767 401.542 401.36 401.15 401.025 400.982 400.802 400.737 400.6 400.482 400.387 400.172 400.015 399.837 399.722 399.657 399.497 399.38 399.247 399.087 398.957 398.875 398.777 398.517 398.245 398.12 398.017 397.812 397.677 397.547 397.452 397.287 397.182 397.032 396.897 396.705 396.552 396.36 396.212 396.087 395.907 395.697 395.527 395.372 395.052 394.822 394.542 394.29 393.932 393.485 392.887 392.27 391.53 390.752 389.867 388.547 387.535 387.5 387.737 388.327 388.797 389.06 388.812 388.515 388.342 388.332 388.075 387.78 387.652 387.465 387.31 387.185 386.995 386.767 386.505 385.64 385.452 385.402 385.072 384.642 384.777 384.995 384.825 384.512 384.407 384.227 384.227 384.075 383.835 383.9 384.052 384.075 384.017 383.905 383.635 383.335 383.105 382.605 382.292 381.99 381.765 381.412 380.975 380.525 380.33 380.175 379.717 379.34 379.01 378.227 378.082 377.857 377.74 377.625 377.565 377.437 377.117 376.875 376.682 376.355 376.055 375.832 375.707 375.555 375.487 375.44 375.362 375.29 375.2 375.112 374.867 374.657 374.47 374.157 373.672 373.37 373.117 372.835 372.5 372.28 372.147 372.09 371.99 371.877 371.81 371.64 371.367 371.23 370.932 370.762 370.505 370.305 370.185 370.025 369.947 369.817 369.667 369.45 369.207 369.02 368.855 368.695 368.43 368.115 367.882 367.692 367.54 367.287 367.007 366.867 366.59 366.355 366.15 365.907 365.655 365.6 365.502 365.197 365.06 364.932 364.782 364.535 364.255 363.985 363.775 363.48 363.235 362.917 362.645 362.232 361.817 361.477 361.12 360.88 360.477 360.117 359.75 359.472 359.22 358.91 358.525 358.2 357.975 357.605 357.467 357.347 357.215 356.84 356.617 356.382 355.915 355.432 355.117 354.77 354.39 354.09 353.9 353.86 353.672 353.582 353.505 353.377 353.187 352.852 352.665 352.46 352.327 352.007 351.845 351.605 351.332 351.052 350.915 350.7 350.48 350.212 350.03 349.827 349.535 349.245 348.987 348.762 348.54 348.365 348.025 347.712 347.402 347.045 346.782 346.435 346.11 345.747 345.447 345.15 344.807 344.427 344.112 343.75 343.367 343.03 342.715 342.367 341.987 341.512 341.245 341.087 340.71 340.35 340.05 339.625 339.185 338.837 338.347 337.852 337.365 336.73 336.165 335.635 335.187 334.847 334.407 334.037 333.982 333.77 333.74 333.685 333.407 333.032 332.835 332.557 332.222
413.425 413.38 413.29 413.212 413.23 413.197 413.072 413.015 413.125 413.057 413.02 413.052 413.125 413.26 413.392 413.412 413.3 413.207 413.17 413.12 413.055 413.002 412.83 412.692 412.442 412.24 412.12 412.012 411.857 411.802 411.74 411.642 411.617 411.492 411.282 411.162 410.95 410.735 410.585 410.457 410.295 410.125 409.992 409.875 409.697 409.49 409.34 409.18 409.015 408.887 408.797 408.477 408.317 408.255 408.045 407.86 407.7 407.587 407.525 407.305 407.117 406.95 406.865 406.597 406.407 406.155 405.897 405.652 405.232 404.852 404.13 403.797 403.6 403.797 404.535 404.76 404.7 404.577 404.44 404.282 404.205 403.965 403.842 403.7 403.487 403.295 403.1 402.985 402.63 402.452 402.277 402.032 401.785 401.465 401.375 401.252 401.172 401.147 400.91 400.785 400.735 400.627 400.392 400.262 400.112 399.952 399.907 399.882 399.672 399.545 399.385 399.267 399.165 398.962 398.802 398.657 398.512 398.38 398.22 398.027 397.907 397.805 397.57 397.467 397.335 397.207 397.055 396.925 396.752 396.62 396.405 396.217 395.987 395.797 395.695 395.37 395.14 394.925 394.602 394.25 393.71 393.147 392.495 391.787 391.005 390.247 389.547 388.705 388.54 388.952 389.532 389.885 389.862 389.657 389.397 389.16 389.047 388.605 387.957 387.9 388.132 388.085 387.72 387.605 387.465 387.017 386.105 386.08 385.875 385.365 385.385 385.502 385.54 385.507 385.29 385.137 384.957 384.917 384.682 384.492 384.702 384.827 384.882 384.787 384.59 384.377 383.867 383.535 383.065 382.735 382.637 382.295 381.91 381.527 381.275 381.015 380.57 380.187 379.672 379.082 378.705 378.602 378.44 378.385 378.167 378.022 377.655 377.367 377.232 376.997 376.715 376.562 376.235 376.092 375.907 375.802 375.682 375.612 375.55 375.497 375.357 375.152 374.912 374.68 374.415 374.01 373.755 373.347 373.03 372.672 372.527 372.532 372.485 372.422 372.23 372.092 372.01 371.782 371.612 371.382 371.13 370.945 370.74 370.535 370.382 370.312 370.147 369.95 369.745 369.55 369.235 369.02 368.832 368.602 368.345 368.152 367.945 367.805 367.66 367.352 367.197 367.075 366.767 366.585 366.397 366.21 366.097 365.84 365.64 365.492 365.317 365.072 364.875 364.617 364.377 364.112 363.797 363.48 363.212 362.927 362.61 362.135 361.712 361.42 361.142 360.75 360.422 360.075 359.835 359.607 359.285 358.935 358.665 358.38 358.052 357.82 357.885 357.752 357.337 357.017 356.842 356.427 356.01 355.51 355.07 354.812 354.48 354.31 354.352 354.172 354.125 353.885 353.66 353.527 353.372 353.09 352.86 352.625 352.407 352.217 351.982 351.71 351.467 351.26 351.102 350.845 350.532 350.377 350.205 349.922 349.677 349.38 349.117 348.907 348.68 348.375 348.065 347.867 347.877 347.39 347.042 346.635 346.31 345.972 345.715 345.36 345.02 344.575 344.197 343.93 343.645 343.337 343.03 342.55 342.24 342.047 341.732 341.36 341.08 340.745 340.337 340.155 339.725 339.007 338.455 337.97 337.497 336.787 336.19 335.73 335.295 334.875 334.705 334.652 334.737 334.347 334.147 333.89 333.575 333.297 333.007 332.73
413.63 413.605 413.565 413.442 413.425 413.45 413.397 413.265 413.275 413.29 413.27 413.312 413.385 413.52 413.68 413.687 413.75 413.547 413.412 413.325 413.27 413.18 413.012 412.87 412.697 412.535 412.387 412.21 411.995 411.92 411.892 411.735 411.772 411.687 411.445 411.422 411.26 411.02 410.81 410.677 410.49 410.317 410.17 410.022 409.852 409.71 409.585 409.432 409.3 409.18 409.037 408.837 408.55 408.42 408.285 408.107 407.965 407.787 407.712 407.467 407.252 407.072 406.965 406.897 406.685 406.337 406.12 405.827 405.445 405.097 404.502 404.072 404.06 404.235 404.73 405.047 404.992 404.905 404.772 404.68 404.567 404.365 404.202 404.01 403.842 403.652 403.447 403.07 402.912 402.65 402.447 402.207 402.03 401.755 401.57 401.447 401.375 401.232 401.105 400.945 400.795 400.712 400.642 400.405 400.412 400.332 400.245 400.13 400.085 399.965 399.787 399.687 399.58 399.375 399.147 398.985 398.792 398.645 398.542 398.365 398.28 398.107 397.905 397.837 397.675 397.517 397.325 397.207 397.065 396.917 396.762 396.515 396.4 396.242 395.995 395.822 395.492 395.317 394.945 394.58 393.947 393.352 392.672 391.965 391.342 390.88 390.502 390.232 390.162 390.717 390.695 390.737 390.62 390.41 390.182 389.952 389.845 389.37 388.95 388.932 388.672 388.67 388.355 388.025 387.912 387.467 386.585 386.455 386.19 385.87 386.197 386.227 386.242 386.175 386.072 385.905 385.7 385.627 385.425 385.097 385.315 385.545 385.685 385.522 385.31 384.975 384.292 383.842 383.472 383.275 383.167 382.945 382.642 382.317 381.992 381.655 381.202 380.82 380.39 379.995 379.197 379.285 378.927 378.905 378.792 378.427 378.065 377.777 377.492 377.227 377.06 376.955 376.615 376.367 376.295 376.252 376.237 375.942 375.877 375.795 375.59 375.502 375.342 375.017 374.562 374.2 373.992 373.705 373.312 373.022 372.955 372.91 372.865 372.74 372.627 372.517 372.32 372.117 371.952 371.75 371.572 371.347 371.132 370.975 370.825 370.68 370.555 370.392 370.067 369.787 369.605 369.247 368.972 368.705 368.527 368.38 368.277 368.237 368.052 367.865 367.577 367.385 367.152 366.92 366.712 366.555 366.415 366.232 366.017 365.827 365.652 365.385 365.162 364.922 364.692 364.335 364.022 363.637 363.38 363.175 362.832 362.377 361.957 361.73 361.45 361.027 360.79 360.502 360.25 359.97 359.66 359.32 359.037 358.825 358.572 358.357 358.305 358.197 357.895 357.495 357.26 356.927 356.46 355.95 355.555 355.23 354.997 354.852 354.74 354.7 354.67 354.335 354.035 353.85 353.707 353.547 353.232 352.995 352.795 352.502 352.28 352.05 351.802 351.612 351.42 351.19 350.96 350.82 350.55 350.327 350.057 349.862 349.597 349.287 348.992 348.772 348.542 348.447 348.332 347.902 347.615 347.165 346.772 346.42 346.115 345.807 345.427 345.145 344.815 344.445 344.27 343.92 343.58 343.232 342.945 342.66 342.342 342.125 341.78 341.387 341.047 340.687 340.11 339.567 339.025 338.48 337.847 337.342 336.895 336.367 335.885 335.847 335.242 335.127 335.13 334.927 334.615 334.367 334.112 333.705 333.462 333.082
414.015 413.945 413.765 413.672 413.667 413.707 413.695 413.635 413.575 413.555 413.572 413.635 413.602 413.655 413.84 413.835 413.842 413.905 413.692 413.55 413.42 413.355 413.227 413.002 412.722 412.677 412.575 412.455 412.282 412.127 412.002 411.927 411.867 411.79 411.58 411.59 411.41 411.215 411.012 410.852 410.645 410.53 410.335 410.195 410.092 410.04 409.85 409.702 409.505 409.377 409.25 409.16 408.922 408.76 408.572 408.447 408.3 408.12 407.935 407.732 407.505 407.36 407.12 407.067 406.925 406.63 406.355 406.115 405.835 405.605 405.04 404.562 404.36 404.382 404.885 405.392 405.357 405.182 405.04 404.985 404.742 404.647 404.525 404.317 404.135 403.967 403.805 403.522 403.192 403.02 402.725 402.485 402.302 402.06 401.82 401.702 401.655 401.402 401.315 401.125 401.015 400.825 400.842 400.727 400.615 400.55 400.442 400.387 400.42 400.31 400.157 400.012 399.912 399.722 399.49 399.287 399.157 399.022 398.885 398.722 398.57 398.397 398.275 398.082 397.975 397.892 397.705 397.55 397.487 397.215 397.095 396.952 396.752 396.547 396.305 396.142 395.865 395.655 395.28 394.847 394.165 393.482 392.84 392.245 391.807 391.555 391.392 391.275 391.257 391.495 391.517 391.527 391.427 391.195 390.852 390.667 390.45 390.037 389.832 389.582 389.307 389.222 388.952 388.11 388.365 387.992 387.065 386.6 386.687 386.692 386.822 386.855 386.93 386.83 386.725 386.575 386.377 386.295 386.067 385.802 385.932 386.197 386.352 386.102 385.735 385.165 384.4 383.937 383.932 383.77 383.595 383.387 383.307 383.15 382.982 382.495 381.725 381.46 381.137 380.757 380.315 379.855 379.627 379.332 379.087 378.81 378.532 378.312 377.965 377.54 377.327 377.152 376.947 376.83 376.817 376.725 376.522 376.33 376.202 376.07 375.907 375.805 375.6 375.285 374.712 374.38 374.142 373.847 373.532 373.362 373.265 373.257 373.217 373.212 373.172 372.967 372.792 372.522 372.335 372.197 371.972 371.66 371.452 371.26 371.137 371.102 370.957 370.747 370.445 370.13 369.882 369.615 369.282 368.94 368.802 368.732 368.66 368.55 368.452 368.242 368.025 367.772 367.525 367.295 367.01 366.832 366.73 366.577 366.347 366.132 365.965 365.677 365.43 365.18 364.915 364.525 364.212 363.832 363.552 363.347 363.042 362.64 362.34 362.015 361.772 361.41 361.15 360.945 360.605 360.327 359.987 359.672 359.537 359.217 359.02 358.822 358.597 358.485 358.207 357.87 357.642 357.442 357.075 356.59 356.045 355.712 355.507 355.3 355.202 355.177 355.105 354.805 354.502 354.185 354.035 353.9 353.63 353.34 353.105 352.867 352.722 352.44 352.232 352.015 351.767 351.547 351.305 351.155 350.967 350.827 350.52 350.22 349.957 349.63 349.362 349.135 349.01 348.87 348.672 348.412 348.072 347.645 347.252 346.92 346.58 346.25 346.02 345.762 345.507 345.125 344.892 344.49 344.122 343.827 343.535 343.19 342.852 342.635 342.32 341.952 341.647 341.117 340.547 340.025 339.387 339.007 338.607 338.157 337.76 337.335 336.885 336.562 335.995 335.717 335.63 335.43 335.115 334.97 334.775 334.335 333.962 333.71
414.355 414.21 414.077 413.98 413.975 413.957 413.902 413.917 413.757 413.735 413.727 413.8 413.79 413.822 413.982 414.047 414.072 414.055 413.952 413.767 413.6 413.495 413.41 413.21 413 412.937 412.747 412.592 412.455 412.335 412.255 412.145 411.987 411.9 411.76 411.75 411.56 411.455 411.345 411.167 410.942 410.742 410.562 410.422 410.257 410.177 410.085 409.96 409.805 409.697 409.6 409.372 409.14 409.045 408.84 408.697 408.57 408.405 408.207 407.995 407.797 407.66 407.417 407.33 407.177 406.865 406.612 406.412 406.207 405.977 405.447 405.035 404.755 404.637 405.06 405.622 405.66 405.475 405.312 405.21 404.972 404.852 404.725 404.6 404.407 404.275 404.002 403.82 403.637 403.272 403.04 402.8 402.575 402.295 402.027 401.857 401.705 401.502 401.475 401.312 401.125 401.027 401.055 401.017 400.905 400.782 400.712 400.715 400.667 400.585 400.507 400.342 400.17 399.997 399.837 399.652 399.46 399.32 399.177 399.015 398.86 398.682 398.582 398.377 398.305 398.187 397.985 397.835 397.742 397.572 397.482 397.365 397.217 396.965 396.667 396.46 396.245 395.992 395.565 395.03 394.352 393.64 393.215 392.717 392.257 392.042 392.12 392.097 392.06 392.287 392.23 392.18 392.12 391.905 391.62 391.395 391.092 390.78 390.695 390.425 390.002 389.857 389.605 389.165 388.952 388.7 387.492 386.852 387.447 387.167 387.172 387.525 387.61 387.462 387.377 387.162 386.945 386.832 386.532 386.29 386.54 386.792 386.752 386.465 385.872 385.277 384.337 383.752 384.305 384.257 384.105 383.98 383.952 383.897 383.692 383.122 382.56 382.36 381.92 381.43 380.957 380.455 380.112 379.797 379.487 379.26 378.967 378.622 378.33 377.917 377.622 377.452 377.282 377.135 377.057 376.967 376.95 376.797 376.522 376.382 376.255 376.125 375.882 375.482 374.942 374.637 374.322 374.03 373.78 373.66 373.617 373.59 373.582 373.647 373.557 373.3 373.212 372.927 372.672 372.517 372.337 372.087 371.832 371.615 371.507 371.482 371.317 371.112 370.842 370.507 370.182 369.962 369.712 369.347 369.152 369.07 369.06 368.877 368.71 368.575 368.347 368.082 367.835 367.605 367.295 367.162 366.997 366.817 366.637 366.512 366.297 365.972 365.735 365.52 365.195 364.842 364.44 364.077 363.762 363.462 363.187 362.985 362.712 362.422 362.205 361.885 361.607 361.33 360.862 360.532 360.345 360.132 360.032 359.74 359.407 359.245 359.035 358.715 358.465 358.117 358.015 357.745 357.492 357.18 356.76 356.402 356.03 355.905 355.665 355.587 355.47 355.35 355.027 354.717 354.392 354.227 353.935 353.667 353.427 353.267 353.09 352.765 352.577 352.325 352.12 351.885 351.737 351.637 351.425 351.16 350.887 350.562 350.302 349.967 349.76 349.612 349.42 349.235 349.052 348.83 348.477 348.042 347.61 347.26 346.937 346.7 346.522 346.322 346.097 345.752 345.395 345.005 344.657 344.337 344.085 343.842 343.447 343.222 342.85 342.382 341.98 341.465 341.122 340.695 340.227 339.642 339.307 338.79 338.327 338.047 338.557 337.375 336.89 336.752 336.345 336.05 335.81 335.602 335.345 335.05 334.517 334.212
414.597 414.517 414.3 414.167 414.145 414.087 414.032 413.972 413.875 413.895 413.982 414.035 414.032 414.055 414.135 414.23 414.245 414.242 414.225 413.962 413.88 413.697 413.62 413.48 413.275 413.147 412.935 412.825 412.765 412.647 412.527 412.327 412.207 412.085 411.94 411.905 411.812 411.712 411.53 411.342 411.257 411.042 410.837 410.595 410.48 410.457 410.332 410.14 410.002 409.937 409.82 409.625 409.39 409.292 409.165 409.015 408.922 408.745 408.527 408.312 408.107 407.917 407.697 407.602 407.477 407.127 406.912 406.782 406.647 406.287 405.842 405.335 405.102 405.065 405.602 405.93 405.845 405.767 405.687 405.427 405.282 405.065 404.962 404.8 404.547 404.41 404.24 404.185 403.877 403.605 403.372 403.097 402.84 402.622 402.327 402.04 401.87 401.775 401.7 401.562 401.36 401.287 401.282 401.242 401.22 401.105 400.965 400.995 400.915 400.86 400.87 400.735 400.535 400.322 400.2 400.062 399.875 399.672 399.502 399.27 399.112 398.98 398.855 398.672 398.59 398.445 398.402 398.227 398.125 397.942 397.712 397.555 397.477 397.295 397.065 396.795 396.497 396.41 395.955 395.23 394.53 394.037 393.65 393.327 392.95 392.692 392.715 392.895 392.917 393.092 393.005 392.925 392.83 392.647 392.357 392.175 391.835 391.62 391.39 391.202 390.74 390.46 390.212 389.785 389.347 389.02 387.912 387.602 388.047 388 388.192 388.415 388.342 388.142 387.957 387.785 387.52 387.212 386.817 386.777 387.065 387.28 387.12 386.705 386.162 385.547 385.082 384.72 384.82 384.785 384.62 384.597 384.6 384.495 384.357 383.97 383.587 383.142 382.66 382.137 381.517 381.132 380.82 380.215 379.902 379.6 379.29 379.127 378.707 378.322 377.922 377.715 377.627 377.425 377.362 377.315 377.26 377.077 376.91 376.837 376.662 376.47 376.202 375.712 375.065 374.752 374.482 374.292 374.107 374.09 374.07 374.082 374.135 374.057 373.875 373.64 373.517 373.23 372.957 372.777 372.582 372.462 372.232 372.065 371.942 371.8 371.712 371.46 371.17 370.82 370.49 370.25 370 369.74 369.532 369.437 369.337 369.275 368.992 368.79 368.57 368.35 368.14 367.9 367.635 367.372 367.19 367.072 366.97 366.767 366.585 366.32 366.055 365.755 365.522 365.192 364.85 364.402 364.015 363.635 363.362 363.337 363.112 362.865 362.637 362.352 362.14 361.805 361.257 360.962 360.705 360.365 360.235 360.13 359.787 359.612 359.37 359.152 358.895 358.44 358.255 358.03 357.9 357.642 357.432 357.132 356.74 356.615 356.315 356.092 355.977 355.807 355.585 355.3 354.955 354.635 354.327 354.07 353.822 353.652 353.425 353.222 352.935 352.717 352.52 352.28 352.107 351.985 351.77 351.45 351.217 351.05 350.792 350.54 350.257 349.952 349.765 349.572 349.375 349.047 348.695 348.332 347.972 347.667 347.32 347.06 346.847 346.712 346.512 346.367 346.012 345.65 345.28 344.945 344.67 344.35 344.035 343.747 343.43 342.957 342.542 342.055 341.617 341.172 340.682 340.24 339.712 339.267 339.072 338.91 338.722 338.312 337.63 337.222 336.935 336.797 336.66 336.53 336.155 335.692 335.165 334.86
414.75 414.612 414.54 414.52 414.38 414.33 414.26 414.247 414.112 414.162 414.162 414.19 414.197 414.175 414.192 414.325 414.375 414.33 414.372 414.22 414.11 413.972 413.795 413.672 413.547 413.462 413.282 413.18 413.02 412.88 412.825 412.607 412.507 412.36 412.167 412.122 412.01 411.885 411.755 411.64 411.415 411.27 411.065 410.97 410.75 410.67 410.515 410.477 410.322 410.172 410.13 409.992 409.84 409.685 409.557 409.415 409.195 409.077 408.865 408.595 408.417 408.245 408.057 407.81 407.732 407.52 407.36 407.175 406.897 406.46 406.122 405.602 405.32 405.492 406.02 406.18 406.165 406.105 405.91 405.79 405.527 405.287 405.102 404.98 404.772 404.637 404.55 404.402 404.155 403.927 403.637 403.375 403.105 402.887 402.632 402.345 402.207 402.115 402.022 401.747 401.732 401.612 401.55 401.535 401.432 401.362 401.262 401.21 401.217 401.09 401.065 400.987 400.89 400.65 400.542 400.45 400.267 399.99 399.822 399.61 399.462 399.265 399.122 398.992 398.915 398.79 398.647 398.547 398.495 398.345 398.02 397.957 397.79 397.642 397.452 397.167 396.85 396.58 396.16 395.505 394.862 394.345 394.047 393.682 393.452 393.302 393.347 393.52 393.635 393.765 393.717 393.545 393.532 393.392 393.092 392.835 392.555 392.34 392.052 391.68 391.427 391.097 390.8 390.575 390.105 389.48 388.38 388.087 388.772 389.165 389.157 389.085 388.932 388.785 388.64 388.477 388.157 387.705 387.247 387.22 387.385 387.547 387.332 387.062 386.575 386.057 385.797 385.615 385.45 385.335 385.217 384.91 384.852 384.9 384.875 384.555 384.137 383.697 383.2 382.727 382.202 381.725 381.265 380.72 380.28 379.862 379.617 379.385 379.05 378.715 378.415 378.092 377.91 377.825 377.742 377.6 377.565 377.407 377.355 377.372 377.112 376.782 376.352 375.677 374.8 374.715 374.702 374.632 374.475 374.482 374.582 374.627 374.637 374.482 374.205 374.015 373.77 373.577 373.322 373.137 372.915 372.737 372.555 372.425 372.295 372.097 371.95 371.727 371.412 371.025 370.72 370.482 370.245 369.992 369.755 369.647 369.57 369.46 369.21 369.047 368.807 368.53 368.35 368.265 368.045 367.777 367.565 367.432 367.275 367.09 366.887 366.63 366.327 366.005 365.782 365.512 365.282 364.84 364.465 364.132 363.717 363.617 363.515 363.185 362.957 362.7 362.445 362.212 361.792 361.37 361.157 360.915 360.615 360.397 360.115 360.055 359.815 359.602 359.435 359.077 358.712 358.475 358.372 358.115 357.905 357.602 357.387 357.112 356.842 356.607 356.407 356.295 356.085 355.887 355.477 355.072 354.762 354.46 354.202 354.027 353.85 353.542 353.282 353.105 352.925 352.637 352.467 352.247 352.032 351.802 351.57 351.445 351.265 350.907 350.675 350.35 350.115 349.905 349.652 349.27 348.97 348.695 348.422 348.112 347.732 347.47 347.302 347.057 346.945 346.765 346.572 346.245 345.895 345.455 345.14 344.94 344.595 344.245 343.927 343.595 343.132 342.62 342.14 341.557 341.12 340.82 340.425 340.02 339.737 339.595 339.405 339.085 338.58 338.107 337.615 337.477 337.397 337.24 336.862 336.415 335.862 335.43
414.972 414.882 414.862 414.76 414.715 414.592 414.427 414.39 414.322 414.357 414.29 414.387 414.355 414.355 414.4 414.482 414.467 414.49 414.415 414.375 414.352 414.185 413.925 413.855 413.867 413.78 413.512 413.385 413.295 413.237 412.985 412.742 412.605 412.427 412.345 412.325 412.25 412.075 411.987 411.887 411.69 411.55 411.467 411.287 411.047 410.95 410.855 410.667 410.615 410.517 410.487 410.292 410.092 409.93 409.972 409.752 409.597 409.407 409.232 408.962 408.792 408.537 408.332 408.18 408.015 407.86 407.657 407.382 407.15 406.727 406.465 405.857 405.49 405.87 406.352 406.445 406.46 406.335 406.215 405.97 405.712 405.575 405.355 405.24 405.055 404.942 404.83 404.672 404.47 404.215 403.957 403.737 403.42 403.155 402.812 402.607 402.487 402.415 402.317 402.14 402.01 401.952 401.815 401.777 401.722 401.637 401.67 401.537 401.43 401.425 401.352 401.287 401.24 401.16 400.945 400.845 400.62 400.407 400.287 400.06 399.845 399.66 399.49 399.372 399.24 399.132 398.987 398.962 398.785 398.607 398.415 398.252 398.172 398.05 397.852 397.527 397.28 396.882 396.54 395.955 395.367 394.98 394.685 394.237 393.927 393.845 393.71 394.007 394.292 394.4 394.337 394.247 394.155 394.07 393.81 393.535 393.277 392.922 392.645 392.292 392.07 391.787 391.427 391.07 390.695 389.765 388.735 388.5 389.275 389.972 389.767 389.522 389.377 389.275 389.195 389.05 388.782 388.287 387.81 387.65 387.745 387.862 387.732 387.455 386.97 386.47 386.315 386.285 386.105 385.862 385.792 385.432 385.272 385.425 385.505 385.115 384.717 384.265 383.82 383.372 382.845 382.322 381.79 381.257 380.687 380.262 379.972 379.652 379.327 378.937 378.587 378.36 378.205 378.13 378.125 378.072 378.015 377.815 377.8 377.652 377.4 377.045 376.507 375.75 374.527 374.382 374.96 374.992 374.97 375.102 375.12 375.092 375.037 374.997 374.725 374.375 374.1 373.8 373.565 373.342 373.285 373.162 372.982 372.78 372.642 372.45 372.327 372.055 371.487 371.195 370.942 370.715 370.502 370.212 369.987 369.872 369.78 369.665 369.5 369.277 369.005 368.727 368.57 368.465 368.337 368.2 368.005 367.807 367.572 367.377 367.157 366.852 366.582 366.232 366.015 365.7 365.472 365.197 364.852 364.525 364.185 364 363.712 363.487 363.275 363.015 362.742 362.472 362.12 361.777 361.527 361.317 361.047 360.83 360.595 360.362 360.212 360.102 359.8 359.425 359.14 359.01 358.755 358.457 358.28 357.942 357.747 357.51 357.375 357.16 356.9 356.77 356.51 356.282 356.012 355.647 355.23 354.88 354.675 354.43 354.212 353.902 353.8 353.527 353.37 353.07 352.877 352.607 352.41 352.187 351.957 351.825 351.612 351.362 351.115 350.832 350.562 350.247 350.032 349.79 349.462 349.21 348.782 348.462 348.185 347.877 347.78 347.61 347.35 347.18 346.962 346.7 346.377 346.037 345.687 345.452 345.075 344.705 344.415 344.077 343.715 343.277 342.827 342.317 341.832 341.32 341.055 340.615 340.415 340.182 340.04 339.812 339.395 338.895 338.352 338.057 338.327 338.21 337.617 337.14 336.697 336.277
415.295 415.145 415.107 415.137 414.962 414.835 414.73 414.715 414.597 414.61 414.5 414.52 414.502 414.495 414.597 414.67 414.627 414.577 414.495 414.535 414.362 414.307 414.127 414.05 413.965 413.92 413.74 413.6 413.52 413.305 413.137 412.842 412.72 412.647 412.595 412.512 412.45 412.362 412.15 412.03 412.03 411.857 411.83 411.695 411.362 411.292 411.02 411.015 410.925 410.87 410.702 410.53 410.41 410.302 410.277 410.165 409.97 409.665 409.487 409.257 409.075 408.82 408.615 408.445 408.32 408.087 407.94 407.705 407.432 407.065 406.567 405.952 405.742 406.282 406.712 406.795 406.677 406.64 406.562 406.282 406.045 405.835 405.635 405.437 405.245 405.177 405.12 404.965 404.805 404.52 404.355 404.022 403.737 403.475 403.122 402.91 402.825 402.63 402.55 402.42 402.33 402.26 402.2 402.087 402.022 402.007 402.027 401.88 401.772 401.757 401.712 401.557 401.56 401.542 401.405 401.255 401.082 400.81 400.625 400.372 400.235 400.037 399.855 399.71 399.645 399.567 399.505 399.317 399.165 398.96 398.795 398.682 398.557 398.382 398.082 397.865 397.59 397.35 396.96 396.437 395.775 395.495 395.197 394.712 394.47 394.36 394.32 394.652 394.877 394.985 394.975 394.877 394.722 394.627 394.36 394.152 393.837 393.475 393.295 392.992 392.677 392.342 391.905 391.632 391.27 390.382 388.955 388.92 389.91 390.525 390.242 390.015 390.007 389.86 389.765 389.687 389.395 388.89 388.435 388.202 388.29 388.322 388.235 387.91 387.392 386.9 386.732 386.81 386.747 386.65 386.485 386.285 386.137 386.172 386.08 385.732 385.2 384.627 383.827 383.945 383.497 382.922 382.407 381.88 381.257 380.73 380.302 379.87 379.59 379.23 378.872 378.695 378.672 378.48 378.41 378.477 378.437 378.297 378.102 377.937 377.595 377.205 376.675 375.99 375.135 374.997 375.445 375.402 375.452 375.597 375.66 375.58 375.442 375.307 375.122 374.762 374.422 374.107 373.762 373.327 373.465 373.48 373.312 373.082 372.927 372.747 372.707 372.465 371.95 371.447 370.932 370.9 370.812 370.63 370.422 370.22 370.075 369.827 369.645 369.472 369.255 369.045 368.935 368.812 368.637 368.535 368.342 368.152 367.895 367.652 367.412 367.135 366.887 366.537 366.312 365.975 365.722 365.41 365.117 364.802 364.587 364.44 364.172 363.84 363.575 363.337 363.065 362.755 362.425 362.16 361.89 361.765 361.395 361.197 360.955 360.755 360.632 360.447 360.077 359.755 359.44 359.282 359.042 358.79 358.672 358.337 358.215 358.022 357.81 357.552 357.347 357.225 356.922 356.665 356.46 356.26 355.847 355.58 355.302 354.955 354.697 354.452 354.312 353.98 353.725 353.555 353.33 353.145 352.992 352.715 352.505 352.292 352.14 351.845 351.557 351.32 351.065 350.83 350.462 350.227 349.897 349.67 349.385 349.087 348.78 348.492 348.335 348.092 347.847 347.622 347.45 347.275 347.002 346.597 346.237 345.922 345.627 345.327 344.94 344.65 344.312 343.88 343.395 342.91 342.347 341.91 341.502 341.212 341.037 340.837 340.627 340.382 339.91 339.557 339.077 338.902 338.91 338.747 338.242 337.715 337.345 336.847
415.555 415.445 415.302 415.375 415.277 415.132 414.957 414.887 414.847 414.8 414.682 414.717 414.737 414.72 414.74 414.775 414.71 414.712 414.592 414.587 414.492 414.38 414.242 414.127 414.025 413.927 413.78 413.715 413.657 413.465 413.202 413.035 412.932 412.895 412.717 412.725 412.717 412.622 412.482 412.417 412.377 412.257 412.115 411.977 411.812 411.53 411.4 411.267 411.21 411.15 410.987 410.862 410.602 410.495 410.467 410.345 410.177 410.055 409.82 409.63 409.352 409.115 409.02 408.862 408.62 408.45 408.402 408.037 407.725 407.327 406.82 406.165 406.04 406.795 407.027 407.052 407.032 406.895 406.805 406.64 406.29 406.11 405.902 405.805 405.532 405.41 405.267 405.087 405.032 404.862 404.56 404.3 404.06 403.727 403.417 403.2 403.032 402.895 402.792 402.745 402.637 402.595 402.535 402.505 402.352 402.302 402.367 402.22 402.145 402.07 402.092 401.997 401.887 401.827 401.695 401.615 401.437 401.22 401.027 400.84 400.707 400.422 400.297 400.135 400.075 399.967 399.887 399.77 399.552 399.39 399.187 399.042 398.935 398.725 398.545 398.287 397.867 397.57 397.125 396.882 396.32 396.057 395.685 395.385 395.22 395.172 395.032 395.047 395.275 395.447 395.472 395.407 395.31 395.165 394.907 394.655 394.34 394.1 393.8 393.582 393.41 392.91 392.59 392.275 391.957 391.085 389.54 389.597 390.902 391.027 390.705 390.6 390.605 390.55 390.317 390.215 389.85 389.415 389.057 389.002 388.942 388.852 388.687 388.27 387.772 387.467 387.247 387.397 387.472 387.37 387.202 387.02 386.827 386.817 386.597 386.215 385.742 385.075 384.615 384.555 384.145 383.61 383.03 382.522 381.862 381.297 380.77 380.275 379.84 379.535 379.275 379.112 378.87 378.827 378.817 378.822 378.83 378.68 378.46 378.207 377.79 377.422 376.872 376.37 375.842 375.957 375.942 375.92 376.065 376.177 376.12 375.965 375.822 375.645 375.345 375.042 374.842 374.472 374.142 373.885 373.805 373.737 373.612 373.372 373.185 373.05 372.91 372.66 372.432 371.995 371.357 371.077 371.03 370.97 370.877 370.622 370.435 370.232 369.927 369.73 369.54 369.372 369.265 369.09 368.982 368.917 368.67 368.44 368.177 367.945 367.617 367.397 367.16 366.945 366.642 366.347 366.025 365.737 365.47 365.222 364.967 364.792 364.542 364.242 363.965 363.722 363.382 363.087 362.757 362.585 362.27 362.155 361.835 361.68 361.405 361.162 360.937 360.665 360.477 360.077 359.732 359.605 359.48 359.225 359.08 358.81 358.742 358.48 358.262 358.097 357.782 357.632 357.337 357.1 356.885 356.632 356.37 356.127 355.852 355.495 355.247 355.015 354.795 354.495 354.225 354.122 353.825 353.677 353.387 353.167 352.945 352.735 352.525 352.342 352.007 351.83 351.592 351.237 350.95 350.692 350.402 350.212 350.015 349.78 349.397 349.085 348.862 348.61 348.437 348.142 347.972 347.79 347.605 347.222 346.83 346.485 346.215 345.915 345.575 345.232 344.81 344.335 343.91 343.415 342.882 342.605 342.117 341.857 341.717 341.56 341.185 340.85 340.45 340.087 339.812 339.69 339.702 339.307 338.975 338.382 337.965 337.502
415.887 415.75 415.625 415.527 415.417 415.405 415.205 415.185 415.122 415.032 414.967 414.955 414.912 414.86 414.875 414.917 414.877 414.767 414.785 414.72 414.682 414.49 414.292 414.217 414.147 414.06 413.92 413.827 413.72 413.617 413.377 413.255 413.17 413.127 413.03 412.947 412.947 412.785 412.712 412.66 412.642 412.572 412.337 412.155 412.05 411.812 411.637 411.457 411.51 411.465 411.335 411.115 410.92 410.76 410.667 410.607 410.59 410.407 410.185 409.937 409.73 409.535 409.275 409.035 408.832 408.855 408.572 408.242 407.977 407.637 407.272 406.812 406.435 407.085 407.445 407.397 407.372 407.237 407.02 406.787 406.605 406.37 406.207 406.037 405.84 405.635 405.55 405.36 405.232 405.095 404.872 404.7 404.33 404.105 403.807 403.585 403.422 403.46 403.345 403.187 403.052 403.022 403.115 402.922 402.882 402.717 402.697 402.59 402.475 402.395 402.395 402.272 402.217 402.162 402.06 401.99 401.76 401.592 401.465 401.2 401.037 400.937 400.752 400.635 400.57 400.425 400.29 400.21 400.002 399.777 399.607 399.465 399.28 399.095 398.915 398.815 398.275 397.872 397.43 397.23 396.855 396.515 396.175 395.965 395.907 395.87 395.76 395.54 395.64 395.757 395.99 395.915 395.782 395.622 395.39 395.142 394.957 394.645 394.325 394.152 393.822 393.525 393.3 392.965 392.5 391.532 390.105 390.282 391.427 391.657 391.345 391.217 391.297 391.18 390.93 390.687 390.187 389.42 389.645 389.59 389.557 389.267 388.892 388.492 388.075 387.86 387.892 388.04 388.125 387.997 387.757 387.572 387.347 387.31 387.032 386.565 386.047 385.402 384.867 384.855 384.752 384.115 383.37 382.995 382.53 381.987 381.387 380.842 380.45 380.07 379.775 379.502 379.28 379.23 379.23 379.3 379.282 379.047 378.737 378.377 377.887 377.5 377.095 376.735 376.462 376.422 376.382 376.432 376.645 376.622 376.465 376.172 376.012 375.795 375.542 375.28 375.052 374.74 374.48 374.245 374.115 374.017 373.935 373.69 373.427 373.285 373.102 372.857 372.65 372.422 372.172 371.92 371.642 371.395 371.24 371.077 370.867 370.642 370.247 369.967 369.792 369.72 369.575 369.345 369.187 369.087 368.915 368.737 368.465 368.19 367.94 367.727 367.527 367.35 367.047 366.742 366.35 366.017 365.815 365.512 365.31 365.12 364.882 364.562 364.24 363.99 363.67 363.382 363.137 362.872 362.63 362.532 362.272 362.065 361.835 361.565 361.262 360.977 360.745 360.467 360.24 360.065 359.96 359.72 359.497 359.317 359.102 358.907 358.662 358.385 358.197 357.972 357.867 357.632 357.37 357.082 356.885 356.622 356.342 355.99 355.77 355.507 355.205 355.075 354.765 354.672 354.357 354.167 353.887 353.652 353.547 353.292 353.027 352.81 352.6 352.42 352.102 351.75 351.452 351.182 350.952 350.775 350.572 350.317 350.047 349.717 349.497 349.355 349.032 348.78 348.582 348.32 348.067 347.742 347.435 347.117 346.907 346.502 346.15 345.722 345.267 344.745 344.29 343.747 343.367 343.097 342.722 342.46 342.21 342.02 341.83 341.582 341.335 340.985 340.705 340.592 340.377 340.015 339.642 339.152 338.677 338.2
416.217 415.92 415.85 415.792 415.662 415.57 415.492 415.437 415.3 415.185 415.185 415.152 415.037 414.98 414.97 415.075 415.002 414.932 414.995 414.877 414.725 414.652 414.432 414.355 414.27 414.237 414.11 413.977 413.88 413.805 413.627 413.525 413.395 413.337 413.195 413.245 413.192 413.177 413.092 413.052 412.902 412.782 412.585 412.46 412.272 412.157 411.85 411.767 411.69 411.767 411.682 411.395 411.272 411.067 410.93 410.855 410.685 410.635 410.367 410.19 409.952 409.84 409.6 409.297 409.152 409.18 408.97 408.56 408.22 407.872 407.52 407.2 407.24 407.602 407.742 407.78 407.672 407.517 407.327 407.155 406.965 406.732 406.59 406.305 406.132 406.085 405.872 405.69 405.577 405.452 405.18 404.892 404.79 404.547 404.232 404.02 403.887 403.737 403.565 403.52 403.425 403.412 403.365 403.325 403.2 403.097 403.042 402.907 402.92 402.75 402.775 402.687 402.607 402.577 402.477 402.277 402.1 402.007 401.877 401.647 401.622 401.35 401.135 401.065 400.885 400.8 400.687 400.535 400.295 400.17 399.937 399.747 399.615 399.335 399.165 398.92 398.507 398.167 397.752 397.537 397.13 396.912 396.615 396.547 396.53 396.44 396.445 396.207 396.16 396.197 396.41 396.375 396.27 396.06 395.81 395.542 395.39 395.125 394.932 394.725 394.39 394.087 393.822 393.577 392.987 391.842 390.592 390.8 391.967 392.31 392.092 391.965 391.95 391.835 391.65 391.177 390.737 390.335 390.335 390.167 389.98 389.662 389.335 388.77 388.395 388.302 388.502 388.742 388.692 388.532 388.49 388.117 387.83 387.695 387.51 387.112 386.502 385.947 385.507 385.422 385.255 384.657 383.835 383.655 383.337 382.872 382.22 381.562 381.152 380.722 380.47 380.147 379.867 379.712 379.717 379.73 379.64 379.397 379.035 378.572 378.097 377.755 377.372 377.1 377.025 376.872 376.862 376.975 377.117 376.892 376.645 376.355 376.217 375.98 375.777 375.527 375.265 374.92 374.73 374.635 374.487 374.327 374.137 373.942 373.672 373.487 373.367 373.145 372.915 372.642 372.485 372.372 372.095 371.955 371.72 371.407 371.252 370.967 370.602 370.212 370.017 369.952 369.867 369.675 369.447 369.335 369.145 368.945 368.717 368.505 368.247 368.027 367.89 367.707 367.417 367.115 366.77 366.445 366.125 365.822 365.597 365.417 365.125 364.89 364.615 364.237 363.97 363.747 363.51 363.28 362.927 362.77 362.547 362.385 362.167 361.857 361.577 361.34 361.03 360.8 360.692 360.58 360.482 360.227 360.012 359.815 359.562 359.355 359.132 358.87 358.647 358.47 358.267 358.012 357.932 357.752 357.427 357.075 356.727 356.52 356.34 356.005 355.775 355.537 355.417 355.127 354.875 354.61 354.45 354.175 354.08 353.925 353.64 353.372 353.102 352.872 352.562 352.33 352.045 351.785 351.53 351.37 351.15 350.875 350.602 350.412 350.137 350.035 349.727 349.442 349.182 348.902 348.612 348.295 347.977 347.727 347.495 347.127 346.652 346.202 345.702 345.175 344.672 344.202 343.8 343.46 343.18 342.867 342.77 342.622 342.497 342.322 342.082 341.972 341.685 341.425 341.11 340.75 340.402 339.9 339.452 338.972
416.592 416.26 416.135 416.015 415.907 415.845 415.802 415.697 415.64 415.415 415.307 415.265 415.26 415.19 415.22 415.237 415.205 415.18 415.19 415.152 415.002 414.922 414.737 414.625 414.52 414.41 414.237 414.152 414.027 413.875 413.877 413.872 413.82 413.722 413.53 413.48 413.44 413.46 413.382 413.292 413.2 413.14 412.97 412.812 412.622 412.322 412.18 412.012 411.967 411.882 411.812 411.675 411.575 411.322 411.23 411.032 410.847 410.762 410.585 410.41 410.225 410.162 409.82 409.537 409.37 409.325 409.197 408.845 408.457 408.142 407.572 407.455 407.665 408.035 408.137 408.107 407.942 407.812 407.827 407.532 407.237 407.037 406.82 406.647 406.47 406.442 406.262 406.06 405.942 405.685 405.555 405.302 405.072 404.95 404.66 404.517 404.255 404.075 404.007 403.975 403.882 403.73 403.657 403.645 403.625 403.55 403.45 403.415 403.252 403.235 403.192 403.012 403.005 402.887 402.787 402.68 402.46 402.35 402.24 402.025 401.935 401.757 401.602 401.49 401.282 401.165 400.997 400.892 400.62 400.495 400.307 400.132 399.832 399.652 399.565 399.132 398.785 398.495 398.167 397.915 397.465 397.285 397.152 397.227 397.12 397.055 397.017 396.752 396.657 396.662 396.83 396.83 396.782 396.58 396.352 396.137 395.895 395.667 395.39 395.217 394.957 394.595 394.35 394.022 393.077 391.815 391.007 391.512 392.6 392.895 392.747 392.645 392.535 392.342 392.16 391.827 391.527 391.295 391.09 390.735 390.34 389.862 389.392 388.975 388.802 388.86 389.07 389.357 389.3 389.107 388.925 388.667 388.385 388.165 388.04 387.642 387.17 386.692 386.415 386.187 385.827 385.305 384.81 384.507 384.08 383.615 382.987 382.315 381.86 381.432 381.14 380.78 380.505 380.232 380.222 380.14 380.055 379.697 379.212 378.72 378.285 377.932 377.597 377.492 377.517 377.502 377.537 377.497 377.457 377.15 376.837 376.552 376.4 376.15 375.932 375.697 375.43 375.175 375.055 374.94 374.772 374.575 374.415 374.242 373.957 373.707 373.522 373.412 373.19 372.965 372.782 372.662 372.472 372.38 372.04 371.745 371.58 371.36 371.055 370.675 370.4 370.275 370.077 369.872 369.782 369.6 369.345 369.175 368.947 368.71 368.567 368.395 368.225 368.017 367.787 367.522 367.225 366.935 366.55 366.232 365.88 365.675 365.465 365.14 364.792 364.487 364.25 364.162 363.92 363.647 363.375 363.057 362.782 362.602 362.352 362.127 361.902 361.675 361.38 361.237 361.175 361.08 360.962 360.7 360.465 360.292 360.09 359.932 359.612 359.282 359.05 358.9 358.7 358.46 358.4 358.202 357.912 357.62 357.285 357.09 356.79 356.487 356.315 356.077 355.867 355.565 355.397 355.092 354.967 354.76 354.545 354.375 354.225 354 353.707 353.482 353.155 352.865 352.64 352.432 352.28 352.062 351.782 351.577 351.307 351.067 350.817 350.707 350.45 350.192 349.885 349.565 349.252 348.927 348.577 348.27 347.925 347.587 347.12 346.627 346.067 345.517 345.072 344.655 344.32 343.937 343.707 343.377 343.247 343.275 343.175 343.102 342.922 342.76 342.572 342.195 341.817 341.53 341.102 340.647 340.295 339.895
416.847 416.492 416.372 416.26 416.095 416.062 416 415.9 415.747 415.59 415.557 415.44 415.355 415.35 415.417 415.47 415.477 415.555 415.507 415.445 415.307 415.197 415 414.782 414.61 414.537 414.467 414.332 414.327 414.205 414.19 414.225 414.205 414.027 413.932 413.89 413.87 413.737 413.68 413.647 413.545 413.43 413.227 413.087 412.907 412.657 412.512 412.41 412.272 412.165 412.055 411.975 411.822 411.667 411.355 411.155 411.09 410.88 410.73 410.62 410.462 410.345 410.085 409.817 409.615 409.512 409.407 409.05 408.655 408.127 407.692 407.99 408.355 408.472 408.367 408.38 408.32 408.132 408.087 407.88 407.64 407.527 407.227 406.995 406.987 406.747 406.652 406.54 406.387 406.197 406.012 405.862 405.522 405.305 405.2 404.96 404.72 404.56 404.397 404.31 404.242 404.22 404.23 403.99 403.917 403.885 403.905 403.847 403.66 403.6 403.477 403.382 403.307 403.26 403.112 402.972 402.795 402.717 402.48 402.325 402.297 402.155 402.007 401.92 401.72 401.567 401.322 401.095 401.075 400.887 400.695 400.42 400.182 399.987 399.83 399.367 399.11 398.745 398.475 398.225 397.915 397.765 397.735 397.75 397.675 397.537 397.477 397.165 397.12 397.097 397.267 397.245 397.157 396.972 396.827 396.647 396.355 396.127 395.887 395.68 395.467 395.195 394.772 394.16 392.945 391.897 391.595 392.13 393.19 393.482 393.342 393.227 393.115 392.872 392.69 392.457 392.177 391.885 391.527 391.062 390.455 389.647 388.75 388.657 389.282 389.557 389.715 389.945 389.952 389.717 389.487 389.262 388.955 388.72 388.552 388.157 387.817 387.482 387.205 386.94 386.442 385.857 385.325 385.02 384.602 384.147 383.747 383.087 382.46 382.212 381.755 381.347 381.075 380.825 380.577 380.525 380.245 379.825 379.36 378.895 378.52 378.225 377.96 377.992 378.012 377.947 377.997 377.957 377.787 377.397 377.047 376.72 376.51 376.302 376.12 375.865 375.59 375.47 375.567 375.44 375.192 374.857 374.687 374.445 374.26 374.06 373.81 373.637 373.505 373.335 373.127 372.91 372.76 372.625 372.525 372.265 371.945 371.7 371.527 371.282 370.912 370.697 370.332 369.967 369.835 369.675 369.555 369.542 369.227 368.97 368.852 368.775 368.575 368.39 368.12 367.865 367.607 367.262 366.96 366.66 366.285 365.94 365.685 365.43 365.102 364.88 364.575 364.397 364.237 364.005 363.79 363.46 363.11 362.92 362.677 362.41 362.165 361.925 361.665 361.622 361.567 361.5 361.392 361.167 360.81 360.725 360.497 360.327 359.977 359.717 359.435 359.25 359.127 358.987 358.827 358.582 358.31 358.05 357.677 357.477 357.245 356.997 356.792 356.57 356.315 356.072 355.965 355.84 355.6 355.442 355.205 354.985 354.882 354.65 354.355 354.095 353.837 353.565 353.322 353.035 352.847 352.665 352.417 352.13 351.86 351.675 351.39 351.292 351.167 350.882 350.592 350.267 349.93 349.525 349.227 348.872 348.422 348.077 347.632 347.072 346.5 345.93 345.44 345.062 344.802 344.592 344.147 344.027 343.967 343.915 343.952 343.79 343.76 343.472 343.212 342.935 342.625 342.367 342.055 341.602 341.112 340.71
417.045 416.84 416.677 416.505 416.345 416.287 416.162 416.042 415.987 415.872 415.805 415.725 415.645 415.61 415.72 415.76 415.732 415.752 415.647 415.522 415.457 415.267 415.107 414.92 414.837 414.805 414.83 414.78 414.702 414.677 414.687 414.705 414.57 414.41 414.28 414.182 414.09 414.005 413.965 413.837 413.715 413.647 413.592 413.345 413.125 412.992 412.795 412.715 412.642 412.515 412.37 412.215 412.055 411.915 411.667 411.475 411.305 411.192 411.015 410.987 410.815 410.595 410.302 410.08 409.955 409.767 409.53 409.155 408.797 408.165 408.167 408.58 408.78 408.852 408.745 408.697 408.545 408.507 408.327 408.175 407.952 407.812 407.602 407.467 407.347 407.215 407.002 406.937 406.757 406.555 406.44 406.227 406.08 405.802 405.572 405.325 405.137 404.967 404.795 404.69 404.642 404.682 404.687 404.635 404.487 404.265 404.27 404.155 404.077 403.877 403.855 403.755 403.707 403.63 403.43 403.342 403.13 403.027 402.885 402.615 402.522 402.5 402.407 402.312 402.152 401.915 401.712 401.48 401.237 401.195 401.035 400.902 400.54 400.212 399.952 399.555 399.265 398.972 398.707 398.59 398.33 398.292 398.235 398.215 398.112 398.085 397.852 397.58 397.5 397.457 397.642 397.662 397.532 397.362 397.172 396.992 396.775 396.582 396.332 396.197 395.997 395.67 395.187 394.3 392.872 392.245 392.13 392.725 393.85 394.007 393.882 393.752 393.667 393.507 393.25 392.99 392.752 392.297 391.5 390.907 390.33 389.512 388.025 387.567 388.855 389.8 390.32 390.477 390.572 390.362 390.067 389.842 389.582 389.242 389.042 388.725 388.435 388.157 387.885 387.647 387.115 386.607 386.072 385.617 385.137 384.692 384.192 383.512 382.697 382.68 382.357 381.977 381.565 381.3 380.987 380.75 380.545 379.992 379.495 379.095 378.76 378.53 378.487 378.455 378.502 378.61 378.437 378.317 378.107 377.735 377.335 377.007 376.697 376.48 376.26 376.052 375.822 375.64 375.88 375.765 375.367 375.017 374.837 374.647 374.465 374.257 374.08 373.892 373.707 373.542 373.38 373.165 372.925 372.695 372.567 372.405 372.142 371.93 371.8 371.7 371.427 371.14 370.835 370.65 370.365 370.187 370.11 369.98 369.637 369.427 369.335 369.225 369.017 368.727 368.522 368.245 367.93 367.592 367.215 366.925 366.607 366.272 365.917 365.652 365.367 365.162 364.912 364.69 364.522 364.367 364.13 363.847 363.585 363.382 363.167 362.822 362.585 362.28 362.057 361.87 361.925 361.887 361.77 361.555 361.365 361.135 360.912 360.692 360.492 360.18 359.997 359.782 359.622 359.442 359.31 359.025 358.785 358.542 358.102 357.815 357.6 357.397 357.235 356.985 356.785 356.64 356.525 356.425 356.135 355.93 355.8 355.697 355.59 355.34 354.967 354.742 354.472 354.22 353.947 353.715 353.49 353.285 353.02 352.722 352.432 352.202 352.02 351.912 351.747 351.485 351.22 350.91 350.58 350.21 349.797 349.442 349.097 348.705 348.21 347.56 346.917 346.25 345.817 345.465 345.232 344.882 344.652 344.55 344.577 344.642 344.652 344.577 344.427 344.207 343.907 343.747 343.395 343.137 342.852 342.46 342.057 341.58
417.437 417.185 417.027 416.847 416.717 416.545 416.422 416.33 416.28 416.165 416.127 416.027 415.99 416.01 416.025 415.955 415.977 415.895 415.79 415.7 415.62 415.385 415.322 415.217 415.172 415.162 415.09 415.087 415.077 415.107 415.1 414.967 414.895 414.815 414.612 414.535 414.39 414.3 414.242 414.22 414.127 413.912 413.807 413.647 413.412 413.212 413.1 413.03 412.927 412.755 412.652 412.392 412.302 412.08 411.837 411.735 411.587 411.392 411.345 411.282 411.022 410.755 410.592 410.305 410.16 409.94 409.637 409.357 408.947 408.655 408.957 409.125 409.15 409.117 409.097 409.055 408.912 408.87 408.787 408.515 408.332 408.17 407.982 407.81 407.692 407.642 407.387 407.327 407.202 407.022 406.867 406.61 406.362 406.207 406.017 405.772 405.612 405.432 405.28 405.192 405.117 405.16 405.077 405.01 404.897 404.737 404.802 404.447 404.36 404.237 404.26 404.095 404.017 403.905 403.8 403.712 403.462 403.295 403.157 403.03 402.905 402.832 402.832 402.65 402.482 402.285 402.04 401.81 401.632 401.492 401.272 401.065 400.697 400.36 400.05 399.735 399.492 399.352 398.992 398.9 398.86 398.785 398.622 398.625 398.515 398.517 398.235 397.925 397.87 397.807 397.937 398.07 397.965 397.75 397.542 397.35 397.212 397.072 396.81 396.592 396.357 396.097 395.517 394.42 393.12 392.792 392.957 393.67 394.46 394.475 394.375 394.237 394.112 393.935 393.702 393.51 393.24 392.6 391.802 391.42 390.54 389.177 387.757 387.037 388.552 389.942 390.66 390.9 390.99 390.8 390.592 390.397 390.092 389.76 389.545 389.232 388.932 388.677 388.385 388.1 387.79 387.32 386.77 386.142 385.765 385.335 384.72 384.062 383.377 383.225 382.86 382.462 382.082 381.737 381.432 381.14 380.742 380.227 379.69 379.287 379.012 378.98 379.065 379.03 379.107 379.105 378.91 378.72 378.41 378.145 377.737 377.362 377.067 377.005 376.627 376.395 376.142 375.872 375.815 375.702 375.397 375.1 374.9 374.74 374.56 374.422 374.255 374.11 373.987 373.752 373.57 373.322 373.107 372.825 372.63 372.47 372.23 372.08 371.965 371.825 371.642 371.48 371.285 370.93 370.83 370.835 370.582 370.342 370.177 369.925 369.865 369.77 369.485 369.237 368.982 368.672 368.342 368.032 367.64 367.32 366.952 366.585 366.245 365.947 365.682 365.425 365.2 364.96 364.81 364.652 364.45 364.22 364.012 363.777 363.55 363.222 362.905 362.742 362.52 362.355 362.4 362.277 362.185 361.93 361.715 361.45 361.242 361.102 360.967 360.757 360.672 360.325 360.065 359.885 359.7 359.395 359.09 358.805 358.49 358.227 358.015 357.735 357.585 357.465 357.27 357.142 357.052 356.96 356.83 356.665 356.475 356.382 356.152 355.955 355.652 355.43 355.232 354.987 354.777 354.435 354.16 353.807 353.51 353.225 352.982 352.765 352.555 352.407 352.24 352.015 351.705 351.435 351.142 350.825 350.522 350.1 349.742 349.245 348.775 348.087 347.355 346.677 346.31 345.917 345.475 345.237 345.135 345.16 345.257 345.345 345.327 345.252 345.095 344.865 344.73 344.522 344.367 343.922 343.6 343.222 342.74 342.312
417.84 417.577 417.452 417.28 417.085 416.85 416.71 416.655 416.55 416.412 416.332 416.34 416.375 416.342 416.287 416.31 416.157 416.055 415.922 415.855 415.752 415.655 415.66 415.625 415.527 415.485 415.475 415.507 415.555 415.525 415.407 415.212 415.142 415.062 414.97 414.87 414.705 414.585 414.457 414.385 414.335 414.167 414.07 413.88 413.802 413.635 413.467 413.252 413.2 412.935 412.86 412.777 412.615 412.327 412.172 412.057 411.832 411.657 411.495 411.41 411.247 410.947 410.727 410.552 410.325 410.095 409.815 409.455 409.082 409.242 409.53 409.63 409.497 409.452 409.432 409.33 409.285 409.145 409.055 408.882 408.622 408.542 408.372 408.16 408.017 407.885 407.85 407.782 407.572 407.407 407.235 407.04 406.872 406.707 406.447 406.16 406.12 405.977 405.71 405.622 405.55 405.6 405.482 405.427 405.27 405.242 405.12 405 404.802 404.652 404.507 404.472 404.36 404.25 404.182 404.085 403.872 403.74 403.525 403.427 403.32 403.212 403.122 403.01 402.757 402.522 402.335 402.145 401.852 401.73 401.522 401.19 400.932 400.56 400.357 400.04 399.945 399.755 399.417 399.25 399.237 399.13 398.975 398.91 398.845 398.815 398.542 398.315 398.2 398.155 398.382 398.492 398.297 398.097 397.86 397.697 397.63 397.465 397.227 397.032 396.73 396.44 395.79 394.36 393.742 393.847 394.012 394.72 395.015 394.895 394.747 394.64 394.415 394.267 394.16 393.92 393.72 393.222 392.572 391.882 390.515 389.05 387.812 388.112 389.49 390.622 391.135 391.51 391.485 391.21 391.015 390.807 390.605 390.317 390.097 389.77 389.475 389.135 388.882 388.557 388.295 387.852 387.462 386.92 386.477 386.05 385.392 384.87 384.32 383.942 383.505 383.01 382.57 382.157 381.805 381.387 380.937 380.485 380.015 379.605 379.7 379.682 379.717 379.735 379.705 379.672 379.402 379.2 378.807 378.577 378.285 377.897 377.68 377.502 377.262 377.052 376.745 376.385 376.147 375.852 375.582 375.372 375.157 374.94 374.765 374.62 374.48 374.445 374.287 374.03 373.842 373.67 373.437 373.16 372.875 372.66 372.352 372.17 372.037 371.93 371.757 371.63 371.58 371.297 371.132 370.982 370.822 370.627 370.465 370.382 370.212 370.207 369.927 369.617 369.38 369.012 368.707 368.38 368.092 367.765 367.33 366.925 366.597 366.355 366.202 365.867 365.555 365.345 365.182 365.012 364.732 364.462 364.25 364.03 363.817 363.577 363.185 362.967 362.865 362.722 362.71 362.6 362.527 362.362 362.147 361.907 361.66 361.522 361.385 361.187 360.942 360.657 360.422 360.235 359.952 359.682 359.465 359.18 358.895 358.677 358.42 358.205 357.992 357.867 357.742 357.642 357.565 357.567 357.47 357.297 357.107 356.922 356.747 356.562 356.37 356.135 355.922 355.625 355.355 355.052 354.675 354.375 354.067 353.822 353.56 353.355 353.242 352.92 352.732 352.485 352.205 351.942 351.73 351.482 351.14 350.755 350.222 349.742 349.145 348.495 347.687 347.032 346.627 346.24 345.897 345.737 345.702 345.852 346.032 346.09 346.067 346.04 345.932 345.74 345.517 345.22 344.942 344.607 344.327 343.84 343.427 343.04
